ply
format ascii 1.0
comment PCL generated
element vertex 1115
property float x
property float y
property float z
property uchar red
property uchar green
property uchar blue
element face 0
element camera 0
property float view_px
property float view_py
property float view_pz
property float x_axisx
property float x_axisy
property float x_axisz
property float y_axisx
property float y_axisy
property float y_axisz
property float z_axisx
property float z_axisy
property float z_axisz
property float focal
property float scalex
property float scaley
property float centerx
property float centery
property int viewportx
property int viewporty
property float k1
property float k2
end_header
1191.7487 1444.4191 2.6153905 255 255 255
432.87561 845.51752 1.7762984 255 255 255
551.2074 974.63177 1.6912532 255 255 255
-10538.885 -29880.799 -57.351036 255 255 255
133.71695 400.1196 0.84321451 255 255 255
831.71686 1790.9075 3.5229132 255 255 255
-780.8902 -964.74939 -2.0638504 255 255 255
-359.17819 -1424.131 -3.1426923 255 255 255
1208.5731 1457.1765 2.6370413 255 255 255
-1006.4441 -2439.7393 -4.9182687 255 255 255
290.24646 717.66321 1.5740764 255 255 255
921.28473 969.64069 2.2025516 255 255 255
332.41763 1044.4883 1.9820575 255 255 255
181.70016 500.1889 1.1012483 255 255 255
824.36664 1821.7692 3.6989596 255 255 255
584.20203 856.33734 1.7377998 255 255 255
1590.2958 1772.4296 3.2402589 255 255 255
274.59497 242.81642 0.40365177 255 255 255
-1780.0503 -7911.7827 -15.680767 255 255 255
611.04486 1123.2883 2.2575743 255 255 255
-1072.5518 -5003.3062 -9.6404591 255 255 255
288.33939 337.96176 0.44364527 255 255 255
1648.6465 3804.6047 8.7942028 255 255 255
47.572052 257.88553 0.47065896 255 255 255
928.03644 972.71143 2.2120423 255 255 255
394.13843 959.01422 1.3774064 255 255 255
84.690506 1965.0442 4.2927294 255 255 255
579.36902 1441.6243 2.8337259 255 255 255
90.872208 299.00012 0.55976415 255 255 255
1920.6697 1355.2947 3.4597759 255 255 255
-444.7478 -2128.1902 -4.214324 255 255 255
-288.52881 -1211.7822 -2.7565794 255 255 255
189.37062 482.42886 1.0638059 255 255 255
-1553.3108 -4107.2271 -8.5307884 255 255 255
242.77258 621.31 1.2015972 255 255 255
6628.5674 4056.7832 7.5486746 255 255 255
106.93701 389.12076 0.58934116 255 255 255
-379.38773 -2404.9451 -4.8639913 255 255 255
-254.63107 -1064.678 -2.4399929 255 255 255
6268.7222 3832.0837 7.3052316 255 255 255
181.55478 791.23389 1.2157907 255 255 255
1007.8374 3048.5037 6.7382698 255 255 255
631.85693 2508.739 3.4289205 255 255 255
-2154.3782 -2128.8301 -4.086772 255 255 255
579.91864 856.229 1.732228 255 255 255
49.207466 352.72614 0.65115798 255 255 255
156.63623 1387.4523 2.6378868 255 255 255
280.79388 420.99066 1.0805252 255 255 255
-1698.1287 -13882.467 -27.014896 255 255 255
546.08545 1490.3755 2.8630788 255 255 255
-1027.2172 -2290.2615 -4.8308377 255 255 255
184.11356 617.34723 1.1769167 255 255 255
319.81995 728.52094 1.0693022 255 255 255
-1776.7246 -5540.2915 -11.175115 255 255 255
1539.911 547.37402 2.0082982 255 255 255
779.40411 951.43408 1.1904887 255 255 255
-3155.4126 -1206.5212 -4.4471135 255 255 255
214.55061 225.14613 0.321989 255 255 255
546.33795 1152.6427 2.4297655 255 255 255
-647.68298 -775.54022 -1.869315 255 255 255
172.54208 399.11371 0.61485159 255 255 255
-649.80371 -2594.1064 -5.614594 255 255 255
62.745667 231.45424 0.34902757 255 255 255
-295.45645 -1241.0243 -2.7565749 255 255 255
742.47986 1835.5573 3.6824243 255 255 255
651.16943 262.06528 0.94635987 255 255 255
160.04695 522.51697 1.0204252 255 255 255
612.89807 2979.3542 5.779695 255 255 255
-983.06519 -723.17859 -2.3195493 255 255 255
63.704842 574.46283 1.2859013 255 255 255
482.15347 1376.0725 2.5926602 255 255 255
397.19861 1049.6473 1.768477 255 255 255
1087.7698 1692.7952 3.8222528 255 255 255
47.278152 517.80811 0.93055362 255 255 255
1197.6368 1438.2006 2.6226394 255 255 255
6681.7505 3934.2678 7.6904006 255 255 255
224.12718 841.875 1.2529701 255 255 255
2456.6206 2377.6765 3.525315 255 255 255
324.95697 322.80753 0.43973729 255 255 255
289.35812 336.40659 0.44091636 255 255 255
75.140289 263.8425 0.39503309 255 255 255
-404.00647 -1553.9297 -3.4536741 255 255 255
1193.9503 1311.2792 2.5880501 255 255 255
4165.2969 2386.7861 5.9214854 255 255 255
85.637764 485.80762 0.90533191 255 255 255
1105.1038 2951.6907 4.6454687 255 255 255
233.84975 2001.5522 4.2801328 255 255 255
-243.1917 -1084.145 -2.5080347 255 255 255
1352.4604 1108.3909 1.8796833 255 255 255
902.93457 1168.5209 2.2192256 255 255 255
894.11139 1161.8367 2.206408 255 255 255
114.05551 398.35422 0.59824598 255 255 255
135.55466 1337.6884 2.5977166 255 255 255
3706.415 1936.8351 5.6708493 255 255 255
6621.0688 3936.6001 7.6146507 255 255 255
662.71356 1357.9596 1.7050574 255 255 255
64.233734 259.98807 0.37313956 255 255 255
-309.85153 -1011.7363 -2.2792118 255 255 255
-1030.4135 -923.81824 -2.2966325 255 255 255
133.22037 559.6319 1.0181924 255 255 255
20.581738 248.41566 0.44459772 255 255 255
-2206.5813 -2996.8445 -6.1120167 255 255 255
63.840649 208.3779 0.33784601 255 255 255
164.23877 547.36279 1.2299504 255 255 255
1519.6393 1448.8221 2.9971125 255 255 255
339.60861 282.76956 0.46258253 255 255 255
997.9187 1424.2928 2.8430176 255 255 255
133.21115 579.91486 1.082158 255 255 255
2289.2148 6953.3984 10.520714 255 255 255
-7094.5894 -10869.869 -22.716137 255 255 255
1418.7625 1485.8538 2.8548243 255 255 255
1901.3883 1206.8629 3.5904701 255 255 255
242.66663 2547.3035 5.1348681 255 255 255
162863.05 104477.61 227.2114 255 255 255
94.723122 1571.9121 3.4562399 255 255 255
83.744751 283.70132 0.42927945 255 255 255
17826.928 3712.6465 24.49688 255 255 255
52.313068 746.69257 1.1017268 255 255 255
-1707.6515 -2751.8354 -4.6339631 255 255 255
62.580925 500.67096 1.0623671 255 255 255
21057.406 56863.75 94.577492 255 255 255
-543.45282 -1138.7284 -2.383471 255 255 255
170.47308 806.35187 1.132429 255 255 255
135.25641 463.30722 0.8344354 255 255 255
239.60042 225.71613 0.35261446 255 255 255
52.999043 322.46069 0.72047204 255 255 255
4634.6685 1790.1595 7.1727386 255 255 255
159.50465 333.25916 0.55007172 255 255 255
198.40799 439.30624 0.97071356 255 255 255
27.277443 356.36029 0.74701989 255 255 255
582.23145 840.00751 1.7258306 255 255 255
812.61926 2369.1343 5.2374644 255 255 255
518.59686 1286.1687 2.5216837 255 255 255
531.58624 517.43958 0.77711898 255 255 255
-580.25708 -2296.3186 -5.021946 255 255 255
-901.08661 -979.31732 -2.2456293 255 255 255
2225.574 2055.4922 3.740675 255 255 255
252.03932 2256.1848 4.6561995 255 255 255
1561.3365 577.00909 2.0738633 255 255 255
448.5466 2910.6133 6.0718408 255 255 255
51.890266 990.54688 1.7857859 255 255 255
526.82227 1888.4675 3.2044873 255 255 255
-436.09827 -1854.4059 -3.6451445 255 255 255
-1665.083 -1632.9667 -3.2180822 255 255 255
36907.559 38367.809 93.852333 255 255 255
64.169418 519.51001 1.1450306 255 255 255
305.0061 718.12628 1.4222066 255 255 255
64.752373 279.62915 0.60659122 255 255 255
66.523613 304.00577 0.58093113 255 255 255
232.8141 518.53674 1.0388948 255 255 255
-621.18353 -2735.0813 -5.7118993 255 255 255
31144.08 39956.887 84.281586 255 255 255
76.578522 235.63455 0.35718518 255 255 255
2284.7231 2334.6711 3.3550181 255 255 255
147.05984 368.3949 0.56433493 255 255 255
95.990677 575.74261 1.3039398 255 255 255
629.07727 4010.3896 7.633729 255 255 255
227.25897 875.66168 1.2797822 255 255 255
-2643.98 -2539.7244 -6.5578685 255 255 255
580.37677 613.92383 0.83840412 255 255 255
1159.7145 2736.1531 6.2739286 255 255 255
617.88922 3240.6394 6.3222942 255 255 255
1012.7068 1480.3865 3.1143596 255 255 255
440.2406 1054.6914 1.5506905 255 255 255
-342.72 -902.71136 -2.0336483 255 255 255
379.45908 940.13513 1.3482915 255 255 255
361.45761 563.39246 1.270134 255 255 255
291.60089 1538.3547 2.916369 255 255 255
57.195889 681.64185 1.5231903 255 255 255
69.218056 306.71021 0.47440431 255 255 255
494.21793 607.87952 1.0744913 255 255 255
62.39912 475.15253 0.90522903 255 255 255
75.709732 347.01285 0.71206146 255 255 255
-1008.3371 -1160.6766 -2.9431319 255 255 255
25.217319 232.42372 0.49142811 255 255 255
102.70924 1119.2733 1.8357295 255 255 255
215.91548 1545.9553 3.2736406 255 255 255
204.29721 920.85547 2.1991069 255 255 255
1281.9238 2602.8135 5.9214063 255 255 255
289.00128 322.43335 0.48192999 255 255 255
2335.405 1680.6169 3.9814317 255 255 255
271.03134 345.15097 0.46905538 255 255 255
131.20695 463.35687 1.0612792 255 255 255
2457.595 2003.4725 4.0198545 255 255 255
115.9931 595.64752 1.2487574 255 255 255
-15344.152 -11831.947 -24.457373 255 255 255
420.7132 2895.3743 6.3919983 255 255 255
-963.87482 -3552.3435 -7.7590299 255 255 255
766.1004 891.68127 1.1444734 255 255 255
2395.2913 1977.4178 3.954999 255 255 255
448.23508 807.09784 1.3644792 255 255 255
2319.957 1896.5393 3.8900785 255 255 255
2829.2668 2175.5955 4.3989205 255 255 255
181.75085 351.70999 0.58906966 255 255 255
178.77695 566.48322 1.2831208 255 255 255
156.31776 1309.375 2.134557 255 255 255
-6680.4761 -13718.132 -20.862396 255 255 255
984.69141 1355.1484 3.0671856 255 255 255
628.04413 409.56384 0.85163236 255 255 255
541.71356 477.89212 0.6594218 255 255 255
1075.9451 1503.3033 1.6034868 255 255 255
-1620.8226 -2215.5825 -5.6537452 255 255 255
-433.09875 -1071.8088 -2.4088919 255 255 255
2342.4705 1961.3535 3.8983047 255 255 255
86.94944 417.73627 0.62014967 255 255 255
2755.0713 2152.1133 4.321312 255 255 255
74.525467 309.15814 0.66113764 255 255 255
961.8891 2156.1628 4.6325116 255 255 255
550.22308 701.76404 1.0001495 255 255 255
-498.47467 -1733.6036 -3.8857474 255 255 255
189.62556 775.47571 1.8150384 255 255 255
2200.3315 1790.9443 3.5978196 255 255 255
-413.54703 -2272.8079 -4.870018 255 255 255
6260.875 3794.0112 7.3120618 255 255 255
189.17633 661.16223 1.25407 255 255 255
871.6593 3775.5056 6.0705867 255 255 255
4643.5151 1781.0281 7.2016325 255 255 255
12985.034 5267.6338 13.784418 255 255 255
205.41347 450.46692 0.87021476 255 255 255
4417.5879 2119.2654 6.4866228 255 255 255
1471.6121 2964.3848 6.8498759 255 255 255
258.44724 820.68335 1.8581835 255 255 255
6298.9097 3789.6362 7.3526278 255 255 255
429.9465 466.57941 0.65078729 255 255 255
2462.571 1869.6934 4.0692534 255 255 255
571.45697 964.56299 1.65388 255 255 255
91.448227 314.67487 0.628133 255 255 255
1607.4851 3669.6067 8.6646852 255 255 255
1420.8191 1491.3027 2.8576899 255 255 255
-518.59302 -671.11884 -2.1445496 255 255 255
87.537292 282.32434 0.55121744 255 255 255
881.35742 1073.7283 2.4015224 255 255 255
705.03589 499.67938 0.98737192 255 255 255
-8458.5322 -32494.119 -61.724312 255 255 255
316.10187 1279.7013 1.8201596 255 255 255
2870.4316 701.83893 3.1108575 255 255 255
3828.8826 1415.6467 6.4682765 255 255 255
355.19324 1531.2367 2.8176413 255 255 255
86.181145 189.09515 0.27982607 255 255 255
481.53143 618.99329 1.4748563 255 255 255
877.8775 1163.359 1.3078566 255 255 255
-85883.711 -129882.32 -246.0394 255 255 255
285.92273 998.6983 1.5250798 255 255 255
390.57208 772.23322 1.1264446 255 255 255
81.03508 596.93109 1.2339838 255 255 255
4624.5063 1466.7203 6.0342636 255 255 255
-3417.8252 -1244.7626 -4.4895663 255 255 255
-439.94888 -2227.8167 -5.0476809 255 255 255
2478.3813 1659.7512 4.1776166 255 255 255
63.543903 288.14755 0.65440005 255 255 255
74.124321 423.95712 0.60673064 255 255 255
2691.9175 3130.3804 6.2134657 255 255 255
4315.0288 2582.0127 5.9806323 255 255 255
-1868.7422 -2496.8286 -3.9218321 255 255 255
316.19589 717.00073 1.0530007 255 255 255
126.81458 638.17059 1.2083148 255 255 255
-5858.6582 -1947.0492 -7.7289257 255 255 255
91.492203 388.95142 0.56960756 255 255 255
2614.2539 2147.5166 4.3810239 255 255 255
475.24268 331.9169 0.58711821 255 255 255
196.6582 804.48529 1.1857945 255 255 255
588.54602 943.2887 1.5697135 255 255 255
-741.82458 -1251.681 -2.962584 255 255 255
133.45557 438.62045 0.97009557 255 255 255
6085.1714 3651.7104 7.2343884 255 255 255
1095.46 1333.1879 2.4758236 255 255 255
-1626.233 -2026.1906 -4.147583 255 255 255
2381.8159 1922.149 3.9536002 255 255 255
9889.5654 1522.7748 12.62131 255 255 255
110.71391 227.90814 0.3501825 255 255 255
63.933296 422.32803 0.88468915 255 255 255
-1482.1522 -874.97906 -2.9345601 255 255 255
163.22978 585.64685 1.2659423 255 255 255
231.36353 219.99699 0.31709301 255 255 255
92.876083 294.32013 0.43147078 255 255 255
1943.1877 1924.2362 2.774519 255 255 255
784.11108 509.30609 1.0794958 255 255 255
532.84216 785.40839 0.82920033 255 255 255
143.57446 277.62894 0.46949178 255 255 255
-1591.3733 -2757.5674 -6.598814 255 255 255
90.415161 647.13129 1.4133596 255 255 255
2158.4885 1562.076 3.794234 255 255 255
79.818169 323.15878 0.68342811 255 255 255
314.59512 732.21552 1.6016196 255 255 255
56.787575 234.30696 0.47048742 255 255 255
156.48112 436.45544 0.7625826 255 255 255
342.81714 1674.8766 3.6779075 255 255 255
915.33563 973.82654 2.1947794 255 255 255
2286.7759 2339.5146 3.3639886 255 255 255
-4121.6006 -1722.7117 -6.0084691 255 255 255
27.206776 269.26276 0.57671601 255 255 255
4227.8389 11350.178 26.659847 255 255 255
582.17035 498.16458 0.72377867 255 255 255
138.97374 1402.7893 2.7214007 255 255 255
-2132.9863 -3909.7725 -7.9411669 255 255 255
133.19199 459.59204 0.63714004 255 255 255
1008.067 6923.0444 15.13777 255 255 255
337.02567 2722.1335 6.1628823 255 255 255
2449.8503 2035.7235 3.3087118 255 255 255
6292.292 3828.7112 7.3215723 255 255 255
2158.8523 1568.0861 3.7901356 255 255 255
247.2941 320.7796 0.38055754 255 255 255
-529.54248 -1461.6123 -3.3012459 255 255 255
983.32709 3769.5481 5.5108886 255 255 255
-2312.4844 -3289.761 -6.7998433 255 255 255
217.96471 686.55762 1.6461557 255 255 255
65.953552 358.59372 0.7879076 255 255 255
607.9577 608.78717 0.80293787 255 255 255
149.18239 1599.484 3.3219404 255 255 255
113.03969 552.55676 1.0831002 255 255 255
2770.5718 1996.5879 4.4010792 255 255 255
27.471977 266.63019 0.43273368 255 255 255
164.46883 440.47446 0.65946591 255 255 255
2246.2734 2046.7115 3.5129778 255 255 255
-661.77966 -898.89044 -2.1154115 255 255 255
442.84402 369.29163 0.61574274 255 255 255
1008.7508 1122.282 2.1527519 255 255 255
31.276758 280.5748 0.61539525 255 255 255
270.38867 714.40509 1.6467501 255 255 255
-20976.691 -52279.629 -84.25457 255 255 255
102.37404 286.72937 0.43937811 255 255 255
265.05707 840.20148 1.2474834 255 255 255
794.19257 2269.8997 4.88203 255 255 255
2393.5034 1848.2361 3.9921432 255 255 255
317.86481 1018.987 2.2394679 255 255 255
62.332642 334.39178 0.66204762 255 255 255
2989.9846 2708.7764 4.1954808 255 255 255
13316.161 5221.4668 14.241138 255 255 255
74.628853 305.5434 0.64852035 255 255 255
-2725.5437 -1067.2368 -3.940042 255 255 255
59.123127 282.2724 0.6256274 255 255 255
5626.5234 18933.812 38.124607 255 255 255
57.377605 883.70453 1.3118925 255 255 255
228.89713 850.33771 1.6089106 255 255 255
127.74659 42.222038 0.17284988 255 255 255
327.186 573.50574 1.2268462 255 255 255
48.272251 264.29819 0.51100278 255 255 255
-1484.8765 -8288.9131 -15.950293 255 255 255
17800.43 22786.619 42.1455 255 255 255
119.81035 555.85791 1.1091411 255 255 255
8254.8232 1183.506 10.723368 255 255 255
432.91199 549.06665 0.77913952 255 255 255
7775.252 7771.6382 12.887359 255 255 255
16850.094 5844.6187 17.620689 255 255 255
21.734816 275.60739 0.56667662 255 255 255
4198.6865 3318.9705 5.9441471 255 255 255
1110.6816 1490.3889 3.5666852 255 255 255
728.33154 2905.3071 4.3917465 255 255 255
-402.69629 -1898.7036 -4.2935753 255 255 255
748.5296 2626.6428 4.0858822 255 255 255
1077.0034 851.01123 1.5957403 255 255 255
-1425.2507 -1259.8856 -3.0335729 255 255 255
2872.873 1774.7374 4.642952 255 255 255
6371.2139 5029.6069 9.5291204 255 255 255
716.91461 1244.4113 2.2081101 255 255 255
75.636925 267.96164 0.48678964 255 255 255
3050.3291 14131.507 26.65608 255 255 255
145.10669 634.00891 1.2126986 255 255 255
1200.3408 1445.9784 2.6267033 255 255 255
608.18146 1141.1407 1.6846714 255 255 255
-1411.7869 -6591.1377 -12.350125 255 255 255
2480.6262 1668.8577 4.1773548 255 255 255
235.94936 1489.9191 2.8932545 255 255 255
551.06061 737.20673 1.090256 255 255 255
991.73224 1117.027 2.3275621 255 255 255
2693.2014 1971.6497 4.3160262 255 255 255
169.56949 471.93942 1.0298821 255 255 255
809.77844 1574.1343 3.2938201 255 255 255
1393.7642 1454.0455 2.8314662 255 255 255
-3823.3608 -9747.0205 -19.402203 255 255 255
18607.58 16719.023 33.156612 255 255 255
901.16516 1164.5223 2.2158847 255 255 255
334.04587 2055.4385 4.4097238 255 255 255
108.54739 480.95294 0.89372385 255 255 255
567.37878 435.6774 0.75869262 255 255 255
175.0722 233.38432 0.26164269 255 255 255
91.916817 689.50775 0.93649203 255 255 255
2110.8511 2467.6824 3.4672627 255 255 255
82.524765 421.48819 0.62923789 255 255 255
-504.90475 -1426.1753 -3.1122639 255 255 255
570.84442 429.07721 0.72655714 255 255 255
147.90065 180.43549 0.20147684 255 255 255
807.26471 500.12411 1.08885 255 255 255
241.26184 1158.526 2.1712737 255 255 255
130.65367 589.57715 1.3679821 255 255 255
569.61829 838.77136 0.91786391 255 255 255
-159.87413 -419.00543 -1.5455964 255 255 255
1218.6984 1464.2339 2.6515903 255 255 255
2180.1726 2067.9468 3.6865273 255 255 255
115.81755 271.0079 0.34887695 255 255 255
181.91736 190.31638 0.26363286 255 255 255
1892.5751 1850.947 3.3941686 255 255 255
965.30762 3079.5076 6.0133357 255 255 255
302.45718 1382.3905 2.6857364 255 255 255
25.270191 211.18297 0.33449718 255 255 255
-19359.549 -76446.898 -138.02342 255 255 255
276.94247 1924.2122 4.3099875 255 255 255
1282.3032 10656.795 15.234106 255 255 255
51203.367 52646.527 88.312576 255 255 255
1637.3054 586.06702 2.1937246 255 255 255
-385.72641 -2569.7383 -5.3700061 255 255 255
278.94601 6322.6616 13.577024 255 255 255
21.206606 255.28882 0.61627352 255 255 255
278.4371 2130.1904 4.5503521 255 255 255
566.58765 241.67921 0.70779526 255 255 255
175.83591 219.21397 0.27799675 255 255 255
82.906509 421.87012 0.77485639 255 255 255
3396.1252 3454.0535 6.3646359 255 255 255
1477.0647 3360.9656 7.392982 255 255 255
454.28036 517.04077 0.68461353 255 255 255
278.69061 762.91119 1.4194012 255 255 255
-1300.4508 -3629.8633 -7.0616837 255 255 255
585.80328 839.99164 1.7313128 255 255 255
35.225445 584.69458 1.2768035 255 255 255
515.65204 936.50897 1.5255386 255 255 255
-427.95001 -1073.4771 -3.502712 255 255 255
253.38336 767.75159 1.5221608 255 255 255
-2638.7451 -7205.9204 -14.39271 255 255 255
970.36627 1677.1602 3.7882233 255 255 255
3426.6841 2370.6252 5.0200992 255 255 255
307.29709 1517.7469 3.2035398 255 255 255
2371.9866 1898.1398 3.9494064 255 255 255
376.80142 810.3418 1.2094948 255 255 255
48.73415 292.92508 0.43873602 255 255 255
135.78648 311.75909 0.36094728 255 255 255
-6184.1836 -15045.854 -24.257801 255 255 255
401.13647 1163.236 1.6599605 255 255 255
627.32245 482.52859 0.8156535 255 255 255
106.37688 341.2417 0.65953958 255 255 255
71.54538 253.09647 0.38088438 255 255 255
1091.1241 2702.0796 5.8041301 255 255 255
219.23824 223.3764 0.31222707 255 255 255
2403.2522 1700.6304 4.0593042 255 255 255
2588.6509 1912.1799 4.2119575 255 255 255
247.92184 499.74847 0.63448024 255 255 255
301.69666 1070.4863 1.5675088 255 255 255
147.40355 449.62198 0.67214292 255 255 255
128.54895 569.90479 1.27432 255 255 255
2496.5457 1908.0345 4.099227 255 255 255
544.91772 1436.3505 2.8434622 255 255 255
475.88443 947.12164 2.3596172 255 255 255
-346.66437 -1136.8873 -2.5748432 255 255 255
-252.93423 -425.53003 -1.6126451 255 255 255
115.1515 449.77731 0.90207577 255 255 255
250.45241 219.48297 0.33647472 255 255 255
-2471.0015 -2741.2468 -5.8566523 255 255 255
622.32507 432.1149 0.78770584 255 255 255
88.382545 483.01215 1.1459017 255 255 255
743.72443 809.1803 1.0151463 255 255 255
4817.6885 9233.7705 16.791527 255 255 255
-4686.3252 -2156.3276 -6.7961745 255 255 255
85.74781 358.61328 0.94433814 255 255 255
1213.6025 1431.115 1.7400763 255 255 255
567.32611 432.17703 0.72450233 255 255 255
2125.782 1501.1306 3.7721586 255 255 255
86.118729 269.37445 0.44599089 255 255 255
6600.5151 3960.7458 7.9232116 255 255 255
2665.7439 1715.7452 4.4011211 255 255 255
-2565.0098 -5519.1533 -11.863697 255 255 255
-474.0513 -2261.6841 -4.8925471 255 255 255
1106.2816 3240.3306 6.7605534 255 255 255
131.30914 349.8468 0.54779571 255 255 255
2400.0264 1973.9655 3.9617023 255 255 255
137.1904 407.0748 0.67803746 255 255 255
378.08954 1718.5065 3.6549923 255 255 255
2962.5247 1831.1842 4.0284019 255 255 255
415.22809 1048.564 1.6429516 255 255 255
1798.8785 1478.994 3.3308775 255 255 255
995.20325 1373.9301 1.4586867 255 255 255
-454.57065 -1521.3723 -3.2987607 255 255 255
-417.93027 -2077.7444 -4.5502038 255 255 255
-6184.1714 -1969.6709 -8.2767477 255 255 255
111.71452 380.04395 0.80670208 255 255 255
-2664.7129 -6989.7002 -11.75038 255 255 255
208.93924 503.84723 1.1855283 255 255 255
190.81126 202.5397 0.28123239 255 255 255
115.82643 393.4263 0.89715576 255 255 255
4033.281 2983.9292 5.3919311 255 255 255
6127.9595 3639.1494 7.2954898 255 255 255
840.13684 542.23328 1.1685475 255 255 255
-278.74484 -621.02228 -2.5870655 255 255 255
377.52924 938.17358 1.4537504 255 255 255
505.86847 338.15366 0.67119157 255 255 255
561.64496 1074.9866 1.8518996 255 255 255
264.78394 208.4185 0.32947439 255 255 255
1107.0776 2916.5645 4.3285365 255 255 255
1558.5863 1961.6802 2.4773879 255 255 255
-3504.6365 -4580.3159 -10.862905 255 255 255
202.39491 807.21533 1.8414503 255 255 255
242.9514 684.36182 1.2758232 255 255 255
346.94843 2323.4714 4.5791216 255 255 255
252.42551 214.30724 0.34028101 255 255 255
130.46602 585.81958 1.2640146 255 255 255
-616.17725 -604.7204 -2.0278757 255 255 255
389.89731 614.36499 0.62662983 255 255 255
138.33037 391.47495 0.78733128 255 255 255
97.568329 194.41568 0.21747072 255 255 255
567.39563 495.18088 0.68298501 255 255 255
-7161.2373 -9662.9248 -17.854635 255 255 255
114.14915 300.29584 0.42291561 255 255 255
1204.3348 1440.6682 2.6278141 255 255 255
133.41789 632.59387 0.92325562 255 255 255
281.01385 421.2421 1.0810978 255 255 255
4592.5859 1786.2194 7.1134605 255 255 255
413.87881 992.18481 1.5953176 255 255 255
273.25729 412.00107 1.061952 255 255 255
-1171.8496 -2004.2001 -4.129487 255 255 255
909.138 955.67688 2.1820402 255 255 255
131.58116 201.59872 0.21851946 255 255 255
547.65631 579.68219 1.0590693 255 255 255
66.274246 324.40924 0.60616928 255 255 255
609.41107 1199.3442 2.4106321 255 255 255
177.20978 425.09097 0.81462914 255 255 255
709.67731 1135.5549 2.3677835 255 255 255
192.96561 438.92285 0.84085667 255 255 255
231.37029 369.03232 0.77228671 255 255 255
156.94005 1338.7797 2.5730176 255 255 255
13383.185 3066.0842 17.804831 255 255 255
194.33344 3404.6892 7.1844254 255 255 255
51.959282 265.30325 0.51139838 255 255 255
2776.1401 4125.5347 7.2940202 255 255 255
-3300.1904 -7265.0298 -16.291462 255 255 255
145.76045 449.78864 0.96660364 255 255 255
319.48724 769.10852 1.4947737 255 255 255
-2987.0364 -3850.553 -7.8615832 255 255 255
53.07011 479.85156 0.86672401 255 255 255
1224.326 1428.2283 3.616765 255 255 255
-588.50562 -2682.2891 -5.1054788 255 255 255
40.955425 258.36227 0.53852731 255 255 255
333.02521 2414.9675 4.9752684 255 255 255
288.50134 668.0376 1.3166238 255 255 255
6258.0679 3793.178 7.3065209 255 255 255
452.103 4818.1069 11.335075 255 255 255
210.13522 517.30402 0.99897116 255 255 255
915.51459 2326.9578 3.5841849 255 255 255
131.06543 274.1456 0.44260934 255 255 255
157.425 791.32343 1.4821678 255 255 255
-1926.6282 -2920.8582 -6.9054255 255 255 255
577.90613 740.95386 1.6886569 255 255 255
389.43918 399.35773 0.93153167 255 255 255
-534.56287 -739.37048 -1.7792336 255 255 255
-322.42984 -1734.942 -4.1843786 255 255 255
35.284676 250.32664 0.45605206 255 255 255
-2158.8757 -11927.27 -22.523998 255 255 255
747.80719 964.68311 1.9753584 255 255 255
680.50189 254.50072 0.93614042 255 255 255
701.74969 454.18301 0.97416115 255 255 255
1817.2642 1484.8297 3.3550329 255 255 255
-6964.4185 -8581.7393 -13.484942 255 255 255
1996.1547 2033.2606 2.8734007 255 255 255
38.886509 340.56265 0.75071222 255 255 255
1011.2397 1326.1661 1.772403 255 255 255
195.97713 609.73663 1.2093462 255 255 255
470.63239 3889.0093 9.2019186 255 255 255
197.25131 658.75909 1.3761774 255 255 255
37.456341 235.73511 0.39020434 255 255 255
144.84297 959.04468 1.5508294 255 255 255
1003.0784 1332.8434 2.374624 255 255 255
-466.01147 -2017.5494 -3.8079591 255 255 255
-1864.1383 -2694.7693 -5.521544 255 255 255
75.957405 361.37347 0.76877952 255 255 255
33.908291 330.36301 0.74728495 255 255 255
-6135.3433 -10350.878 -22.355961 255 255 255
1740.6587 1600.8733 3.2361207 255 255 255
1083.5363 1230.0654 2.4576182 255 255 255
1195.5121 1445.6759 2.6196434 255 255 255
773.16858 9601.0283 21.074034 255 255 255
988.06885 734.35858 2.304517 255 255 255
78.43428 1457.6398 3.0268924 255 255 255
126.23003 486.97623 0.94768351 255 255 255
142.55949 371.5517 0.62649035 255 255 255
260.1778 902.4693 1.3923699 255 255 255
4164.77 2385.9727 5.9214454 255 255 255
1076.4644 1226.8828 2.4486716 255 255 255
1029.3495 1909.1246 4.2725101 255 255 255
802.75146 2320.533 5.002892 255 255 255
1816.1455 1486.8658 3.3529377 255 255 255
68.182274 361.40231 0.80112553 255 255 255
-590.92145 -836.20837 -1.9858173 255 255 255
280.60086 635.65527 0.74206781 255 255 255
3816.4231 8487.9678 18.984743 255 255 255
92.988335 409.32568 0.84418583 255 255 255
459.21362 806.45105 1.5700178 255 255 255
1421.845 3276.1829 7.310215 255 255 255
1215.874 1463.5797 2.6461403 255 255 255
2703.1555 2723.2566 3.9937267 255 255 255
119.09301 577.9408 0.85963058 255 255 255
244.77467 527.0351 1.2563045 255 255 255
-804.10919 -1252.124 -2.4237828 255 255 255
39.275902 283.21643 0.59630513 255 255 255
4631.1504 1788.4304 7.1669984 255 255 255
80.137871 291.16043 0.42456391 255 255 255
222.44432 916.10449 2.0567193 255 255 255
138.37328 317.27689 0.62406081 255 255 255
258.78009 1153.3269 1.7226589 255 255 255
-2332.6509 -9294.4346 -20.273973 255 255 255
-811.36224 -812.59131 -2.008944 255 255 255
28.792963 487.37503 0.94351137 255 255 255
2323.5781 6897.875 15.254568 255 255 255
755.58838 2118.575 4.5973539 255 255 255
103.34669 425.90375 0.69410312 255 255 255
570.23785 1906.5021 2.8491652 255 255 255
1201.624 1440.0063 2.6287642 255 255 255
6628.1509 4055.6106 7.5476933 255 255 255
988.75793 2445.7246 4.8631577 255 255 255
206.53404 478.53738 0.96951675 255 255 255
251.47589 622.07074 1.1840641 255 255 255
238.00014 676.8786 1.2911177 255 255 255
91.250092 390.73804 0.71936208 255 255 255
-451.21432 -1212.4922 -2.9006805 255 255 255
64.957649 277.48761 0.51102054 255 255 255
292.90417 568.46619 1.1339922 255 255 255
1524.777 1123.7755 1.9152697 255 255 255
795.78766 1407.635 2.3918545 255 255 255
172.23077 452.21402 0.70798182 255 255 255
147.53841 736.54108 1.0528699 255 255 255
344.21271 962.53442 2.268908 255 255 255
727.01642 1712.0433 3.2488701 255 255 255
63.030106 381.92438 0.69607228 255 255 255
727.97742 1372.4965 2.3386245 255 255 255
611.1488 1294.9572 2.5589685 255 255 255
45.672832 519.9679 1.1780642 255 255 255
1558.1285 575.5365 2.0699732 255 255 255
578.92059 1077.4675 1.907439 255 255 255
627.61151 1716.7542 2.5611963 255 255 255
6481.5825 18953.527 29.08139 255 255 255
-293.06644 -2196.688 -4.6845679 255 255 255
46555.09 88621.938 140.39375 255 255 255
749.28204 525.94409 1.1345799 255 255 255
34415.766 22930.553 48.639286 255 255 255
158.31181 1247.1609 2.3174934 255 255 255
802.06561 500.82321 1.1126299 255 255 255
199.24057 208.30823 0.28751671 255 255 255
1028.7909 1731.1654 4.0071483 255 255 255
665.54999 292.54565 0.89542717 255 255 255
898.72546 1162.3583 2.2108836 255 255 255
284.96317 1227.2616 1.9159257 255 255 255
2598.1897 7309.0391 18.000944 255 255 255
538.24377 290.05878 0.73073101 255 255 255
5429.8169 1748.9517 8.5061436 255 255 255
505.94864 2117.1501 4.0603023 255 255 255
74.614716 872.53125 1.284941 255 255 255
158.13841 1451.0269 2.7285192 255 255 255
-7819.9277 -5625.4829 -10.424243 255 255 255
124.80642 760.10931 1.7138512 255 255 255
2561.2969 2085.6951 4.1162543 255 255 255
472.67548 376.15866 0.66092283 255 255 255
23.488649 192.72752 0.28408748 255 255 255
688.59235 1158.2003 1.9863541 255 255 255
13707.558 3440.9192 18.471951 255 255 255
138.97691 441.95453 0.99056417 255 255 255
313.43134 847.18652 1.8442118 255 255 255
4308.6152 1587.1652 5.361506 255 255 255
57.391514 366.27701 0.82551926 255 255 255
1326.9695 1432.2139 1.7793036 255 255 255
82.084946 307.02756 0.57775515 255 255 255
58.038887 618.38196 1.481209 255 255 255
61.867558 440.15283 0.64726162 255 255 255
311.49207 2363.9407 3.2127006 255 255 255
123.0752 438.13364 0.64453143 255 255 255
489.91357 2932.5098 6.1296387 255 255 255
35326.938 145005.39 261.38391 255 255 255
3824.7568 1414.5503 6.4604311 255 255 255
408.73517 770.65662 0.76835138 255 255 255
-1341.418 -2751.823 -4.1086769 255 255 255
75.68782 259.14822 0.37897912 255 255 255
1261.2645 4195.9868 5.8440933 255 255 255
-326.64453 -970.50928 -2.2650521 255 255 255
64.018433 381.78616 0.76270658 255 255 255
-492.80023 -3664.0239 -7.2197423 255 255 255
35472.234 7048.1362 45.68964 255 255 255
1013.7011 1296.1382 2.7442524 255 255 255
184.94441 650.97278 1.011513 255 255 255
2398.9524 1989.7666 3.9548123 255 255 255
3899.967 2642.9834 5.4213161 255 255 255
614.78607 695.02283 0.9189316 255 255 255
40.707512 229.62769 0.41536003 255 255 255
51.473053 288.76086 0.63666385 255 255 255
-342.09723 -2377.8262 -5.3586378 255 255 255
462.46942 500.26898 0.66209292 255 255 255
18207.904 3813.4917 23.569021 255 255 255
186.78365 1242.92 2.3352773 255 255 255
196.65756 1061.4691 2.0079212 255 255 255
1193.7352 1310.4789 2.5859878 255 255 255
-2964.8186 -1021.3135 -4.2342377 255 255 255
2464.2275 1871.5211 4.0730867 255 255 255
44.875381 304.60092 0.59170598 255 255 255
634.91449 577.97278 0.93179214 255 255 255
-304.21515 -1213.3116 -2.6781607 255 255 255
260.39957 258.10544 0.35712141 255 255 255
475.11456 331.66455 0.58688492 255 255 255
55.703789 513.81622 1.052736 255 255 255
275.75342 407.10458 1.0613575 255 255 255
1386.248 1482.4491 1.9318048 255 255 255
-540.33484 -3522.155 -7.7164621 255 255 255
2820.7029 2266.2344 3.9361436 255 255 255
3699.365 1933.3961 5.6595769 255 255 255
1460.8727 1927.9078 4.4840226 255 255 255
317.84805 727.2774 1.0709398 255 255 255
2876.5571 1782.8826 4.6425476 255 255 255
1087.8524 855.97736 2.0429549 255 255 255
329.29294 773.79816 1.6674068 255 255 255
225.30487 579.47565 0.95777524 255 255 255
241.89508 2946.0208 6.412806 255 255 255
21.161263 279.73563 0.58646512 255 255 255
-601.58002 -1386.2643 -3.2956245 255 255 255
224.31247 223.39189 0.33032709 255 255 255
187.09045 209.88686 0.28224593 255 255 255
406.60666 742.0556 1.709067 255 255 255
21.51178 466.47934 0.83395535 255 255 255
47.129482 569.79688 1.2738589 255 255 255
8755.6475 1254.1396 11.435555 255 255 255
2407.9353 1997.0197 3.9634087 255 255 255
-4130.8862 -1187.1758 -5.4036651 255 255 255
384.70816 2527.4612 5.5430164 255 255 255
666.03461 421.30743 0.90851986 255 255 255
132847.64 80512.141 180.4241 255 255 255
2476.4172 1658.2428 4.1743016 255 255 255
538.6153 484.31415 0.7085591 255 255 255
147.3562 554.54779 1.0526384 255 255 255
2345.8459 1969.5101 3.8994844 255 255 255
54.658638 269.91928 0.57647198 255 255 255
59.119087 291.74789 0.54491413 255 255 255
4648.4121 1783.6783 7.2110996 255 255 255
47.417046 327.19266 0.73115951 255 255 255
2226.0264 2055.4805 3.7422421 255 255 255
90.903625 866.55243 1.3016912 255 255 255
687.23834 821.0274 1.0260072 255 255 255
1328.9573 1412.4175 1.909536 255 255 255
161.78738 902.82867 1.3447 255 255 255
235.54422 549.40002 1.2507615 255 255 255
682.01068 1011.8254 1.8294652 255 255 255
-1795.6501 -864.04224 -3.6034138 255 255 255
511.2778 933.28003 1.5319481 255 255 255
263.76199 527.05194 1.1018841 255 255 255
2690.2561 7738.2007 17.620258 255 255 255
107.66407 402.40036 0.88936543 255 255 255
314.83801 881.90472 1.4162154 255 255 255
157.94107 545.2016 1.1960531 255 255 255
120.42796 260.25729 0.43025252 255 255 255
1718.4076 3997.3442 8.9481688 255 255 255
1322.6488 2493.9133 5.1776147 255 255 255
253.78752 480.20462 0.77177298 255 255 255
-399.55234 -3011.3037 -6.5543232 255 255 255
936.85291 983.27081 2.2247822 255 255 255
951.23468 1209.1541 2.5042629 255 255 255
-5513.3335 -2189.8159 -7.5002198 255 255 255
58.18108 322.36963 0.68809581 255 255 255
248.3614 2113.7671 4.4883451 255 255 255
498.32111 996.05005 2.0203509 255 255 255
805.89874 1410.2498 2.736954 255 255 255
56.359444 284.87393 0.56229192 255 255 255
87.403099 261.66107 0.51688015 255 255 255
11711.167 5492.6729 12.12017 255 255 255
344.52502 1980.1704 4.439889 255 255 255
11693.612 5477.3003 12.096242 255 255 255
286.97055 843.92346 1.6474621 255 255 255
-436.86105 -1234.3419 -2.7443345 255 255 255
995.50549 1119.4132 2.3318727 255 255 255
199.09717 640.56915 1.3686856 255 255 255
934.27832 967.32855 2.2188635 255 255 255
45.70372 232.10017 0.47204694 255 255 255
1901.6704 1207.2295 3.5912905 255 255 255
-2946.1633 -6826.4917 -12.627266 255 255 255
76.376297 481.89456 0.95601654 255 255 255
419.92557 1154.8615 1.7616538 255 255 255
-588.60254 -2835.5193 -6.1094937 255 255 255
518.53656 691.96625 0.96070099 255 255 255
501.37823 1004.6038 2.0419316 255 255 255
-1001.7056 -3752.0952 -8.0080051 255 255 255
-415.45694 -2017.9825 -4.6448774 255 255 255
1215.2223 1456.9316 2.6461089 255 255 255
243.14641 1404.4928 3.2474499 255 255 255
2755.353 2151.8054 4.321579 255 255 255
549.7229 486.43015 0.70105213 255 255 255
1560.1272 1798.543 4.5319819 255 255 255
228.56174 424.9191 0.67261231 255 255 255
341.06784 837.96149 1.2171187 255 255 255
257.358 342.61856 0.47771755 255 255 255
63.961166 485.1897 0.94210589 255 255 255
280.38132 426.23215 1.0840992 255 255 255
-289.61853 -1712.3721 -3.8932514 255 255 255
569.54962 868.48688 1.5055032 255 255 255
-16835.184 -10147.611 -22.048409 255 255 255
79.178619 376.84192 0.56309289 255 255 255
13304.511 5215.4766 14.226224 255 255 255
914.15613 589.09863 1.2757673 255 255 255
1076.5653 850.58069 1.5955572 255 255 255
256.18243 498.7608 1.0471208 255 255 255
921.25043 699.95917 2.2006044 255 255 255
5845.8115 840.85004 7.306159 255 255 255
2338.0242 1682.719 3.9852636 255 255 255
90.99691 208.11455 0.41107637 255 255 255
542.34052 591.74182 0.78905773 255 255 255
-5565.4058 -1452.4708 -6.9145365 255 255 255
-376.87762 -1934.3776 -3.8500092 255 255 255
155.86339 619.69598 1.4991581 255 255 255
367.90326 4979.1143 10.843968 255 255 255
6284.0903 3783.5869 7.3352475 255 255 255
587.90894 696.20386 0.88702857 255 255 255
420.41211 545.7204 1.3302199 255 255 255
331.77777 659.18213 1.2262127 255 255 255
450.36899 806.74982 1.4078355 255 255 255
2395.9197 1977.9438 3.9568775 255 255 255
2831.0146 2177.1304 4.4028473 255 255 255
2993.5466 2066.8931 4.644846 255 255 255
-5524.6807 -2189.7498 -7.508172 255 255 255
16350.013 5751.9932 17.127899 255 255 255
1910.3728 4513.0068 10.123804 255 255 255
12883.975 9543.3086 19.627716 255 255 255
583.04816 979.9527 1.7047292 255 255 255
1263.1293 3335.4885 7.2291331 255 255 255
92.428383 685.80902 1.0132947 255 255 255
2382.9502 1922.8846 3.9556208 255 255 255
916.52325 1194.025 1.3271925 255 255 255
2298.8623 1612.2456 3.9598429 255 255 255
787.526 670.40765 1.7370806 255 255 255
-13643.126 -10304.641 -19.791546 255 255 255
-842.74359 -2554.7917 -5.4420109 255 255 255
25.119986 387.3898 0.56134897 255 255 255
81.660843 337.65753 0.73793203 255 255 255
307.84525 942.53656 2.0772295 255 255 255
2911.6174 2041.5659 4.556488 255 255 255
2431.428 1927.6761 4.0112047 255 255 255
-985.39917 -1216.535 -2.5245628 255 255 255
3933.8921 2067.1948 5.8663063 255 255 255
838.55499 578.55609 1.4765342 255 255 255
95.989891 362.01062 0.81598699 255 255 255
381.68436 861.13898 1.347495 255 255 255
2369.386 1901.9595 3.9458172 255 255 255
2126.8828 1501.3977 3.7737985 255 255 255
96.211365 205.02983 0.2421871 255 255 255
49.696945 401.99698 0.61365318 255 255 255
2322.9709 2009.6519 3.8667655 255 255 255
718.89056 4515.7178 7.4486203 255 255 255
921.09558 955.50946 2.199877 255 255 255
16898.291 5802.5225 17.732018 255 255 255
3242.5723 2144.2834 4.9172277 255 255 255
2158.5386 1567.634 3.7904227 255 255 255
94.330452 471.78149 0.71814364 255 255 255
164.91905 504.5173 1.0253135 255 255 255
2497.085 1908.9374 4.0996547 255 255 255
307.25946 437.0769 0.82730752 255 255 255
76.957237 872.0376 1.2859701 255 255 255
394.27191 1744.359 3.6546369 255 255 255
333.0643 2045.2864 4.4034915 255 255 255
269.08347 1225.3021 2.3300757 255 255 255
51.652836 328.44867 0.7240836 255 255 255
-309.50882 -1828.949 -4.0136867 255 255 255
185.49333 582.37396 0.89614594 255 255 255
156.45401 563.12714 0.80730289 255 255 255
2798.6499 1978.3594 4.4443822 255 255 255
991.42456 1116.4095 2.32635 255 255 255
-2265.7793 -11012.763 -24.367899 255 255 255
-1738.2087 -1269.4392 -3.0392919 255 255 255
-3777.7051 -9306.4688 -14.639143 255 255 255
172.54904 184.19333 0.25548708 255 255 255
181.88882 466.40652 0.71152818 255 255 255
-14355.384 -6130.6831 -18.063103 255 255 255
618.04932 996.76715 1.7105515 255 255 255
125.52981 319.95541 0.48596409 255 255 255
7090.9175 4276.9243 8.0645027 255 255 255
927.93463 694.88336 2.1828387 255 255 255
-805.91943 -1598.6793 -3.751842 255 255 255
12614.843 2483.9758 13.575823 255 255 255
2398.8865 1973.3594 3.9592285 255 255 255
104.47869 319.89062 0.74990547 255 255 255
74.199402 243.3956 0.35895658 255 255 255
477.57257 412.716 1.0070678 255 255 255
198.93124 530.96198 1.0282345 255 255 255
550.12695 331.92517 0.76266754 255 255 255
513.46118 869.64868 1.4962687 255 255 255
-2240.5938 -9517.3145 -20.22891 255 255 255
289.45636 1551.5844 3.2800829 255 255 255
100.50265 176.20311 0.17864898 255 255 255
120.62531 1632.7056 3.3420608 255 255 255
492.92429 635.26697 0.75331593 255 255 255
6091.8496 3656.8188 7.2433953 255 255 255
2586.9487 1910.1902 4.2079849 255 255 255
1918.5928 1214.9751 3.6116574 255 255 255
-5839.2153 -13491.216 -21.039549 255 255 255
265.02878 2213.2297 5.0573225 255 255 255
850.17078 1794.224 4.0218868 255 255 255
2546.187 2205.6379 3.6088803 255 255 255
118.94205 436.81616 0.91415012 255 255 255
623.82648 882.34277 1.5240452 255 255 255
-617.55121 -2327.1411 -5.3637657 255 255 255
48.865826 429.06891 0.84461051 255 255 255
2317.646 1894.3297 3.8870256 255 255 255
193.2653 1534.5769 3.2461951 255 255 255
-1584.007 -2698.6443 -5.9510427 255 255 255
3028.856 2051.1157 4.6995392 255 255 255
3111.0735 2074.0823 4.7874546 255 255 255
2155.5535 1559.7573 3.787878 255 255 255
2371.9912 1897.9716 3.9481254 255 255 255
154.55643 2119.1201 4.4224854 255 255 255
14.952936 380.03619 0.53962255 255 255 255
376.29504 2334.2781 3.4686081 255 255 255
2293.6865 1602.5369 3.9547887 255 255 255
51.794743 479.49603 0.96539915 255 255 255
549.07239 1339.9976 2.7047167 255 255 255
-730.08252 -3070.6372 -5.9164305 255 255 255
2107.6753 2095.1565 2.910579 255 255 255
68.323326 418.04984 0.92496669 255 255 255
1234.3428 1198.8474 1.8019054 255 255 255
117.67865 564.93274 1.226524 255 255 255
157.83687 362.27911 0.56165856 255 255 255
490.27228 607.56281 0.84903312 255 255 255
-992.36377 -3272.9216 -7.0919437 255 255 255
486.91547 680.75934 1.1650026 255 255 255
87.840248 842.72717 1.2296323 255 255 255
86.055275 235.26471 0.26036525 255 255 255
1592.8483 1960.2209 2.6381197 255 255 255
142.05521 408.47952 0.78819615 255 255 255
1939.3601 1491.9883 2.5997038 255 255 255
-631.49536 -1257.1622 -2.7416794 255 255 255
-436.08533 -1014.7904 -2.3348668 255 255 255
2184.4309 2070.7629 3.6936038 255 255 255
2663.5657 1714.8112 4.3977017 255 255 255
-451.99432 -1665.9398 -3.6815741 255 255 255
75.440758 762.41785 1.1126838 255 255 255
232.84219 235.31926 0.29839602 255 255 255
7697.5986 5408.1709 11.166316 255 255 255
-3531.4509 -890.86743 -4.7118602 255 255 255
361.72318 698.38141 1.4610432 255 255 255
-1623.8971 -1761.0864 -4.2055035 255 255 255
387.45679 3967.6462 7.9131875 255 255 255
2762.5442 1488.802 3.8553543 255 255 255
569.3869 264.69089 0.74720258 255 255 255
2835.6423 1831.3955 4.560463 255 255 255
1311.6781 3780.5667 8.0819168 255 255 255
52.660599 353.97586 0.74767357 255 255 255
2241.301 2043.4879 3.5085533 255 255 255
175.24365 3434.5767 7.7137918 255 255 255
-1008.6758 -2477.7039 -3.891598 255 255 255
3334.6306 1905.8024 5.18186 255 255 255
546.86481 2616.9312 5.1587806 255 255 255
644.96527 549.18048 1.1277405 255 255 255
5307.6855 2047.9133 7.4899082 255 255 255
2753.488 1807.5782 4.4671531 255 255 255
144.8958 402.88583 0.61491919 255 255 255
130.54391 947.83142 1.3713475 255 255 255
166.42599 194.89783 0.23471867 255 255 255
-633.84454 -1889.8141 -4.3135285 255 255 255
797.35956 758.73254 1.0649564 255 255 255
-43618.262 -80393.359 -133.36539 255 255 255
70.207565 535.40002 1.0471083 255 255 255
68.232346 218.51189 0.41040882 255 255 255
48.898273 312.84738 0.67114633 255 255 255
250.85373 702.77167 0.81356901 255 255 255
-236.30495 -1325.7743 -2.8957684 255 255 255
246.19817 1987.4443 4.2466593 255 255 255
65.745087 1044.3706 1.9533508 255 255 255
938.18744 2143.6289 4.2166381 255 255 255
104.45804 513.8222 1.1084435 255 255 255
56.588173 527.92908 1.2608743 255 255 255
126.33697 489.69489 1.0572377 255 255 255
675.72833 411.05881 0.90660483 255 255 255
2558.9727 2083.1245 4.1122904 255 255 255
157.82724 2592.8123 5.7486277 255 255 255
81.602699 391.29568 0.704781 255 255 255
771.79797 1019.6617 2.1011467 255 255 255
676.78174 2132.3521 3.1546786 255 255 255
-10016.348 -2458.3972 -12.468944 255 255 255
786.48254 529.03467 1.1112109 255 255 255
596.68579 694.26556 0.91334695 255 255 255
108.24479 529.95831 1.1788245 255 255 255
101.61017 176.32326 0.17976582 255 255 255
613.29633 1429.7874 2.883687 255 255 255
883.88037 1572.2756 3.1046708 255 255 255
561.05194 1252.245 2.4986048 255 255 255
99.71962 419.62881 0.81776112 255 255 255
199.23383 372.36224 0.70014477 255 255 255
-317.80777 -1244.9751 -2.7761226 255 255 255
600.75458 622.87537 0.89077097 255 255 255
381.44754 1031.0902 1.6330984 255 255 255
558.09229 984.2674 1.6410791 255 255 255
144.69514 1226.5907 2.2543037 255 255 255
2382.9592 1921.8937 3.9554286 255 255 255
261.40753 216.39963 0.37819502 255 255 255
94.495087 513.1355 0.93129379 255 255 255
-831.34912 -2034.3453 -3.9450302 255 255 255
2461.1577 1868.8696 4.0692358 255 255 255
-17907.344 -278242.84 -542.68994 255 255 255
322.77496 304.75671 0.46858546 255 255 255
216.42566 658.23126 1.2728472 255 255 255
1080.5383 1229.9952 2.4530842 255 255 255
-997.26611 -736.01123 -2.3667254 255 255 255
68.275017 335.15881 0.63703018 255 255 255
-6405.0093 -2113.9727 -8.4349766 255 255 255
429.98767 499.90747 1.2573186 255 255 255
-1230.0317 -2039.772 -3.561543 255 255 255
28.737738 265.61993 0.54637849 255 255 255
12761.453 5272.3174 13.541966 255 255 255
7293.019 5267.6665 11.050531 255 255 255
226.25485 241.26482 0.33723396 255 255 255
55.535713 331.8399 0.62755001 255 255 255
79.95578 470.62885 0.86780709 255 255 255
-411.33664 -2107.6812 -4.5452065 255 255 255
275.65253 407.13596 1.0615212 255 255 255
-2872.5916 -5761.8623 -13.893374 255 255 255
512.36884 582.74207 0.7586711 255 255 255
155.855 534.30096 0.78391153 255 255 255
465.229 743.11951 1.2546368 255 255 255
513.04199 762.8429 0.99964821 255 255 255
-5874.3354 -2380.7439 -8.1599388 255 255 255
22.375965 258.85651 0.47518513 255 255 255
177.36423 418.92612 0.80214298 255 255 255
-855.65021 -877.55743 -2.2354698 255 255 255
686.54993 1896.0564 3.7843537 255 255 255
38.57827 248.40875 0.44808441 255 255 255
1321.8918 3557.4363 8.3320761 255 255 255
422.17633 302.16913 0.57788306 255 255 255
1045.2518 2373.4336 5.0357866 255 255 255
407.97006 1318.7961 3.0799477 255 255 255
1702.7853 1581.5356 2.480232 255 255 255
51.059357 208.36629 0.32074037 255 255 255
461.8667 763.24402 1.3340106 255 255 255
114.09442 614.83112 1.2947583 255 255 255
123.05267 604.72266 1.3540843 255 255 255
6675.8623 3955.5557 7.655098 255 255 255
91.841736 417.09885 0.75025249 255 255 255
278.83151 837.56805 1.2556702 255 255 255
159.59863 797.68317 1.1876194 255 255 255
-627.91132 -889.8858 -2.0584676 255 255 255
240.62598 732.50983 1.7123396 255 255 255
286.07211 1113.6897 2.1227815 255 255 255
42.186253 224.78342 0.3314487 255 255 255
6610.1719 3931.9761 7.6040716 255 255 255
2756.8625 2152.1431 4.3246942 255 255 255
231.31071 368.72949 0.77208543 255 255 255
4629.3955 1778.0782 7.1836529 255 255 255
-11722.472 -30263.539 -70.419167 255 255 255
1827.4264 1497.0419 3.357533 255 255 255
990.14716 1114.7694 2.3229527 255 255 255
2475.5962 1658.3225 4.1719146 255 255 255
50.273502 197.62543 0.30280986 255 255 255
1018.0289 2883.6077 6.5294514 255 255 255
495.20966 899.55615 1.6101122 255 255 255
208.72057 623.53754 0.94253683 255 255 255
2371.6511 1914.2399 3.9440722 255 255 255
27.159824 250.87657 0.36933017 255 255 255
18192.783 11325.83 25.31394 255 255 255
1084.5289 864.03076 1.6039916 255 255 255
189.40469 482.31699 1.0639865 255 255 255
44.936241 265.58875 0.51338643 255 255 255
3753.6648 9327.127 21.56307 255 255 255
359.47952 832.72443 1.8951601 255 255 255
1269.0963 2538.6184 5.9894104 255 255 255
4344.7983 2249.6453 6.2592931 255 255 255
117.24371 365.28885 0.53941202 255 255 255
105.5639 336.9848 0.64057487 255 255 255
2338.0686 1958.8094 3.8901885 255 255 255
6236.7588 3740.748 7.3174829 255 255 255
178.42848 527.82678 0.85943824 255 255 255
64.574776 220.65849 0.41878957 255 255 255
6604.1475 3886.5398 7.6208863 255 255 255
66.79821 423.98575 0.78306317 255 255 255
2402.8921 1993.7955 3.9636345 255 255 255
-2228.2922 -4011.4326 -8.0987673 255 255 255
1812.7324 1487.7349 3.3445141 255 255 255
804.52374 2013.9313 3.9075971 255 255 255
133.74179 424.97894 0.8384102 255 255 255
931.49115 964.83038 2.2124684 255 255 255
47.775272 263.24731 0.49779379 255 255 255
351.77493 336.32758 0.51226801 255 255 255
-12901.17 -9987.3984 -30.597261 255 255 255
583.15686 855.51758 1.7359942 255 255 255
4638.9004 1790.5568 7.1783028 255 255 255
273.32449 412.03323 1.0620034 255 255 255
-514.10223 -1396.8397 -3.2088692 255 255 255
379.05435 769.01074 0.99543309 255 255 255
280.18338 420.44025 1.0793495 255 255 255
176.85539 534.04132 0.99230355 255 255 255
2406.7463 1995.3375 3.9616411 255 255 255
59.852337 414.35941 0.67002934 255 255 255
104.59202 483.24432 1.0871489 255 255 255
2318.3362 1889.255 3.8897099 255 255 255
305.65762 2526.1958 5.9440827 255 255 255
269.50574 207.08942 0.3717505 255 255 255
2346.7725 1970.1525 3.9004102 255 255 255
1076.4143 1226.2141 2.4473021 255 255 255
-798.95868 -7394.7324 -14.852391 255 255 255
-993.43195 -1011.8736 -2.3747694 255 255 255
56.649956 255.43881 0.60808712 255 255 255
-212.01166 -1445.2651 -3.302768 255 255 255
30.800394 423.37103 0.93251765 255 255 255
110.41792 407.16748 0.89215386 255 255 255
42.605522 469.32251 0.88077497 255 255 255
-308.41672 -1231.7018 -2.6990139 255 255 255
135.76462 513.68927 0.98850566 255 255 255
176.51573 412.92984 0.77774978 255 255 255
6540.1904 955.5188 8.3075867 255 255 255
274.22064 732.11005 1.3965513 255 255 255
132.68988 1155.4856 2.1850071 255 255 255
1620.8716 1910.6183 2.4430299 255 255 255
935.72778 982.31378 2.2226431 255 255 255
6634.9346 3931.3318 7.612936 255 255 255
10516.715 8888.4736 15.306067 255 255 255
4126.5674 11072.064 22.712385 255 255 255
2477.375 1664.8077 4.1706057 255 255 255
13367.132 3060.3328 17.783474 255 255 255
53.870041 315.08633 0.70397627 255 255 255
1210.2928 1452.0646 2.6388149 255 255 255
882.43256 492.33972 1.1908617 255 255 255
81.683662 539.61554 1.129724 255 255 255
-7114.4917 -14262.24 -23.02829 255 255 255
614.25659 199.56104 0.81396097 255 255 255
229.70782 551.27765 1.1107844 255 255 255
910.65027 957.32574 2.1863565 255 255 255
584.97485 1186.9536 2.3218191 255 255 255
195.10698 408.54449 0.77271795 255 255 255
90.730438 324.77753 0.60615891 255 255 255
750.28381 2172.6821 4.3956366 255 255 255
179.80151 2317.2234 5.092742 255 255 255
