ply
format ascii 1.0
comment PCL generated
element vertex 1112
property float x
property float y
property float z
property uchar red
property uchar green
property uchar blue
element face 0
element camera 0
property float view_px
property float view_py
property float view_pz
property float x_axisx
property float x_axisy
property float x_axisz
property float y_axisx
property float y_axisy
property float y_axisz
property float z_axisx
property float z_axisy
property float z_axisz
property float focal
property float scalex
property float scaley
property float centerx
property float centery
property int viewportx
property int viewporty
property float k1
property float k2
end_header
1552.2034 2336.5283 3.6194034 255 255 255
744.13531 671.75525 1.191972 255 255 255
470.75784 1256.6315 1.8761538 255 255 255
577.98309 1804.3247 2.7373407 255 255 255
-234.01204 -878.75592 -2.3403418 255 255 255
321.27029 646.46625 1.4357458 255 255 255
-741.72961 -1233.1892 -2.1998537 255 255 255
1843.6656 2697.4517 6.2604589 255 255 255
505.69257 1630.9689 2.4210773 255 255 255
326.91486 1467.1196 2.373405 255 255 255
6237.1128 3041.8916 9.456707 255 255 255
-2327.3254 -2210.8625 -6.3139791 255 255 255
374.58688 2900.6113 4.6120577 255 255 255
5244.4355 4298.7026 7.0299516 255 255 255
-2153.6938 -3533.8245 -7.7488823 255 255 255
-2700.1104 -3316.8831 -5.4727869 255 255 255
84.568687 983.52521 1.649789 255 255 255
3979.2681 4241.7593 10.344293 255 255 255
-725.61945 -2737.5789 -5.6844425 255 255 255
645.94452 1710.972 2.5571048 255 255 255
-1336.5597 -1725.038 -4.6561542 255 255 255
299.83975 1392.8046 2.1250489 255 255 255
284.39832 1035.3336 1.7786602 255 255 255
398.52991 1921.11 3.7512183 255 255 255
-2650.418 -4361.8115 -7.3250155 255 255 255
-841.53491 -5364.3003 -10.33379 255 255 255
-803.60773 -3651.0398 -6.2801027 255 255 255
-3170.6829 -14966.527 -23.232063 255 255 255
334.69785 1166.5378 1.9280349 255 255 255
-858.7937 -1474.3021 -3.5048599 255 255 255
39.054188 431.30847 0.67189676 255 255 255
-310.48984 -443.40936 -1.6839277 255 255 255
226.75763 1159.5243 1.9010662 255 255 255
449.465 1537.989 2.3165891 255 255 255
-1080.7122 -1280.8375 -3.8194733 255 255 255
-851.95081 -949.44379 -2.2723756 255 255 255
400.49658 748.37134 1.6193177 255 255 255
4376.6299 3533.5613 10.965269 255 255 255
338.18768 1344.5494 2.0976202 255 255 255
233.06709 968.72235 1.4774854 255 255 255
8767.2256 5297.5044 11.122073 255 255 255
-3372.5127 -699.41675 -4.6073046 255 255 255
-258.8157 -1028.0658 -2.6759665 255 255 255
504.3103 1677.3207 2.4564605 255 255 255
562.24701 2470.3804 4.2272797 255 255 255
422.72385 1507.3319 2.2787001 255 255 255
403.26398 750.11072 1.6225357 255 255 255
8240.4346 7100.377 17.867043 255 255 255
154.87575 1226.0042 1.9200665 255 255 255
-586.84521 -1265.6008 -3.5474608 255 255 255
-224.79924 -1414.5476 -3.5017576 255 255 255
1994.6005 6686.1436 10.219857 255 255 255
437.09717 3320.9558 5.2956519 255 255 255
-786.25287 -1187.2069 -2.1813207 255 255 255
115.54884 812.70593 1.1342897 255 255 255
-371.16663 -1808.547 -3.8642395 255 255 255
3269.1948 5778.5762 13.127041 255 255 255
514.04144 1438.0896 2.2701812 255 255 255
860.99738 1327.7474 2.513382 255 255 255
450.1311 1263.5466 1.8807936 255 255 255
-379.67569 -1970.4462 -3.844244 255 255 255
246.7218 1043.1907 1.7135295 255 255 255
1072.6309 6233.1392 11.553788 255 255 255
-1559.8881 -1501.8699 -4.6894026 255 255 255
358.5639 1607.7843 2.3393393 255 255 255
575.35181 965.53363 1.983116 255 255 255
453.79623 1472.2412 2.264713 255 255 255
579.72528 1325.6704 2.2284181 255 255 255
-2135.2996 -3041.502 -5.9902091 255 255 255
-1265.6388 -6515.7075 -11.182214 255 255 255
1172.1321 1392.049 2.4170878 255 255 255
-593.28162 -5948.1987 -10.402151 255 255 255
1679.8596 2120.9631 3.5138242 255 255 255
-487.02875 -5024.1284 -8.9159622 255 255 255
207.76949 737.57489 0.99049884 255 255 255
740.43268 888.67438 1.3772805 255 255 255
-1246.6815 -3121.1611 -5.655179 255 255 255
4414.0942 1964.3628 9.2244282 255 255 255
6892.4785 14710.793 32.468143 255 255 255
12281.997 19298.459 37.903049 255 255 255
11255.919 13358.247 21.176445 255 255 255
-273.99597 -6671.2373 -12.359266 255 255 255
1935.929 1449.6179 4.0139327 255 255 255
437.42294 604.31384 0.75938207 255 255 255
5665.6357 4777.3198 8.7504215 255 255 255
262.12 771.38745 1.4950634 255 255 255
-1585.2808 -2062.2922 -3.335283 255 255 255
1922.0565 2246.179 4.416398 255 255 255
8367.6182 5951.7656 10.450912 255 255 255
9414.5215 5471.6055 11.79577 255 255 255
-10359.49 -12124.583 -21.454786 255 255 255
14597.711 27086.031 51.208088 255 255 255
-1420.0907 -1768.2368 -3.6544669 255 255 255
291.60818 1691.9819 2.7342191 255 255 255
1471.4343 1591.061 3.6158006 255 255 255
-2035.9659 -2937.6072 -6.8027654 255 255 255
505.34949 1813.9087 2.713527 255 255 255
453.90353 1520.0723 2.3028214 255 255 255
1009.8438 2728.4114 4.1807699 255 255 255
-1412.6281 -1995.8574 -3.500355 255 255 255
802.66449 2785.9534 4.1876893 255 255 255
8509.2803 5982.3057 10.598555 255 255 255
8295.7598 37823.293 53.718121 255 255 255
-9047.6641 -38253.871 -57.021671 255 255 255
-450.90921 -173.78394 -1.554336 255 255 255
805.67712 1352.3217 1.5516441 255 255 255
-131.53105 -323.87915 -1.6390495 255 255 255
-1181.5901 -1525.012 -2.884655 255 255 255
307.33804 1003.5563 1.4846046 255 255 255
1610.3435 4645.6411 6.8730536 255 255 255
-330.2496 -1813.7876 -4.0210576 255 255 255
-1133.6138 -2207.8225 -4.8740692 255 255 255
-5061.2168 -2960.8643 -7.4520531 255 255 255
409.27734 1191.7882 1.7968668 255 255 255
7517.9121 5806.0928 9.6090469 255 255 255
-1964.4652 -2909.4509 -6.2535052 255 255 255
-1507.9525 -2392.8899 -5.8140535 255 255 255
1040.8054 4448.2065 6.9633446 255 255 255
627.29547 3267.6016 5.0492263 255 255 255
308.25613 1264.0668 2.0105531 255 255 255
5469.4746 4777.7744 7.6863122 255 255 255
382.40292 1362.4421 2.0254014 255 255 255
1036.7325 1562.4565 2.8114791 255 255 255
959.38251 3100.8733 5.5786371 255 255 255
355.7251 1584.8461 2.4566238 255 255 255
414.59549 1556.5203 2.3144472 255 255 255
433.75061 780.77753 1.6845708 255 255 255
-2804.5767 -8596.9043 -14.100078 255 255 255
303.60098 335.17752 0.54144335 255 255 255
138.16556 948.46735 1.6264254 255 255 255
222.60686 1335.4973 2.0449214 255 255 255
603.20123 999.14148 2.0375361 255 255 255
18030.482 8677.4199 19.873032 255 255 255
377.34616 1489.0818 2.2416513 255 255 255
106.13447 198.50212 0.62349045 255 255 255
-8570.9443 -13275.247 -23.212334 255 255 255
544.07068 1307.7222 2.1856544 255 255 255
1557.3199 2372.8445 2.8243034 255 255 255
2026.7378 4687.6846 6.7176385 255 255 255
-2340.0581 -7380.4629 -11.126387 255 255 255
364.23209 1405.7906 2.1625991 255 255 255
271.32642 1313.8088 1.9539791 255 255 255
427.83447 1438.2772 2.2209923 255 255 255
-1276.8518 -1757.624 -2.9587421 255 255 255
-3038.6028 -4284.6416 -12.381733 255 255 255
327.74066 1177.5884 1.934795 255 255 255
2016.8242 7341.834 13.362637 255 255 255
18382.723 5727.4341 24.416378 255 255 255
1141.1058 5018.5171 8.2925444 255 255 255
3108.2019 1416.5807 4.414629 255 255 255
75.94622 118.01625 0.42820427 255 255 255
6826.519 2120.2703 10.668075 255 255 255
2246.0774 14826.97 22.353872 255 255 255
710.46985 2226.1404 4.6375046 255 255 255
2982.7097 1786.8195 5.5150027 255 255 255
1376.3796 907.51013 3.2916462 255 255 255
333.87247 1900.2909 3.3444848 255 255 255
2002.3011 1642.5847 3.0956335 255 255 255
15016.571 11065.35 18.985817 255 255 255
-767.00995 -3021.3889 -5.2179909 255 255 255
729.91333 2947.9346 5.380301 255 255 255
566.2757 1585.662 2.4170914 255 255 255
6960.4497 3291.4736 10.281712 255 255 255
422.8288 1506.4344 2.2778099 255 255 255
184.36032 904.30103 1.5912769 255 255 255
351.27789 1470.2805 2.2144752 255 255 255
587.47809 1477.1917 2.3514934 255 255 255
800.96765 1250.0773 2.405966 255 255 255
664.85291 2514.5283 4.0792775 255 255 255
4552.3066 3540.2354 6.8831887 255 255 255
598.93048 991.91821 2.0287874 255 255 255
382.10428 721.95557 1.576579 255 255 255
404.0311 751.09167 1.6249523 255 255 255
1249.7104 5704.3184 8.4577971 255 255 255
-1143.2021 -574.60822 -2.9677806 255 255 255
1592.4456 1239.6351 3.5326202 255 255 255
1584.7911 1236.6909 3.5220139 255 255 255
563.21179 1327.4113 2.2164567 255 255 255
1569.6035 7914.3066 11.841271 255 255 255
362.59042 689.47113 1.5251775 255 255 255
5858.8306 4868.0703 8.0668058 255 255 255
49434.547 25917.098 105.11665 255 255 255
5782.3198 4883.9058 7.992063 255 255 255
720.64246 1155.7468 1.2102685 255 255 255
3584.0796 3863.0588 5.6404305 255 255 255
1291.0404 3855.7446 5.8801622 255 255 255
791.7677 1517.4222 2.0894125 255 255 255
1043.0504 2632.6023 4.255444 255 255 255
4139.2783 3358.0845 6.4461408 255 255 255
278.15375 1128.4194 1.8620031 255 255 255
3713.1504 2097.3879 6.4490542 255 255 255
10548.652 3746.1392 15.402219 255 255 255
550.65814 1607.9335 2.4241171 255 255 255
731.46039 2598.3232 3.8314822 255 255 255
353.61484 1467.0844 2.2133036 255 255 255
477.59451 1735.9108 2.9545791 255 255 255
-612.47601 -1115.0397 -2.4959497 255 255 255
225.53685 459.60373 1.1339127 255 255 255
328.08682 1393.1927 2.1347139 255 255 255
-2085.3965 -4126.7715 -10.721822 255 255 255
19043.244 5860.2661 25.198767 255 255 255
407.79236 1256.1017 1.8892237 255 255 255
10676.474 6597.6235 12.726279 255 255 255
9606.8516 29342.539 47.681557 255 255 255
3511.312 2659.5994 4.3363476 255 255 255
832.58624 1248.0964 2.2174211 255 255 255
2625.1868 6394.2246 9.6431255 255 255 255
1280.6547 5007.5728 7.5567226 255 255 255
-609.07843 -331.21472 -1.7201908 255 255 255
282.3403 762.71271 0.95663327 255 255 255
-5444.521 -21602.137 -32.91621 255 255 255
388.40491 1369.9158 2.1424077 255 255 255
246.01924 494.20395 1.1965975 255 255 255
317.2966 1148.9696 1.9030167 255 255 255
200.83856 1001.2161 1.7037529 255 255 255
-1130.3182 -1194.6884 -3.0572004 255 255 255
-829.65149 -5239.6284 -8.9529657 255 255 255
-2124.2715 -2038.9845 -3.6393497 255 255 255
284.6749 1462.6792 2.1781154 255 255 255
1175.699 2234.4075 5.4944344 255 255 255
3267.1262 1505.9883 6.3397861 255 255 255
2477.2949 16448.354 26.204807 255 255 255
3489.9695 2662.3635 5.8285084 255 255 255
833.52948 1495.7252 3.3705411 255 255 255
296.86682 1346.5485 2.0818748 255 255 255
371.08237 1594.9567 2.3313074 255 255 255
209.1058 755.53802 1.1298108 255 255 255
-837.18219 -5356.9106 -10.317707 255 255 255
2140.3093 2728.8677 8.8040438 255 255 255
50.778557 815.31445 1.4529155 255 255 255
294.93765 1300.1744 2.0376501 255 255 255
2560.5059 2638.949 4.4250793 255 255 255
564.26392 2375.8066 3.8613155 255 255 255
-737.29144 -1623.6598 -3.5555296 255 255 255
-4154.2788 -6537.3164 -16.835093 255 255 255
1207.213 1903.406 3.8195221 255 255 255
251.13994 1284.6439 2.0058446 255 255 255
467.6221 1568.1458 2.3497565 255 255 255
801.45441 568.53961 0.97246045 255 255 255
1094.3966 1632.3589 2.9040604 255 255 255
117.02421 225.34779 0.68270701 255 255 255
1016.9423 1167.9373 2.6493707 255 255 255
-123.73748 -748.98126 -3.1841557 255 255 255
565.5094 1697.2573 2.5039847 255 255 255
346.68161 1204.1873 1.7505206 255 255 255
1172.598 5483.0356 9.1086054 255 255 255
-795.5387 -728.6524 -2.6094441 255 255 255
9729.8887 7089.189 11.62628 255 255 255
-1347.3309 -1784.8529 -3.0163538 255 255 255
-1290.9564 -2225.605 -4.6467228 255 255 255
1938.1443 4773.5063 10.084855 255 255 255
333.01132 1332.3994 2.0816569 255 255 255
1439.1543 381.45743 2.9314635 255 255 255
6851.877 3371.5637 10.042397 255 255 255
276.92181 784.5368 1.5216703 255 255 255
-682.52539 -731.17737 -2.5156147 255 255 255
-618.19458 -804.18256 -2.7895033 255 255 255
-1174.3802 -1752.9009 -3.7539768 255 255 255
287.28537 1070.3364 1.8130927 255 255 255
1523.2161 2281.384 3.5699155 255 255 255
4689.7109 3404.2666 7.0880289 255 255 255
288.79468 1701.2467 2.6435316 255 255 255
12164.503 7030.1538 14.168993 255 255 255
-1164.3734 -1690.3531 -3.842787 255 255 255
-1089.2767 -1799.9569 -3.9362185 255 255 255
-1439.7434 -1871.8925 -4.0754604 255 255 255
245.74167 899.20227 1.3029914 255 255 255
9939.6162 5579.6733 11.43413 255 255 255
411.53561 1011.1031 1.842937 255 255 255
652.88989 2153.0869 4.0227385 255 255 255
436.09912 1662.312 2.412575 255 255 255
1084.4249 5414.0205 8.5282078 255 255 255
-1517.9103 -6827.5879 -11.086132 255 255 255
621.93042 1662.8273 2.5085022 255 255 255
228.42502 1221.2227 1.9367 255 255 255
526.28009 1314.4827 2.1794703 255 255 255
273.87866 1256.9921 1.9878554 255 255 255
505.75919 739.27649 0.89280647 255 255 255
732.05322 2441.3672 3.932416 255 255 255
-137.83859 -1472.1053 -3.7768323 255 255 255
289.79413 1267.2542 2.0059614 255 255 255
456.28299 1504.3022 2.2914226 255 255 255
-437.00558 -3027.5542 -7.303422 255 255 255
826.74969 3606.8499 5.7906551 255 255 255
110.50376 978.82111 1.6512727 255 255 255
373.42566 2075.042 3.7022762 255 255 255
-2363.7339 -13695.119 -22.476915 255 255 255
1146.697 442.94614 1.6959226 255 255 255
420.20798 1419.6523 2.2016456 255 255 255
-2375.1707 -4009.6033 -10.740222 255 255 255
10450.469 3707.1257 15.309678 255 255 255
-1666.4916 -5982.3643 -9.808445 255 255 255
-3317.2759 -8102.6187 -16.206099 255 255 255
174.18956 402.87234 0.67382628 255 255 255
366.76013 1455.2689 2.2071619 255 255 255
330.21753 1441.5005 2.1818895 255 255 255
1133.6134 1491.5184 2.5051451 255 255 255
2847.3826 1698.9667 5.3662276 255 255 255
-453.65131 -575.15302 -1.9223152 255 255 255
1240.4536 1430.4387 1.8116132 255 255 255
206.66629 854.92944 1.6196139 255 255 255
54.333267 78.701149 0.10828307 255 255 255
413.72171 1475.374 2.2444861 255 255 255
334.79416 1166.8154 1.9287452 255 255 255
-378.91867 -1914.5881 -4.5013213 255 255 255
629.17657 1027.8293 2.0847325 255 255 255
732.05298 3188.3022 4.5550513 255 255 255
401.28949 698.98077 0.82175207 255 255 255
1029.9927 1552.0173 2.799937 255 255 255
-833.11816 -5402.4053 -8.7976208 255 255 255
1696.7659 2283.3193 4.0180659 255 255 255
-915.05939 -1754.7017 -4.9434538 255 255 255
689.46265 1109.5463 1.1447093 255 255 255
154.58646 1224.212 1.9160552 255 255 255
3367.2068 2214.1453 5.8544803 255 255 255
3593.7278 12066.114 19.788822 255 255 255
-3523.7002 -4489.374 -14.286165 255 255 255
450.54306 1466.3633 2.2566497 255 255 255
563.66064 950.84174 1.9603755 255 255 255
-2432.4573 -2628.4048 -6.5576982 255 255 255
292.69894 1124.8245 1.8659847 255 255 255
472.35602 833.82092 1.7705998 255 255 255
404.41501 746.02679 1.6226259 255 255 255
522.84259 1509.4332 2.3328938 255 255 255
-891.25232 -1549.2528 -2.6740234 255 255 255
3024.3423 15915.049 23.403894 255 255 255
-5640.6567 -5127.1528 -11.70118 255 255 255
448.73657 1537.0267 2.3149421 255 255 255
1213.5802 1314.4149 1.6540155 255 255 255
388.87918 1764.5332 2.665626 255 255 255
-2288.0261 -12834.906 -20.957949 255 255 255
3162.7986 1758.3816 5.8490229 255 255 255
2784.8352 4786.5957 9.9545279 255 255 255
381.77515 765.57092 1.4623482 255 255 255
375.15295 2047.0626 3.3429036 255 255 255
298.95987 873.43146 1.6253995 255 255 255
3183.5247 2297.1943 5.0318656 255 255 255
271.63422 785.62469 1.5173949 255 255 255
-1003.1565 -993.91168 -2.7325079 255 255 255
978.72809 2849.0142 4.1803265 255 255 255
162.03339 1140.099 1.8358351 255 255 255
626.39209 1939.557 3.9485118 255 255 255
-1050.1251 -1963.3362 -3.9840412 255 255 255
570.84863 1744.4116 3.4826806 255 255 255
-1304.6021 -1967.9628 -3.1096652 255 255 255
12303.405 14821.807 22.646168 255 255 255
-869.99091 -1612.5862 -2.7166197 255 255 255
301.55469 1128.9467 1.8748671 255 255 255
1219.4209 7053.4204 13.049961 255 255 255
-1376.9054 -1438.3677 -2.7739663 255 255 255
299.05017 1390.8052 2.1210825 255 255 255
1740.3517 6639.957 9.8464184 255 255 255
-1841.4272 -2318.4617 -3.8997192 255 255 255
-2367.7441 -8005.1982 -12.792286 255 255 255
597.68427 2287.5344 4.6040664 255 255 255
4944.8696 2715.8867 7.8065991 255 255 255
399.56726 2216.8682 3.318891 255 255 255
794.05072 1236.4832 2.392117 255 255 255
345.5571 1478.1763 2.2181935 255 255 255
3423.2871 11425.37 17.056334 255 255 255
1294.3073 8042.9067 12.653943 255 255 255
-1796.0919 -2245.8169 -4.0120502 255 255 255
2174.6587 10363.853 16.721657 255 255 255
2603.448 6789.6699 10.198828 255 255 255
56827.211 69341.695 142.65559 255 255 255
444.33075 801.69214 1.7136675 255 255 255
4379.147 1685.6096 5.854043 255 255 255
322.21298 1473.1653 2.3855495 255 255 255
-1213.1431 -5053.3804 -9.1747971 255 255 255
7234.835 20514.189 31.478922 255 255 255
-4257.8716 -5282.2246 -10.669966 255 255 255
773.20044 1214.0896 2.3564939 255 255 255
138.60632 944.82733 1.6216216 255 255 255
2161.3669 3214.6523 4.449245 255 255 255
635.58112 811.39618 0.97754091 255 255 255
434.30298 744.79547 1.0051918 255 255 255
324.52124 1889.0586 3.5759063 255 255 255
2716.7625 1335.0536 5.5117087 255 255 255
3422.1785 1661.1544 6.416008 255 255 255
397.00226 1631.3909 2.574676 255 255 255
14693.816 7770.1606 16.636 255 255 255
-368.51111 -518.67572 -1.8423653 255 255 255
5742.249 3836.2629 8.2104225 255 255 255
-748.94165 -1221.1886 -2.3278344 255 255 255
614.79602 4086.8657 6.5485048 255 255 255
367.88248 1605.9056 2.3400679 255 255 255
1215.3322 709.97028 2.6910393 255 255 255
4852.9941 3676.2698 7.1944661 255 255 255
881.25555 1096.5579 1.2542613 255 255 255
-1379.2831 -1674.601 -4.02212 255 255 255
-424.41986 -601.40118 -1.9891286 255 255 255
-2057.5703 -2760.687 -6.0272703 255 255 255
-526.10468 -2072.9214 -4.218679 255 255 255
-527.77643 -513.41815 -1.7204022 255 255 255
280.53534 1361.6902 2.4018445 255 255 255
3497.9961 2657.7061 5.8421645 255 255 255
543.9718 1527.9069 2.3570182 255 255 255
1020.1191 782.25122 2.6470191 255 255 255
2867.2476 1478.4508 5.619843 255 255 255
83.163048 719.11938 1.1997439 255 255 255
2787.6108 1364.6635 5.6190629 255 255 255
-5389.4302 -24042.033 -40.043858 255 255 255
-1101.7283 -1593.1782 -3.4891155 255 255 255
225.4332 460.69238 1.1343248 255 255 255
1386.7375 850.79297 3.3534837 255 255 255
1732.9642 917.77362 4.0297832 255 255 255
316.52328 1516.9795 2.2428017 255 255 255
2724.2998 1343.5823 5.5199313 255 255 255
3240.8442 23384.078 42.149181 255 255 255
253.54893 510.54742 1.2232482 255 255 255
312.33154 1210.6058 1.9610541 255 255 255
524.40344 1621.7417 2.4225135 255 255 255
-4223.8511 -5974.7598 -11.28504 255 255 255
236.20509 475.71188 1.1654702 255 255 255
1989.7096 1021.3165 4.4446516 255 255 255
28.889862 232.18437 0.60243171 255 255 255
5766.5767 4877.4609 7.9720778 255 255 255
715.58063 1111.667 1.9677825 255 255 255
1935.9495 1449.6102 4.0146165 255 255 255
2854.4866 1542.0396 5.522459 255 255 255
4192.6196 3428.3887 6.4900231 255 255 255
6579.7788 3291.6824 9.7136345 255 255 255
336.90811 1185.1801 1.8119544 255 255 255
5193.1201 2208.5471 8.833704 255 255 255
2234.0686 1525.1426 4.4662013 255 255 255
1724.5975 6142.9258 12.5198 255 255 255
3511.197 2680.0671 5.8537188 255 255 255
-696.80994 -851.68311 -2.6088312 255 255 255
303.23053 621.79761 1.391295 255 255 255
301.52731 1111.1257 1.8586485 255 255 255
553.05298 1683.5801 2.4860668 255 255 255
65.787857 79.608391 0.324233 255 255 255
1024.6851 1524.8826 2.7826052 255 255 255
-1412.58 -2013.0876 -4.7628193 255 255 255
1553.0186 2338.218 3.6219745 255 255 255
583.68048 2379.8162 4.7751546 255 255 255
-13665.979 -10268.021 -24.235558 255 255 255
8859.04 6104.5581 10.955964 255 255 255
565.52509 1276.6882 2.1814947 255 255 255
317.39297 1334.9624 2.0793934 255 255 255
375.20642 714.93616 1.561592 255 255 255
906.68024 4520.8516 6.5573788 255 255 255
3511.979 4310.644 6.4357581 255 255 255
821.78815 3425.6094 5.3677077 255 255 255
-842.45734 -941.62061 -2.2437282 255 255 255
229.01721 466.22031 1.1457232 255 255 255
1342.4894 4935.9443 8.1915417 255 255 255
6089.5308 4812.9531 8.2945061 255 255 255
336.61285 1381.3015 2.1281819 255 255 255
515.10632 1637.8427 2.4312508 255 255 255
646.34491 1711.6157 2.5583284 255 255 255
397.33432 1574.2067 2.3220351 255 255 255
323.90536 1043.5448 1.6048756 255 255 255
362.44821 2031.8124 3.6568873 255 255 255
196.1501 897.78442 1.5906167 255 255 255
284.09061 821.15826 1.562959 255 255 255
-45885.238 -67702.922 -123.5511 255 255 255
-1195.5164 -2204.7778 -4.9789305 255 255 255
-3620.1987 -4283.9512 -8.3745184 255 255 255
338.3345 1343.653 2.0963945 255 255 255
490.67966 1945.704 3.2561748 255 255 255
282.99734 1317.0574 2.0482173 255 255 255
920.79626 300.06741 1.5862501 255 255 255
-600.7561 -412.29568 -1.8724856 255 255 255
578.86768 3063.0581 4.8344274 255 255 255
-2637.512 -10160.442 -16.757975 255 255 255
11239.146 4367.8359 15.458501 255 255 255
23519.148 37885.902 75.509888 255 255 255
1506.7043 1181.4214 3.4078808 255 255 255
310.07446 1268.4742 2.0153706 255 255 255
3502.9104 1640.4951 6.5954299 255 255 255
994.8761 3690.4775 6.0188689 255 255 255
-2602.4744 -2563.9302 -6.2231483 255 255 255
-756.43231 -1554.8392 -3.177443 255 255 255
-1647.0415 -6543.4077 -10.14713 255 255 255
-1803.6931 -4825.7227 -8.2229414 255 255 255
6209.8604 6401.4351 15.117939 255 255 255
417.6387 1019.5456 1.7162572 255 255 255
814.3559 1268.3843 2.4315286 255 255 255
-634.36194 -5034.4585 -8.8609047 255 255 255
-1124.2488 -1168.9598 -3.4794245 255 255 255
397.41125 1576.2366 2.323328 255 255 255
-478.51025 -748.52893 -2.2577922 255 255 255
5539.2349 1306.4758 7.3682685 255 255 255
844.03546 9425.8008 17.241665 255 255 255
480.78381 1449.9349 2.2588902 255 255 255
419.81149 1496.5875 2.3221316 255 255 255
8749.5928 5287.7085 11.09961 255 255 255
614.48969 498.97852 1.2939607 255 255 255
2812.8564 1608.0414 5.3844805 255 255 255
374.99326 708.55981 1.5561254 255 255 255
2681.6099 1665.7225 5.1205635 255 255 255
1690.0583 999.29645 3.8466489 255 255 255
-2867.4375 -9871.9961 -15.622869 255 255 255
764.66168 3191.2424 5.0351105 255 255 255
776.67987 7267.7358 11.880693 255 255 255
-188.46141 -522.427 -1.774314 255 255 255
317.40866 1308.3368 2.0548623 255 255 255
163.71074 332.87012 0.90152216 255 255 255
240.76619 1104.5337 1.8470151 255 255 255
5183.6343 2557.5781 8.3559322 255 255 255
-1283.4894 -888.55884 -2.7437291 255 255 255
8516.6953 3291.9324 12.760674 255 255 255
1057.5781 1581.6777 2.8444927 255 255 255
76.096214 446.57501 0.66426265 255 255 255
385.49615 1399.1345 2.1684446 255 255 255
674.48877 266.65048 0.97897875 255 255 255
-60322.832 -34088.859 -73.084435 255 255 255
275.16617 808.40491 1.5424821 255 255 255
-3011.3604 -29294.918 -51.500954 255 255 255
-1209.0419 -1704.6068 -4.0210814 255 255 255
-1666.3237 -3714.2854 -8.3038158 255 255 255
383.6944 1395.7134 2.1639414 255 255 255
359.9144 685.91174 1.5194551 255 255 255
1043.1661 1570.7175 2.8217525 255 255 255
347.40317 669.89124 1.4909874 255 255 255
1511.6656 6373.8799 12.81373 255 255 255
437.60941 659.38763 0.85432553 255 255 255
395.5484 728.2251 1.547056 255 255 255
593.65381 1739.4911 2.5496726 255 255 255
632.84595 3092.3928 4.7697806 255 255 255
4531.959 3617.2444 6.8397374 255 255 255
-2166.5933 -3978.4336 -11.174017 255 255 255
490.09601 1672.2286 2.4457638 255 255 255
-1749.7906 -1873.5365 -3.2137368 255 255 255
98.240364 646.86267 0.96671444 255 255 255
888.65753 4590.8296 6.5509515 255 255 255
1720.7722 2943.2766 4.9281507 255 255 255
25.387844 213.58298 0.54898804 255 255 255
2222.2002 8093.8262 14.247297 255 255 255
1007.67 1500.8724 2.6761646 255 255 255
-3098.7485 -4769.2021 -12.317295 255 255 255
8735.3516 17286.867 44.656929 255 255 255
-1053.9668 -5727.9814 -10.378073 255 255 255
507.92871 1739.8931 2.8470752 255 255 255
632.09631 1220.3606 1.4119424 255 255 255
-1248.7189 -6590.1577 -13.220405 255 255 255
2307.5396 824.14575 3.687381 255 255 255
-415.72534 -811.96942 -2.1601951 255 255 255
362.16617 1324.6051 2.0897701 255 255 255
5862.9717 29132.85 41.868137 255 255 255
6230.1465 3038.4478 9.4479856 255 255 255
2251.9951 3078.0188 5.3308773 255 255 255
-19148.875 -19295.479 -33.836266 255 255 255
1857.3663 934.00897 4.2812643 255 255 255
188.09755 891.35712 1.5788467 255 255 255
3557.5012 9805.8867 16.400045 255 255 255
-1190.1727 -1392.8358 -3.0583043 255 255 255
8250.2852 5256.9946 9.9112797 255 255 255
1476.2148 2028.2966 3.7971032 255 255 255
3280.1423 1557.6896 6.2984681 255 255 255
3199.2698 11959.239 17.478493 255 255 255
5952.4868 4788.7188 7.8500242 255 255 255
1005.0862 1377.9564 3.4966967 255 255 255
687.69745 3469.8728 6.4389095 255 255 255
8122.3564 6038.8354 10.216521 255 255 255
-754.21826 -891.89642 -1.9712988 255 255 255
1916.8378 1829.7705 3.9295323 255 255 255
-70.010727 -289.67337 -1.4155157 255 255 255
574.7514 1832.2537 2.8056362 255 255 255
1593.9229 6070.6973 9.2132378 255 255 255
359.16382 1429.9226 2.1812675 255 255 255
-5658.8379 -5794.1421 -13.506368 255 255 255
283.7084 1218.198 1.8650572 255 255 255
-1781.448 -4593.8989 -7.1466527 255 255 255
435.67316 2471.1965 3.6537583 255 255 255
-2203.498 -5566.6387 -9.7709761 255 255 255
-3154.4783 -5946.6855 -13.950117 255 255 255
313.8642 3117.9731 4.9992595 255 255 255
-989.09802 -1303.2245 -2.9622293 255 255 255
113.07481 912.89935 1.4266127 255 255 255
643.52942 1766.4362 2.5976112 255 255 255
-2712.9495 -2463.9021 -7.2138267 255 255 255
1025.531 1548.063 2.7935324 255 255 255
10332.312 12183.778 23.052731 255 255 255
-1247.2415 -1120.1372 -3.2181239 255 255 255
75.697151 593.87238 0.86604434 255 255 255
-326.80035 -1380.749 -3.1052141 255 255 255
246.03896 280.7063 0.44026256 255 255 255
3331.9099 4214.4785 7.2536511 255 255 255
-1210.1329 -1968.4608 -5.3501139 255 255 255
54.689941 1000.4505 1.6617361 255 255 255
-927.64941 -1355.4164 -3.2130649 255 255 255
-362.77264 -1535.3888 -3.3456364 255 255 255
-1228.1353 -1893.334 -3.4382637 255 255 255
-2573.0637 -3695.5693 -8.0382586 255 255 255
419.91272 1631.3481 2.4929152 255 255 255
6018.9878 3434.7722 8.8153992 255 255 255
317.36066 1398.7606 2.0330126 255 255 255
22061.371 23812.219 44.445946 255 255 255
-628.57593 -1049.391 -3.6639903 255 255 255
2977.9912 1389.8672 4.9156804 255 255 255
-663.82733 -559.18335 -1.9529783 255 255 255
1067.8977 1007.2954 1.6266593 255 255 255
-10769.854 -10715.164 -19.229382 255 255 255
-1181.8248 -1525.6753 -2.8857627 255 255 255
1007.8508 1079.6256 1.6331387 255 255 255
1406.5338 963.36029 3.3179884 255 255 255
352.4928 1552.5627 2.2882531 255 255 255
119.10835 596.81348 0.86363709 255 255 255
640.2218 3209.3435 5.5747766 255 255 255
5869.0938 4868.04 8.0721636 255 255 255
563.16321 1426.6544 2.1944387 255 255 255
297.36557 1495.6489 2.2205086 255 255 255
6472.9053 6695.2192 11.839812 255 255 255
4755.4116 5829.8335 9.1450682 255 255 255
-1294.0913 -1868.1865 -4.3594537 255 255 255
2272.8079 4942.9717 8.0868759 255 255 255
-793.30823 -1219.6395 -3.0211565 255 255 255
-233.367 -358.84235 -1.5988598 255 255 255
-330.20163 -886.04114 -2.4869771 255 255 255
8229.876 6010.5513 10.312647 255 255 255
414.4216 1381.8861 2.1647701 255 255 255
2777.9712 2821.1865 4.9504957 255 255 255
416.64175 1391.1135 2.0265565 255 255 255
3119.9727 7861.3916 17.086903 255 255 255
690.08075 1753.3641 3.6353753 255 255 255
-857.49255 -1528.7942 -2.7018907 255 255 255
5474.1011 3943.0693 7.8326898 255 255 255
-25720.783 -31040.467 -52.816223 255 255 255
6821.1138 5228.0723 8.9913731 255 255 255
-4471.1348 -3533.2192 -6.9378099 255 255 255
-2213.5383 -2882.7539 -6.6076679 255 255 255
-691.46899 -1282.2389 -3.048408 255 255 255
-892.2298 -3886.4702 -7.643712 255 255 255
242.0605 987.60437 1.7063324 255 255 255
641.50061 939.18176 1.1337738 255 255 255
528.71234 1031.8812 1.8709848 255 255 255
532.58185 2125.8281 3.3307955 255 255 255
-1432.1595 -4103.4014 -8.1245918 255 255 255
-522.02673 -665.35907 -1.7524278 255 255 255
2122.2969 7115.0479 14.726651 255 255 255
232.91095 1201.019 1.8359909 255 255 255
563.80109 1671.8547 2.4815767 255 255 255
-312.85806 -1256.5251 -3.0567949 255 255 255
105.79874 623.50513 0.98169106 255 255 255
8638.9844 6002.0259 10.633741 255 255 255
-845.76239 -1422.9963 -2.7099073 255 255 255
3577.4851 4803.0098 7.6019168 255 255 255
757.60895 1008.6724 1.6120154 255 255 255
362.59476 1306.516 1.9030714 255 255 255
-1213.8107 -1966.6016 -3.4486363 255 255 255
371.0629 1327.5964 2.095717 255 255 255
-512.57629 -315.16705 -1.6646491 255 255 255
9242.3574 6096.1528 11.331303 255 255 255
799.52795 1333.8781 3.3751504 255 255 255
254.44748 912.96454 1.3427415 255 255 255
340.43875 1240.8994 2.0009882 255 255 255
1077.6138 7200.9741 12.230279 255 255 255
5726.2559 5502.772 10.426082 255 255 255
10945.782 7569.6846 14.545238 255 255 255
386.99155 732.57867 1.5905526 255 255 255
-1166.7794 -1836.8356 -3.156477 255 255 255
600.3313 2851.7627 5.3184781 255 255 255
524.56683 1431.2014 2.2730956 255 255 255
-442.76636 -628.27161 -1.8523587 255 255 255
-1757.5593 -901.25085 -4.0679755 255 255 255
1162.1296 5309.8735 7.7522688 255 255 255
757.65082 726.3421 0.99053246 255 255 255
243.42622 891.16364 1.3114569 255 255 255
-1239.7562 -1728.7156 -2.9283273 255 255 255
1550.0494 2334.7695 3.6154244 255 255 255
-6848.3135 -20892.695 -31.129282 255 255 255
353.05063 1539.394 2.2771339 255 255 255
250.75572 1285.1593 2.0073228 255 255 255
380.68243 209.44102 0.5263449 255 255 255
434.87427 782.04968 1.6881808 255 255 255
21242.879 10152.243 22.531523 255 255 255
-2564.0942 -1829.7144 -4.496727 255 255 255
-1023.9222 -1745.7137 -2.9267108 255 255 255
-1705.8198 -2950.7468 -6.1658521 255 255 255
316.16867 1311.9305 2.0580719 255 255 255
294.50269 1299.9503 2.0366731 255 255 255
376.82199 708.53656 1.5585203 255 255 255
1021.2509 1164.5559 2.6528087 255 255 255
838.5954 1297.3333 2.4752073 255 255 255
1762.7965 5943.7583 8.7992277 255 255 255
11401.948 6815.918 13.433189 255 255 255
1273.5465 2701.189 4.1326022 255 255 255
-3748.0271 -22202.76 -39.822456 255 255 255
771.85474 1359.6567 1.5217519 255 255 255
494.6958 1635.6461 2.4184511 255 255 255
-3955.3042 -19098.996 -30.260096 255 255 255
688.64734 3197.8174 5.9195666 255 255 255
-1452.7374 -1849.6055 -5.8599663 255 255 255
386.13956 1437.0033 2.2006326 255 255 255
184.34819 1240.7761 1.9411428 255 255 255
365.32315 1400.6393 2.1594644 255 255 255
-1561.8649 -1927.0918 -4.0595527 255 255 255
-865.44043 -1131.4515 -2.612287 255 255 255
1245.3004 1466.5409 2.184962 255 255 255
331.73022 1068.4418 1.586356 255 255 255
5788.2207 4896.0205 8.0042114 255 255 255
-471.30481 -1875.0005 -3.9007182 255 255 255
696.92773 1909.4304 2.6568708 255 255 255
-1219.8284 -10974.125 -19.986324 255 255 255
615.30945 1704.5983 2.5349884 255 255 255
464.75412 1246.5496 1.8672398 255 255 255
67.23941 92.906792 0.35880157 255 255 255
4699.3242 3667.7336 7.0219069 255 255 255
283.50705 826.84668 1.5676401 255 255 255
5747.7656 4899.8945 7.9560599 255 255 255
-666.04517 -882.84686 -2.0643022 255 255 255
2228.9329 1521.8898 4.45645 255 255 255
608.09167 1676.7192 2.5102525 255 255 255
1305.345 1399.1287 3.088249 255 255 255
938.30054 4595.3657 6.6797276 255 255 255
2509.3628 2472.3088 4.6465273 255 255 255
1287.8875 4778.9512 8.192687 255 255 255
643.31226 1765.6921 2.5961654 255 255 255
1873.5134 1212.7325 2.2681625 255 255 255
4344.4775 5891.2744 10.992515 255 255 255
881.58606 2141.0076 3.523474 255 255 255
-29450.107 -15417.244 -34.663578 255 255 255
435.01147 1607.4648 2.3665016 255 255 255
559.89886 1679.4208 2.4879656 255 255 255
273.95615 1388.5406 2.1545238 255 255 255
365.41739 695.50348 1.532994 255 255 255
288.83105 3426.928 5.6864119 255 255 255
3935.5657 3244.9758 6.2329741 255 255 255
3205.0884 11024.624 16.707968 255 255 255
-861.54736 -1101.9458 -3.2907162 255 255 255
334.37494 1167.4348 1.9294529 255 255 255
622.1142 1631.1794 2.4854782 255 255 255
448.00949 1529.5388 2.3093646 255 255 255
11874.061 9856.1064 15.519275 255 255 255
444.28973 1524.6893 2.3017254 255 255 255
21363.861 10168.723 22.661116 255 255 255
-2720.2329 -2992.4053 -6.7766938 255 255 255
284.2168 821.30115 1.5628804 255 255 255
11399.86 14015.285 26.381306 255 255 255
4534.9321 3621.2444 6.8451662 255 255 255
298.66989 873.36182 1.6246258 255 255 255
548.08179 1582.6687 2.4042711 255 255 255
-427.3363 -530.57422 -2.0167599 255 255 255
518.75592 1153.3663 1.6667459 255 255 255
505.92804 1554.8269 2.3565872 255 255 255
5672.1997 2629.8997 9.0751991 255 255 255
-732.20197 -4665.0298 -8.0237303 255 255 255
-550.9126 -1582.1508 -3.2397468 255 255 255
225.83011 460.06131 1.1352115 255 255 255
4556.6494 3542.6514 6.8906679 255 255 255
5285.8833 24342.5 35.194675 255 255 255
1454.8717 472.11572 1.5381238 255 255 255
25979.943 32844.262 88.518005 255 255 255
8848.9043 6096.7656 10.942153 255 255 255
245.68336 1206.3344 1.7760388 255 255 255
-201.93004 -227.69211 -1.3492049 255 255 255
-5527.4307 -8327.3008 -18.468756 255 255 255
18426.395 5737.9126 24.472685 255 255 255
2701.4199 1347.6951 5.4690809 255 255 255
1848.3879 4402.9365 6.639245 255 255 255
4693.8457 3397.1931 7.1007566 255 255 255
1919.7418 586.87885 3.4206855 255 255 255
1256.9318 7736.2114 13.675385 255 255 255
-2044.2242 -4103.4453 -8.7840729 255 255 255
-219.39049 -356.741 -1.5678352 255 255 255
-717.45532 -1196.2064 -2.642895 255 255 255
544.27032 1575.2701 2.3958528 255 255 255
-210.6096 -482.76041 -2.1703784 255 255 255
-466.49237 -617.27069 -2.1126702 255 255 255
1407.3767 963.33551 3.3184638 255 255 255
348.02545 670.38446 1.4928948 255 255 255
540.284 3455.5071 5.5198717 255 255 255
6441.4683 8383.7666 20.780048 255 255 255
2068.114 1466.719 4.2214851 255 255 255
5458.9521 5108.3799 8.3075609 255 255 255
3262.1926 1503.0533 6.3307133 255 255 255
-917.56067 -1300.054 -2.4125302 255 255 255
-1035.7471 -1466.053 -3.7464788 255 255 255
266.08279 1079.3641 1.8084098 255 255 255
6748.7471 3341.0862 9.9161129 255 255 255
1300.0656 4531.0791 7.5053868 255 255 255
320.52475 645.50897 1.4328645 255 255 255
1913.4272 1834.6473 3.925195 255 255 255
504.11533 573.25128 0.72069603 255 255 255
-1785.386 -6400.6519 -10.595109 255 255 255
-1032.5068 -1561.0208 -2.7277925 255 255 255
-2367.0146 -2884.9316 -7.1258245 255 255 255
9703.9531 7070.7324 11.595578 255 255 255
180.1371 1139.3593 1.8391489 255 255 255
-1373.5122 -902.13159 -2.8453224 255 255 255
4869.75 3687.2585 7.2210832 255 255 255
415.67401 1618.6299 2.3699267 255 255 255
411.60895 1513.9092 2.2780766 255 255 255
1138.229 2986.7964 4.2072797 255 255 255
-139.3876 -280.81622 -1.4475431 255 255 255
271.34882 785.80249 1.5175076 255 255 255
6014.1514 3452.5269 8.7921944 255 255 255
6594.0063 3297.2678 9.7338495 255 255 255
89.689064 528.18079 0.76168257 255 255 255
9203.9082 6091.3462 11.294119 255 255 255
513264.84 276055.97 579.00043 255 255 255
5737.1562 3833.1658 8.2030306 255 255 255
-2068.2585 -2985.6062 -4.8820896 255 255 255
1036.0883 1556.7183 2.8081064 255 255 255
592.24695 1627.8109 2.4853618 255 255 255
174.03506 418.75125 0.69822985 255 255 255
1048.6769 1578.2346 2.8304389 255 255 255
-808.6889 -1045.1328 -3.6366148 255 255 255
1259.7898 1627.2014 2.4382038 255 255 255
2438.8899 2124.7329 4.5849628 255 255 255
-1591.9576 -1187.9971 -4.4177699 255 255 255
7452.5923 2816.6721 11.803586 255 255 255
6388.7124 9174.7217 13.911003 255 255 255
1931.4309 1446.7086 4.0072856 255 255 255
2396.1572 1407.6466 3.4166877 255 255 255
-520.56366 -424.39444 -1.9485655 255 255 255
919.88898 1813.7097 2.8202665 255 255 255
1471.3232 13629.098 21.58729 255 255 255
5469.1177 4776.8237 7.686542 255 255 255
216.3461 1118.5973 1.8325835 255 255 255
453.29401 1610.5011 2.5823812 255 255 255
9576.5879 5380.3877 12.065386 255 255 255
549.38391 1589.989 2.4098563 255 255 255
14674.502 7761.5923 16.616215 255 255 255
-1260.079 -1742.5159 -4.3514409 255 255 255
415.21457 1493.1155 2.2617946 255 255 255
-1493.5608 -4731.9971 -7.9927711 255 255 255
368.73602 1605.2838 2.3399832 255 255 255
-2828.8877 -7962.4893 -14.938313 255 255 255
-1912.4089 -6108.4932 -9.9086285 255 255 255
367.64188 1259.1547 2.0329974 255 255 255
3295.5295 5252.543 10.121669 255 255 255
-78.427162 -91.057693 -1.1179153 255 255 255
295.12936 1063.8492 1.8098481 255 255 255
2013.635 2738.3718 3.9635491 255 255 255
430.60535 1501.525 2.2775164 255 255 255
540.60089 1582.7836 3.1480818 255 255 255
1917.7175 1830.7744 3.9311447 255 255 255
169.68317 1232.1451 1.9420663 255 255 255
310.18054 1315.0947 2.0574033 255 255 255
427.74811 760.11072 1.5694311 255 255 255
9591.4189 7037.646 11.491676 255 255 255
-5328.9888 -7649.5312 -16.634052 255 255 255
497.23947 873.00854 1.8290771 255 255 255
502.13083 931.66351 2.0388401 255 255 255
-826.98895 -1079.7356 -4.0564299 255 255 255
-799.07947 -3469.7776 -6.9304991 255 255 255
333.22888 1018.6003 1.5839474 255 255 255
311.24091 1266.9154 2.1466649 255 255 255
3440.3235 1668.2571 6.451508 255 255 255
356.92972 1605.0387 2.3343253 255 255 255
730.3374 1198.1405 2.2455845 255 255 255
378.24768 1313.2645 2.0875661 255 255 255
1549.9799 2891.8267 7.0281162 255 255 255
7219.6558 3416.052 10.527889 255 255 255
982.9967 1488.4839 2.7223005 255 255 255
231.31624 1210.8889 1.9279875 255 255 255
-1954.6891 -1434.421 -3.2366917 255 255 255
-299.29532 -2736.6665 -5.019937 255 255 255
1015.476 1165.9526 2.6448896 255 255 255
213.06035 1406.951 2.1121631 255 255 255
88.849083 757.31293 1.3461703 255 255 255
462.67374 763.8468 0.81345654 255 255 255
-99.563553 -219.72237 -1.3219877 255 255 255
-5205.5654 -6118.7754 -15.353657 255 255 255
559.36322 1292.6351 2.1871934 255 255 255
526.58105 1315.3458 2.1803157 255 255 255
659.0257 4092.6194 6.6737399 255 255 255
39.915417 441.75153 0.72756237 255 255 255
2004.4131 4021.6182 11.090144 255 255 255
622.24048 1663.7153 2.5099394 255 255 255
332.72543 1333.6208 2.082546 255 255 255
-395.81689 -445.99951 -1.8978211 255 255 255
338.79303 1344.1713 2.0975487 255 255 255
304.46301 829.95404 1.5889624 255 255 255
-688.505 -926.77643 -2.8281746 255 255 255
1089.0482 1628.8105 2.895952 255 255 255
3072.2627 28230.861 45.713509 255 255 255
385.23944 1624.5529 2.6369138 255 255 255
-2256.1323 -9539.1992 -15.67319 255 255 255
407.59418 400.77686 0.76297182 255 255 255
-171.36244 -410.42023 -1.9802814 255 255 255
3304.7134 1903.5208 3.7848065 255 255 255
5171.9365 2552.3948 8.3367119 255 255 255
-175.99472 -280.72263 -1.4731103 255 255 255
292.96182 1124.5897 1.8652114 255 255 255
-881.76813 -1476.3799 -3.6641657 255 255 255
-1712.4199 -2454.4658 -4.0560346 255 255 255
959.99316 1454.6874 2.682734 255 255 255
296.6716 1177.8473 1.9206803 255 255 255
367.0231 1458.2563 2.2111838 255 255 255
-883.13348 -1288.8451 -3.4169397 255 255 255
329.71765 1439.8086 2.1788518 255 255 255
1525.6285 2285.166 3.5765564 255 255 255
730.97046 1515.8673 2.4817593 255 255 255
3494.312 2664.4658 5.8366442 255 255 255
3150.2864 3234.1836 5.3418493 255 255 255
362.00705 689.07227 1.5235912 255 255 255
10185.682 3979.1431 14.396681 255 255 255
228.25288 946.70502 1.5334711 255 255 255
1205.428 1471.9053 3.8054216 255 255 255
-1862.5328 -9138.2461 -15.775004 255 255 255
10507.722 3747.8694 15.323271 255 255 255
-200.92403 -342.71725 -1.6515774 255 255 255
271.88358 999.33813 1.5570853 255 255 255
270.5354 1256.319 1.9860451 255 255 255
292.56058 277.04715 1.097904 255 255 255
282.65158 1340.7203 2.0698316 255 255 255
544.47284 1308.7422 2.1884081 255 255 255
-1617.0305 -6056.186 -9.8652878 255 255 255
496.51227 1450.5029 2.2685711 255 255 255
2772.2649 1357.0825 5.5848198 255 255 255
6977.8594 3298.8787 10.310616 255 255 255
1017.8904 1540.1921 3.2821007 255 255 255
-98.687851 -435.88834 -1.8716863 255 255 255
385.64758 1917.3081 3.3738883 255 255 255
940.43591 7877.6655 12.687332 255 255 255
307.64215 1355.8546 2.0932319 255 255 255
383.57632 1394.9318 2.163167 255 255 255
3270.5432 4545.5991 7.1072664 255 255 255
385.09924 1398.1365 2.1662407 255 255 255
-539.50378 -316.21036 -1.6542572 255 255 255
1895.4741 6826.7207 10.106586 255 255 255
-289776.22 -179238.08 -697.59149 255 255 255
767.16779 1473.2209 2.3122458 255 255 255
425.36868 1520.814 2.4614139 255 255 255
346.47211 1216.2821 1.8303359 255 255 255
8683.9951 4555.7622 9.8875141 255 255 255
413.56976 785.75055 1.5655098 255 255 255
4168.4121 16210.795 27.154863 255 255 255
1650.0518 1281.4143 3.6203406 255 255 255
106.28356 198.3669 0.62320262 255 255 255
-6492.811 -9900.7686 -27.192593 255 255 255
-564.61462 -1095.5624 -2.0274732 255 255 255
3356.4045 2210.2971 5.8395634 255 255 255
4709.3374 3417.7744 7.1208158 255 255 255
1948.803 1427.611 4.0407991 255 255 255
565.65234 1275.4633 2.1802385 255 255 255
1026.3887 1526.1489 2.7871218 255 255 255
21604.408 10236.104 22.868578 255 255 255
512.69537 621.75146 1.6938546 255 255 255
253.40041 510.75259 1.2239059 255 255 255
468.51453 2269.5632 3.4018216 255 255 255
2119.9062 3256.4954 5.3769455 255 255 255
-323.92468 -497.10165 -1.7316314 255 255 255
1021.095 5009.0547 7.9328213 255 255 255
4188.3545 3424.6587 6.482017 255 255 255
11900.751 31230.225 46.782757 255 255 255
1848.4067 1103.1838 2.2027464 255 255 255
303.32941 621.23138 1.3901738 255 255 255
82.719498 155.45973 0.23610426 255 255 255
836.1416 990.47363 1.7166729 255 255 255
1507.792 1181.546 3.410295 255 255 255
264.45197 1323.6614 2.1482716 255 255 255
4015.5793 3285.1589 6.3197579 255 255 255
322.66498 1233.213 1.9859194 255 255 255
-112.52412 -327.67618 -1.4252352 255 255 255
9666.7861 6315.043 11.742599 255 255 255
14998.854 15990.944 28.376583 255 255 255
310.21823 1265.2587 2.0128362 255 255 255
-269.1066 -1233.637 -3.0755913 255 255 255
10561.422 6558.085 12.614876 255 255 255
937.77081 743.20667 1.2760676 255 255 255
1044.8651 1026.0015 1.3776534 255 255 255
491.66708 4202.6548 7.0689125 255 255 255
8255.2549 6028.8027 10.344956 255 255 255
630.2475 1030.9039 2.0927696 255 255 255
78.528053 577.23749 0.94348586 255 255 255
2368.5901 5376.0356 10.440442 255 255 255
-560.46497 -583.80865 -2.6505508 255 255 255
786.98413 2719.0066 4.4681296 255 255 255
364.32187 1407.1361 2.1643074 255 255 255
-192.2036 -264.38589 -1.3124969 255 255 255
443.13202 1447.9124 2.2375302 255 255 255
213.84454 1567.6705 2.5116417 255 255 255
9269.2402 12397.156 21.526924 255 255 255
-322.14474 -579.12103 -3.0118699 255 255 255
597.64624 989.7774 2.0246232 255 255 255
2127.053 1775.4525 2.755563 255 255 255
57738.312 223020.25 336.11984 255 255 255
3830.3501 3598.3792 6.0720134 255 255 255
545.54218 1531.5103 2.3629575 255 255 255
-150.2522 -160.64081 -1.2986742 255 255 255
470.05008 1480.8899 2.2761486 255 255 255
10551.091 3744.4084 15.407723 255 255 255
50.22971 448.13501 0.6735397 255 255 255
369.85455 1412.1552 2.1697824 255 255 255
-1181.1127 -1436.8948 -3.9961872 255 255 255
1365.853 2580.5879 4.171968 255 255 255
1058.4232 1582.7798 2.8461545 255 255 255
-1243.7688 -7516.0225 -14.143432 255 255 255
5491.0483 3953.5813 7.8588343 255 255 255
-1075.8229 -11130.564 -21.313072 255 255 255
1752.7396 2248.6736 5.3112502 255 255 255
756.91925 2236.0933 3.9831922 255 255 255
10664.378 6589.8018 12.71163 255 255 255
452.53903 1470.5704 2.2609286 255 255 255
4229.8286 3385.2969 6.5390515 255 255 255
371.53998 1416.9103 2.1742156 255 255 255
-1965.715 -2398.3164 -4.8728447 255 255 255
-97.596573 -295.16937 -1.3789462 255 255 255
-205.70676 -468.43015 -2.0500731 255 255 255
-210.32695 -157.5954 -1.3607683 255 255 255
-234.44719 -308.77444 -1.5385137 255 255 255
-646.89899 -1277.9556 -3.5822477 255 255 255
311.0192 1343.1215 2.0174565 255 255 255
260.79636 1094.9711 1.8224996 255 255 255
603.38287 998.40942 2.0365059 255 255 255
-636.02905 -1179.734 -2.1599824 255 255 255
-669.28168 -1125.1731 -2.0782151 255 255 255
-956.07898 -7571.0493 -13.686076 255 255 255
3021.314 3195.1758 5.0108051 255 255 255
213.51414 958.45471 1.6605791 255 255 255
303.66968 618.30981 1.387868 255 255 255
3814.9707 4546.9297 8.4073896 255 255 255
3490.7764 2665.3311 5.8260341 255 255 255
3201.3994 18002.443 34.601276 255 255 255
299.11414 1392.153 2.123558 255 255 255
610.80646 1007.2861 2.0529318 255 255 255
309.65912 1267.6483 2.0146289 255 255 255
-885.63684 -1111.7837 -2.829535 255 255 255
-919.88367 -2855.072 -5.2751942 255 255 255
449.81424 1466.5414 2.2573733 255 255 255
-3129.2197 -1621.1437 -6.6230154 255 255 255
839.84564 1301.1135 2.4768076 255 255 255
256.80179 818.98425 1.2313759 255 255 255
603.17267 565.40869 1.3567309 255 255 255
-2447.062 -4103.3262 -9.1371231 255 255 255
398.26984 2512.6716 3.8813844 255 255 255
-4068.2266 -10352.62 -19.211483 255 255 255
604.10791 1299.9451 2.5456848 255 255 255
1726.0029 2080.0188 2.4852407 255 255 255
-146.7748 -346.01804 -1.6770271 255 255 255
-430.51923 -747.68237 -1.7306317 255 255 255
-595.77905 -947.00146 -2.7744157 255 255 255
-1054.5228 -1278.9408 -2.5197065 255 255 255
-2355.4731 -1063.9258 -3.5808368 255 255 255
913.49579 1423.4742 2.7514074 255 255 255
-905.12469 -4948.9058 -8.1921053 255 255 255
-2132.9143 -9429.8506 -16.38446 255 255 255
4432.2061 5380.5449 12.182962 255 255 255
-76.780418 -85.549858 -1.1574988 255 255 255
71.797264 103.89152 0.29719523 255 255 255
512.92285 2033.5975 3.126188 255 255 255
-858.64032 -970.15393 -3.0019329 255 255 255
2662.9138 2416.5273 4.5529165 255 255 255
505.35309 2128.5278 3.060652 255 255 255
50.537231 158.98779 0.22769234 255 255 255
135.13051 262.12357 0.76544607 255 255 255
499.5076 1672.1685 2.4508667 255 255 255
10999.43 6699.2109 13.050222 255 255 255
-2831.6836 -2499.5417 -6.3632312 255 255 255
-60.126663 -124.12833 -1.2657356 255 255 255
637.44366 2773.4563 4.0469661 255 255 255
98.931389 577.21777 0.81919181 255 255 255
-349957.97 -383275.62 -934.50537 255 255 255
412.57251 1564.2399 2.3219686 255 255 255
-2210.5496 -3767.4419 -8.0150919 255 255 255
261.7424 771.08167 1.4953541 255 255 255
813.04572 2836.1194 4.7735319 255 255 255
13828.674 55939.676 83.087608 255 255 255
497.91278 1581.6353 2.3748639 255 255 255
1628.9689 30063.102 55.548031 255 255 255
-1967.4988 -9455.7119 -15.304026 255 255 255
263.32761 1229.9639 2.0971661 255 255 255
1993.2021 1023.4908 4.4529719 255 255 255
-1469.7192 -404.03488 -2.5934358 255 255 255
50.002544 394.7204 0.62789661 255 255 255
716.44019 2843.8474 4.7001414 255 255 255
261.08133 1296.4518 2.0205233 255 255 255
505.01398 1679.2502 2.4605861 255 255 255
1656.5004 6154.1318 12.06603 255 255 255
198.81229 2846.707 4.9833045 255 255 255
-1213.3943 -2643.2485 -5.3905535 255 255 255
-877.86688 -360.05634 -2.3348777 255 255 255
563.30872 1327.5823 2.216979 255 255 255
11349.049 6798.7144 13.38021 255 255 255
277.91382 1105.714 1.8409802 255 255 255
-182.84863 -316.04117 -1.3530982 255 255 255
3087.0491 11124.304 15.993312 255 255 255
-1824.9904 -1245.0864 -3.4694116 255 255 255
376.81424 1488.2584 2.2403607 255 255 255
485.88571 1632.5813 2.4098246 255 255 255
269.90289 1037.8728 1.7702081 255 255 255
-387.08215 -787.14331 -2.4582109 255 255 255
862.86395 1332.3322 2.5163946 255 255 255
-1212.9497 -2107.0059 -3.5497677 255 255 255
65.791824 724.01544 1.2974238 255 255 255
-592.29333 -453.03143 -1.825848 255 255 255
135.79741 1184.0958 2.2581544 255 255 255
49.11301 787.88757 1.2190903 255 255 255
6133.8379 7890.3267 12.231643 255 255 255
2463.1306 2682.6707 4.7990694 255 255 255
-466.21924 -569.43744 -2.2222955 255 255 255
-990.89343 -1205.759 -2.9572256 255 255 255
228.4229 2204.0261 3.6114831 255 255 255
486.23297 1558.5953 2.3527822 255 255 255
777.14319 3982.769 5.9334774 255 255 255
-191.68205 -1373.5193 -3.2165737 255 255 255
-151.67776 -340.95499 -1.5084251 255 255 255
519.8407 1438.7515 2.2754369 255 255 255
5060.5679 6548.7739 10.522307 255 255 255
-1729.6418 -2052.6692 -3.5100477 255 255 255
-1460.8369 -1018.4041 -3.9498026 255 255 255
960.95361 1344.9039 1.4337656 255 255 255
8832.0732 6099.0547 10.925989 255 255 255
950.15289 3780.7705 6.0340128 255 255 255
3818.1382 3146.1064 5.531795 255 255 255
-155.45775 -340.36365 -1.5051681 255 255 255
517.7132 622.32843 1.7017068 255 255 255
-589.04272 -7097.5796 -12.008705 255 255 255
361.83575 999.14886 1.7591619 255 255 255
621.2832 720.61047 0.91670263 255 255 255
1556.6237 3747.8425 5.7647319 255 255 255
-2006.6388 -4729.48 -7.7951236 255 255 255
222.68813 1336.7487 2.0468171 255 255 255
803.67224 1100.5173 1.2896152 255 255 255
2914.2595 5521.9927 9.9770441 255 255 255
-37536.543 -43706.414 -100.30316 255 255 255
-774.99408 -1088.8804 -2.8663807 255 255 255
