ply
format ascii 1.0
comment PCL generated
element vertex 998
property float x
property float y
property float z
property uchar red
property uchar green
property uchar blue
element face 0
element camera 0
property float view_px
property float view_py
property float view_pz
property float x_axisx
property float x_axisy
property float x_axisz
property float y_axisx
property float y_axisy
property float y_axisz
property float z_axisx
property float z_axisy
property float z_axisz
property float focal
property float scalex
property float scaley
property float centerx
property float centery
property int viewportx
property int viewporty
property float k1
property float k2
end_header
-1.7106755 -0.72781754 -0.0026401368 255 255 255
1.7224689 1.7365155 0.002691363 255 255 255
-2.1199408 -1.5267888 -0.0033718029 255 255 255
-1.0888983 -1.1789708 -0.0038299947 255 255 255
-3.9706423 -0.93341237 -0.0043768785 255 255 255
-1.9055345 -0.8993119 -0.0037461908 255 255 255
-2.4075844 -2.0184538 -0.0058883294 255 255 255
-13.616595 -8.9704189 -0.017365193 255 255 255
0.28796953 0.79376101 0.00046525497 255 255 255
-6.6222591 -4.8097262 -0.010095453 255 255 255
-2.5211425 -1.2704872 -0.0034358618 255 255 255
-2.2608283 -1.3608835 -0.0034362862 255 255 255
2.5552843 1.8000879 0.0041244458 255 255 255
-6.8866911 -4.548316 -0.0093757603 255 255 255
8.0950699 3.755408 0.010978138 255 255 255
2.1474142 1.3511379 0.0029548167 255 255 255
-36.398472 -29.587603 -0.05564167 255 255 255
-71.639191 -57.523983 -0.096102953 255 255 255
-0.097969167 0.56786627 -0.00021026679 255 255 255
-1.6169795 -1.1600678 -0.0037049151 255 255 255
-2.376802 -1.3616667 -0.0036898046 255 255 255
-74.886253 -178.63237 -1.2885762 255 255 255
36.7598 28.899204 0.055077925 255 255 255
4.188323 2.4491923 0.0060184398 255 255 255
-2.2671907 -0.93177903 -0.0036591636 255 255 255
-2.6789699 -2.3978314 -0.0044535836 255 255 255
-2.2546949 -1.4572607 -0.0033841208 255 255 255
-57.144779 -72.777679 -0.12949011 255 255 255
-2.2961564 -0.99439496 -0.0036265573 255 255 255
-1.6283096 -0.66366833 -0.0025741076 255 255 255
-13.966672 -6.3710866 -0.016121596 255 255 255
-3.921603 -2.4256012 -0.0056377617 255 255 255
-0.43712059 -1.2261752 -0.0065727253 255 255 255
-23.130112 -24.611349 -0.038894441 255 255 255
-2.3216872 -0.89215982 -0.0036597413 255 255 255
-3.5792868 -2.4955554 -0.0059420331 255 255 255
-947.94977 -757.25952 -1.3238925 255 255 255
-2.5162811 -1.1904805 -0.0034800936 255 255 255
0.60035592 1.9223204 0.0031704032 255 255 255
-2.8969455 -1.6722333 -0.0043962793 255 255 255
-1.5629199 -1.0925993 -0.0037460132 255 255 255
-1.2908531 -0.43543309 -0.0039458852 255 255 255
-0.57016379 0.1521164 -0.0022237974 255 255 255
1.1271287 1.7103673 0.0019412593 255 255 255
0.18083292 0.77287239 0.0003774529 255 255 255
-2.9594417 -0.42870513 -0.0036980298 255 255 255
2.6956205 1.7008989 0.0034758011 255 255 255
-3.0500147 -2.1267188 -0.005381376 255 255 255
-3.2338746 -0.803927 -0.003510281 255 255 255
-3.2143364 -0.76326597 -0.0035351147 255 255 255
-46.587112 -14.58326 -0.097619325 255 255 255
-3.1849482 -0.74031663 -0.0035511241 255 255 255
-1.3413161 -1.0455415 -0.003216326 255 255 255
-2.1405432 -1.1481867 -0.00358889 255 255 255
0.67886013 1.2958678 0.0018555061 255 255 255
0.34599948 0.87321502 0.0008147622 255 255 255
0.38535249 2.0460076 0.0040834364 255 255 255
-1.650071 -1.3124943 -0.0036186695 255 255 255
-3.1917331 -2.0434422 -0.0044602328 255 255 255
-2.5751953 -1.3260914 -0.0033919062 255 255 255
-4.3451014 -3.2472837 -0.0071281469 255 255 255
0.78805566 1.7592665 0.0018428708 255 255 255
-0.35701841 0.13549435 -0.0008939135 255 255 255
0.6844334 1.1057829 0.0014646773 255 255 255
-2.2089136 -1.1987108 -0.0035465735 255 255 255
-2.3028328 -1.1940248 -0.0035291656 255 255 255
2.3835247 2.0062366 0.0044921525 255 255 255
-3.1107047 -0.63930213 -0.0035962521 255 255 255
-0.6514191 -0.089343123 -0.0014705278 255 255 255
0.45503059 2.4946733 0.0050123809 255 255 255
-0.17971294 0.56786507 -0.00034085108 255 255 255
-2.0895517 -1.0801617 -0.0036313559 255 255 255
-1.766145 -0.33159754 -0.0039090728 255 255 255
1.7257484 1.6553794 0.0023210817 255 255 255
-3.1042523 -2.1145647 -0.0057999408 255 255 255
-2.5084975 -0.58083099 -0.0037393353 255 255 255
-2.022634 -0.96459401 -0.0032382656 255 255 255
-2.1239011 -1.0214131 -0.0036514124 255 255 255
-1.4172221 -0.51275963 -0.0021926935 255 255 255
-3.5186296 -3.0138562 -0.0063076071 255 255 255
-1.7295612 -1.2658453 -0.0036171447 255 255 255
-1.5613824 -0.6780622 -0.0026971106 255 255 255
15.758558 12.90016 0.021032771 255 255 255
-2.1086001 -0.95216113 -0.0036864036 255 255 255
3.8231158 2.9851387 0.0076666558 255 255 255
-2.3457258 -1.3128778 -0.0034480528 255 255 255
2.790379 1.9120591 0.0051379278 255 255 255
-3.5729203 -2.5981007 -0.0058659175 255 255 255
-1.4868873 -1.0888387 -0.0037570293 255 255 255
0.76192242 0.95923781 0.0013129645 255 255 255
-2.4786878 -0.92761993 -0.0036573652 255 255 255
0.085622557 0.70282185 0.00013914054 255 255 255
2.1242971 1.082001 0.0027887165 255 255 255
23.528347 19.909801 0.035209764 255 255 255
-0.375074 -0.3221761 -0.0046785339 255 255 255
-1.0097553 -1.6641111 -0.0036470862 255 255 255
-2.4709363 -1.108215 -0.0040965704 255 255 255
-28.295956 -18.756464 -0.072283141 255 255 255
-2.3369629 -1.1242763 -0.0035506133 255 255 255
-2.1922383 -0.87698078 -0.0036972552 255 255 255
-6.7081318 -0.22467248 -0.0089584524 255 255 255
-1.5324386 0.015087238 -0.0019697787 255 255 255
-2.2028096 -1.2655882 -0.0035067415 255 255 255
-2.5496786 -1.5283455 -0.0032977301 255 255 255
-4.9223409 -3.1714101 -0.007248065 255 255 255
-4.1002588 -3.4934561 -0.0076056812 255 255 255
-3.203232 -0.74378049 -0.0035433897 255 255 255
-5.3784776 -3.329056 -0.0077530062 255 255 255
-11.369564 -12.374486 -0.020031469 255 255 255
-5.5576148 -4.9745054 -0.0097890031 255 255 255
-0.14051685 -0.06816344 -0.0019008159 255 255 255
1.3273658 1.380286 0.002618507 255 255 255
-2.5521717 -1.1587219 -0.0034895984 255 255 255
14.133999 14.980026 0.023815997 255 255 255
-2.9132931 -1.8209432 -0.0052525722 255 255 255
8.7867537 8.2542782 0.013063171 255 255 255
-1.8805791 -1.1586456 -0.0033753887 255 255 255
0.40690541 1.5381407 0.0072927698 255 255 255
-0.69438112 -0.055192068 -0.0016844543 255 255 255
-5.4249005 -5.536685 -0.0097392639 255 255 255
0.018253705 0.63611197 2.2245198e-05 255 255 255
1.0358496 1.2791218 0.0021253536 255 255 255
7.1800685 7.7185678 0.011585438 255 255 255
3.6082952 2.0515919 0.0045364578 255 255 255
-3.5203526 -2.5005744 -0.0060832435 255 255 255
1.8735381 1.7826579 0.0078636734 255 255 255
16.22648 7.7716231 0.018836513 255 255 255
-3.702616 -2.7051938 -0.0059723626 255 255 255
-3.0081196 -0.3837114 -0.0038198 255 255 255
-0.36592138 -0.89594102 -0.0031385517 255 255 255
3.8799307 2.4485481 0.0047651017 255 255 255
-1.7740895 -0.32655352 -0.0039072912 255 255 255
-2.1037135 -0.56058854 -0.0038279952 255 255 255
1.3371305 1.4863626 0.0031613684 255 255 255
-2.9264634 -0.3575823 -0.0037209664 255 255 255
-0.82044894 -1.3297377 -0.0038218496 255 255 255
1.7540138 1.3299859 0.0032012989 255 255 255
-1.9774855 -0.32061815 -0.0038740081 255 255 255
-2.3827965 -0.95691264 -0.0036205756 255 255 255
-2.1519904 -1.1213831 -0.0082358569 255 255 255
1.721001 1.7430453 0.0026926193 255 255 255
-0.91154104 -0.37516946 -0.0039823907 255 255 255
-0.44224903 -0.07991273 -0.0040045353 255 255 255
-2.6930382 -1.2674305 -0.003400852 255 255 255
-3.0985067 -0.62821239 -0.0035985941 255 255 255
-0.61641461 -0.40791351 -0.003999602 255 255 255
-1.9343305 -1.0813144 -0.0036705406 255 255 255
-2.507062 -0.58801001 -0.0037393712 255 255 255
-2.9080439 -0.33911443 -0.0037318636 255 255 255
-1.4847225 -1.0874413 -0.0037592023 255 255 255
-0.075679839 -1.2906955 -0.0039394097 255 255 255
1.6330931 1.8981566 0.003151844 255 255 255
1.7262126 1.7361987 0.0026880391 255 255 255
1.3240696 1.5187442 0.0022876491 255 255 255
1.8780205 1.5963248 0.0028648982 255 255 255
0.18756814 1.5327822 0.0030023078 255 255 255
-2.7744668 -0.026669091 -0.0038084302 255 255 255
-7.3470135 -5.2833581 -0.0098193735 255 255 255
-0.07327994 -1.2861729 -0.003940695 255 255 255
-2.2564449 -1.0195391 -0.0036231459 255 255 255
-0.57127583 -1.1182044 -0.003904724 255 255 255
-1.4830654 -1.0900795 -0.0037586468 255 255 255
0.43339625 1.0013752 0.00086745492 255 255 255
-1.7399988 -0.91773182 -0.0037888908 255 255 255
-2.9419491 -1.2284951 -0.0037934745 255 255 255
0.37521696 0.84132493 0.00055447407 255 255 255
1.9544399 1.4877906 0.0029877604 255 255 255
-18.97109 -6.4828501 -0.024567937 255 255 255
2.2918465 1.911954 0.0038277907 255 255 255
29.720774 24.093729 0.082813419 255 255 255
-2.351882 -0.56472582 -0.0037747188 255 255 255
-0.061410807 -1.2849506 -0.0039429958 255 255 255
-3.5475333 -2.0685992 -0.0055610156 255 255 255
-1.4693412 -1.0833893 -0.0037712194 255 255 255
-3.0648263 -0.58550471 -0.0036279429 255 255 255
-1.6140189 -1.1964039 -0.0036869247 255 255 255
1.7861518 1.9735054 0.003819451 255 255 255
-1.4141312 -1.2117927 -0.0037278729 255 255 255
1.1382136 1.6063703 0.0022379991 255 255 255
1.3536322 1.6456223 0.0031971228 255 255 255
0.40733665 2.3014121 0.004737502 255 255 255
-2.2706006 -1.0715109 -0.0035972344 255 255 255
0.62790567 1.3985105 0.0018355091 255 255 255
0.40054315 0.94157648 0.00077702431 255 255 255
0.3601419 0.80879354 0.00085464591 255 255 255
8.5025129 4.1186819 0.010500214 255 255 255
-1.3753418 -1.2134445 -0.0037386066 255 255 255
-1.2617972 -0.063008741 -0.0039726533 255 255 255
1.46149 2.3905461 0.0048338925 255 255 255
-2.0322251 -1.0783703 -0.0036488704 255 255 255
1.417634 2.3385525 0.020034496 255 255 255
-2.1074657 -1.1573769 -0.0035917151 255 255 255
-0.081375211 -1.2756058 -0.0039415462 255 255 255
-2.3680549 -1.0831087 -0.0035659601 255 255 255
2.3003364 3.1695898 0.0040590428 255 255 255
-0.13159694 -0.58892417 -0.0039650435 255 255 255
-2.1093941 -1.1556288 -0.0035918725 255 255 255
-1.9186459 -1.1162987 -0.0036557773 255 255 255
1.584232 2.3517897 0.0055378717 255 255 255
-2.3074014 -1.2227116 -0.0035078072 255 255 255
-5418.9868 -5143.7852 -7.9697223 255 255 255
-1.9796034 -0.31428263 -0.0038791264 255 255 255
2.2653246 1.6446754 0.0027423627 255 255 255
0.64297193 0.80627292 0.00086492853 255 255 255
-3.2797425 -0.94403517 -0.00344268 255 255 255
1.7238344 1.7521212 0.0026872889 255 255 255
-1.7838897 -0.32743508 -0.0039059506 255 255 255
-2.5110607 -1.3141522 -0.0034147087 255 255 255
1.9866343 1.6872469 0.0030154509 255 255 255
3.0953257 2.4074597 0.0052663423 255 255 255
-0.27472588 0.38749114 -0.0014469239 255 255 255
-2.0102842 -0.046607818 -0.0038915647 255 255 255
-2.932822 -0.36832139 -0.0037173626 255 255 255
-2.3181298 -1.2251706 -0.0035048858 255 255 255
-1.8862417 -0.69970632 -0.0038320385 255 255 255
-0.64858675 -1.017683 -0.0039164652 255 255 255
0.25364777 0.76360309 0.00064037764 255 255 255
0.50597817 1.0138099 0.0019427516 255 255 255
-1.6480597 -1.0315071 -0.0037479938 255 255 255
-1.1249388 -0.95863974 -0.0038879979 255 255 255
-1.0326554 -0.41059926 -0.002198552 255 255 255
3.8966353 2.3004506 0.0050763409 255 255 255
2.1224802 1.9445946 0.0038180717 255 255 255
3.8156464 2.2886357 0.012622003 255 255 255
-2.9098833 -0.33176044 -0.0037330948 255 255 255
0.55426514 0.83863533 0.0011815676 255 255 255
-1.0304338 -0.27318105 -0.0039777462 255 255 255
-2.0983505 -1.1133647 -0.0036163614 255 255 255
-2.9008381 -0.31673259 -0.0037420013 255 255 255
-1.7380394 -0.7441082 -0.0038474717 255 255 255
-1.875155 -0.32045367 -0.0038935912 255 255 255
12.6001 7.6697783 0.03055655 255 255 255
3.9931691 2.8147309 0.0071948408 255 255 255
1.7478505 1.7079638 0.0049344101 255 255 255
-3.0984316 -0.62639719 -0.0036033895 255 255 255
5.0242562 3.6293349 0.0064476603 255 255 255
-0.49732116 0.028885365 -0.0075185574 255 255 255
-0.6255306 -0.79833198 -0.0035010255 255 255 255
-2.1783459 -0.68540794 -0.0073477961 255 255 255
-0.24198861 -0.56324935 -0.0039727627 255 255 255
-3.4716976 -2.582968 -0.044044822 255 255 255
-1.7416234 -0.75507152 -0.0038445499 255 255 255
-0.24942145 0.44495749 -0.00057523587 255 255 255
2.4808455 2.179472 0.0063505694 255 255 255
-2.8530204 -2.117255 -0.004737528 255 255 255
0.37827501 2.5097799 0.004637388 255 255 255
-3.1538286 -0.69033211 -0.0035678255 255 255 255
-0.027273936 0.58422083 -9.3871538e-05 255 255 255
0.42367321 1.111746 0.0021934852 255 255 255
0.68474573 1.1823134 0.0014165583 255 255 255
-2.9496303 -0.39709726 -0.0037087158 255 255 255
-0.78864759 -0.48478532 -0.0039738752 255 255 255
-1.8760959 -0.2655426 -0.0039019459 255 255 255
-1.8449509 -0.28480616 -0.0038989047 255 255 255
10.915226 7.2393765 0.013583816 255 255 255
-1.3826292 -0.95581895 -0.007340251 255 255 255
1.1059915 2.0089686 0.0022030366 255 255 255
-2.4023788 -1.493287 -0.0033449654 255 255 255
-2.2703967 -1.124557 -0.0035674903 255 255 255
-0.53980362 0.29596683 -0.0017216805 255 255 255
-2.9299119 -0.36935177 -0.0037179098 255 255 255
8.1860399 5.6480966 0.0099823372 255 255 255
0.40424097 0.90117568 0.0015808345 255 255 255
-3.1751602 -0.71405613 -0.0035595424 255 255 255
0.86238039 1.0405512 0.0016199464 255 255 255
17.208786 18.150887 0.054365799 255 255 255
-0.5614543 -0.72428191 -0.0039732479 255 255 255
1.2095565 5.0162611 0.019213118 255 255 255
0.37495288 0.90011984 0.00076371647 255 255 255
-2.6024184 -1.0969194 -0.0035039317 255 255 255
-2.5483973 -1.2299796 -0.0034517639 255 255 255
-1.7729039 -1.1532253 -0.0036648214 255 255 255
1.259955 1.4727606 0.0069134845 255 255 255
0.15404931 1.3396181 0.0025962596 255 255 255
-2.2369864 -1.1136795 -0.003589398 255 255 255
0.16804959 1.7682461 0.0034272561 255 255 255
-1.3374236 -0.39216152 -0.003944519 255 255 255
-2.287137 -0.99526316 -0.0036240949 255 255 255
-0.36678159 -0.89793622 -0.0031427061 255 255 255
-3.1059847 -1.4126318 -0.012888043 255 255 255
0.62832302 1.8307172 0.0062571457 255 255 255
-3.0046697 -0.48812789 -0.0036705059 255 255 255
2.8763564 1.9036853 0.0036697227 255 255 255
-2.4612675 -0.90943342 -0.0036269845 255 255 255
-0.90906495 -0.37665799 -0.0039840117 255 255 255
-1.6299204 -0.29890519 -0.0039278315 255 255 255
-2.0449786 -1.0933844 -0.0036382221 255 255 255
-3.2028582 -0.74794483 -0.0035381105 255 255 255
2.4068768 1.8588085 0.0042333044 255 255 255
-3.2004364 -0.75479269 -0.0035368607 255 255 255
-0.17285268 -0.46435094 -0.0026093326 255 255 255
-2.9592705 -0.42796683 -0.0036959448 255 255 255
-2.2264225 -1.2089928 -0.0035362679 255 255 255
-0.45678651 -1.0506611 -0.0037037609 255 255 255
0.33590388 1.040029 0.0013533647 255 255 255
-1.3039639 -0.50732684 -0.0039495779 255 255 255
-2.9313967 -0.36477575 -0.003718646 255 255 255
2.0070148 2.6032624 0.0036772168 255 255 255
-2.3444736 -0.32871836 -0.0038174656 255 255 255
-0.050387394 0.58679157 -0.00020792369 255 255 255
-9.3443832 -40.091465 -0.079355881 255 255 255
-3.5561154 -0.78823483 -0.0041329069 255 255 255
-3.0124776 -0.50656712 -0.00366481 255 255 255
7.1867466 3.6957593 0.014642647 255 255 255
112.95708 50.070736 0.13118121 255 255 255
-6.9802756 -5.0331326 -0.0095741395 255 255 255
-2.2343996 -1.2330929 -0.0035193036 255 255 255
-0.55643272 -0.72828072 -0.0039733788 255 255 255
-1.0951955 -1.4367788 -0.019907484 255 255 255
-2.2303047 -0.99501318 -0.0036391024 255 255 255
-2.9631495 -0.43112114 -0.0036989588 255 255 255
-0.20819826 0.53405285 -0.00042624693 255 255 255
-1.8805267 -0.83297098 -0.0030126697 255 255 255
-2.3217037 -0.82881439 -0.0037064438 255 255 255
-5.3132043 -3.4449503 -0.0076058195 255 255 255
-0.44281372 -0.084893681 -0.004003956 255 255 255
-0.37128228 0.42619011 -0.00073211454 255 255 255
0.041893959 0.619618 2.1275355e-05 255 255 255
-3.2242179 -0.78597134 -0.0035228615 255 255 255
-0.70523721 -1.5703669 -0.0037659446 255 255 255
-1.483843 -1.0898703 -0.0037546186 255 255 255
-0.44241238 -0.33668804 -0.0031687038 255 255 255
-1.7325826 -0.73774546 -0.0038494968 255 255 255
-1.727528 -1.1413511 -0.0033739663 255 255 255
-1.5975554 -4.1404128 -0.014442532 255 255 255
0.24365312 0.73850852 0.00039255593 255 255 255
-2.3373411 -1.0401319 -0.0035944073 255 255 255
-2.3664939 -1.0819849 -0.0035674919 255 255 255
0.39926666 1.1497676 0.0019482835 255 255 255
0.13440152 0.73092341 0.00042264172 255 255 255
-0.82702821 -0.45228481 -0.0039766948 255 255 255
46.913506 18.128647 0.056610666 255 255 255
0.51180512 1.0245442 0.0009793191 255 255 255
1.1276095 1.6552845 0.0029762161 255 255 255
-3.3590069 -0.31226456 -0.0036629287 255 255 255
-2.9330513 -0.37111151 -0.0037170269 255 255 255
-0.56812173 -1.1208479 -0.0039003827 255 255 255
-3.0495014 -1.8766057 -0.0047578574 255 255 255
-0.29539064 -0.95770049 -0.0058821836 255 255 255
-3.0020816 -0.49121475 -0.0036661704 255 255 255
1.9840294 1.5824572 0.0034648026 255 255 255
-1.9038019 -0.89872599 -0.00374313 255 255 255
-0.58216447 -0.70193726 -0.0039770878 255 255 255
-2.29422 -1.2341059 -0.0035027559 255 255 255
0.22728293 2.7793365 0.0052339807 255 255 255
-3.0036736 -0.49437287 -0.0036691998 255 255 255
-2.3447948 -1.1716362 -0.0035285058 255 255 255
-1.7790338 -0.90418851 -0.0037886498 255 255 255
-0.39501673 0.15507916 -0.0011177324 255 255 255
1.4963198 1.7111052 0.0020194538 255 255 255
-0.056349978 0.60802919 -0.00015310728 255 255 255
1.0872527 1.0093383 0.0015295312 255 255 255
2.9068589 2.3175883 0.0065672663 255 255 255
-17.581066 -15.418711 -0.026084868 255 255 255
0.67282432 1.3392944 0.0015597511 255 255 255
-2.4199545 -1.1592214 -0.0035130805 255 255 255
-0.064324602 0.59525335 -0.00021038501 255 255 255
-1.3458288 -1.2422376 -0.0037323101 255 255 255
-1.4752246 -1.0900325 -0.0037610393 255 255 255
0.42183614 0.81411743 0.00068843126 255 255 255
7.711061 4.4968719 0.0092962664 255 255 255
-0.66477525 -1.7347559 -0.0037163866 255 255 255
-0.17524259 -0.31795835 -0.0039875004 255 255 255
-1.6267503 -1.214488 -0.0036733837 255 255 255
-2.204226 -1.345481 -0.0034587719 255 255 255
-1.8238643 -0.32628646 -0.00390442 255 255 255
-0.46418107 -1.9315113 -0.014969382 255 255 255
-2.5209117 -1.2707738 -0.0034358487 255 255 255
3.0348718 2.1803169 0.006023834 255 255 255
0.44834667 0.98206186 0.001533862 255 255 255
-1.9319568 -0.56822217 -0.0038507122 255 255 255
4.741343 2.6923463 0.0053523812 255 255 255
-2.4236939 -1.2014096 -0.003492055 255 255 255
-2.9473748 -0.39975014 -0.0037026394 255 255 255
-1.8881948 -1.0794203 -0.0036794862 255 255 255
-2.1310899 -1.0987135 -0.0036204276 255 255 255
-2.2979398 -0.97655523 -0.0036354205 255 255 255
-0.25292486 -0.5174942 -0.0039463667 255 255 255
-1.7207121 -0.3398608 -0.0039133257 255 255 255
-1.8489902 -1.3952686 -0.003385168 255 255 255
-3.9083881 -3.8914843 -0.0080668647 255 255 255
0.3838836 0.80353737 0.00066574605 255 255 255
0.3776693 0.8355056 0.00082662469 255 255 255
1.0496333 1.629733 0.0026915232 255 255 255
-1.7638012 -1.204977 -0.0036406945 255 255 255
0.64562052 1.0504926 0.0013461397 255 255 255
3.3580458 2.2363539 0.0041317474 255 255 255
55.621098 77.272598 0.14034928 255 255 255
2.4526675 4.9405098 0.011105309 255 255 255
-0.82591128 -1.3320526 -0.0038202712 255 255 255
-2.3203409 -1.3340416 -0.0034402236 255 255 255
-2.5799215 -1.2755338 -0.0039012963 255 255 255
-2.4612842 -1.2634622 -0.0034505785 255 255 255
4.4272289 2.9759521 0.0079475278 255 255 255
-1.4511524 -1.2873508 -0.0036800918 255 255 255
-3.8670666 -2.3234277 -0.0055115959 255 255 255
-1.273913 -4.1639204 -0.02142898 255 255 255
2.3766086 1.8872602 0.0027681007 255 255 255
-1.9354004 -0.3158218 -0.0038854249 255 255 255
-2.5142858 -0.9723509 -0.0035790766 255 255 255
0.44217238 4.1256433 0.022213373 255 255 255
-3.3132229 -2.9137869 -0.0061407462 255 255 255
-2.3907452 -1.284186 -0.0034546005 255 255 255
1.974472 2.619339 0.0089124618 255 255 255
-1.1289297 -0.96315104 -0.0038865204 255 255 255
-2.195981 -1.1789554 -0.0035648018 255 255 255
0.37438059 0.79847378 0.00078335317 255 255 255
-3.2135603 -0.75996351 -0.003532591 255 255 255
-28.353874 -26.561274 -0.044171102 255 255 255
-1.3513947 -0.48272973 -0.0039505772 255 255 255
-1.084918 -1.1735721 -0.0038338471 255 255 255
-1.5175351 -1.0902184 -0.0037526886 255 255 255
-2.5213943 -1.192404 -0.0034777327 255 255 255
-3.8789167 -0.88636351 -0.0041297674 255 255 255
-2.3394439 -1.1640686 -0.0035321747 255 255 255
-0.71827847 -0.56445873 -0.0039842916 255 255 255
-1.2819288 -1.215211 -0.0079229204 255 255 255
1.6702745 0.95587838 0.0040071984 255 255 255
10.110921 6.270267 0.023010194 255 255 255
-0.052882098 -0.66029769 -0.0039759725 255 255 255
-2.6888435 -1.3848286 -0.0037246747 255 255 255
-0.31798008 -0.25604045 -0.0034569774 255 255 255
-2.3052421 -1.432893 -0.0033852165 255 255 255
-1.4577882 -1.18703 -0.0037263886 255 255 255
0.39376232 0.99562967 0.0020308516 255 255 255
-3.2927849 -1.8820876 -0.0051555508 255 255 255
0.13282906 0.68247944 0.00020984688 255 255 255
-2.5571015 -1.0286858 -0.0035458175 255 255 255
-2.9642265 -1.6526666 -0.0042388453 255 255 255
1.1293666 1.7144673 0.0030301074 255 255 255
-2.2490473 -1.2699249 -0.0034925444 255 255 255
-2.5301998 -1.0573897 -0.0035347592 255 255 255
-5.7030401 -2.0592637 -0.016887078 255 255 255
-2.5115647 -1.3118658 -0.0034154218 255 255 255
1.1301646 1.4907528 0.0019809473 255 255 255
0.35263395 1.0077882 0.0011700118 255 255 255
63.634075 51.61784 0.090288468 255 255 255
1.6108599 1.2022797 0.002062181 255 255 255
-2.2863262 -1.3388727 -0.0034457403 255 255 255
-1.6765492 -0.62444341 -0.0038808852 255 255 255
5.508266 6.3507819 0.0098323356 255 255 255
-1.6079195 -1.2048163 -0.0036816339 255 255 255
-2.8588998 -0.89579719 -0.009444315 255 255 255
-1.8067907 -0.73261821 -0.0031876471 255 255 255
-3.1542537 -0.68515164 -0.0035688889 255 255 255
1.8233252 1.5648443 0.0024820601 255 255 255
-2.2949932 -1.2337364 -0.0035066751 255 255 255
-1.7736121 -0.90293163 -0.0037865809 255 255 255
-2.5093224 -0.58170074 -0.0037406823 255 255 255
-0.21889213 0.52606624 -0.00038638755 255 255 255
11.066729 11.899555 0.019566631 255 255 255
-2.524225 -1.2117651 -0.0034709212 255 255 255
-3.3052881 -2.8669136 -0.0060446593 255 255 255
-3.3001635 -0.42046219 -0.0035070449 255 255 255
1.5115924 1.6025548 0.0040552644 255 255 255
-0.24898398 -0.10156364 -0.003444518 255 255 255
-2.5522652 -1.159095 -0.0034902405 255 255 255
0.92486209 1.1960468 0.0016084808 255 255 255
2.4553959 1.5953296 0.0060991249 255 255 255
0.30322009 0.83969879 0.00074901705 255 255 255
-10.731246 -11.97021 -0.021517133 255 255 255
2.9120808 3.3045623 0.034506865 255 255 255
-2.2542272 -1.457039 -0.0033838761 255 255 255
-0.58072543 -0.70408076 -0.003979811 255 255 255
-2.4635527 -1.2631563 -0.0034543874 255 255 255
-1.1974046 -0.24239331 -0.0017159389 255 255 255
-0.34665021 0.23614742 -0.00070297864 255 255 255
-2.1620605 -0.88305068 -0.002988599 255 255 255
0.33451632 0.74825048 0.00047969562 255 255 255
-0.27836812 -0.4523209 -0.0039847 255 255 255
-2.627399 -0.76122689 -0.0030863802 255 255 255
-2.2506056 -1.0466018 -0.0036165065 255 255 255
-1.6768836 -0.61849606 -0.0038861856 255 255 255
-1.7653993 -0.33149064 -0.0039078053 255 255 255
-2.3849375 -0.9433161 -0.0036239682 255 255 255
-1.9820617 -1.1199883 -0.0031825549 255 255 255
0.39755648 0.89974338 0.00075756456 255 255 255
-2.3180001 -0.82633489 -0.0037036138 255 255 255
-3.41208 -0.43444872 -0.0044285324 255 255 255
-0.44927004 -0.85370624 -0.0039696107 255 255 255
0.3712807 2.3861206 0.0044870963 255 255 255
0.58562547 3.0415227 0.020544171 255 255 255
-0.7996974 -0.4750421 -0.0039797649 255 255 255
-1.0832833 -1.1742984 -0.0038298955 255 255 255
-0.40931696 -0.3903746 -0.0025754154 255 255 255
-2.7153902 -1.2215787 -0.0034201671 255 255 255
-0.20081 -0.10003444 -0.0044364203 255 255 255
-2.3867249 -1.1381207 -0.0035344053 255 255 255
1.633495 1.4699178 0.0029893641 255 255 255
-1.483619 -1.0747867 -0.0037708504 255 255 255
-1.6835493 -2.2574968 -0.0057912846 255 255 255
-3.1639268 -0.69924271 -0.0035634979 255 255 255
-2.3536325 -1.2437114 -0.0034910245 255 255 255
-11.169142 -9.2797346 -0.017672544 255 255 255
-2.4965546 -1.3711394 -0.0033931043 255 255 255
-2.237083 -1.2410018 -0.0035180901 255 255 255
13.925812 9.1687641 0.017593058 255 255 255
0.26400271 0.81628567 0.00073074654 255 255 255
-1.9544331 -0.3069461 -0.0038840312 255 255 255
5.2622561 3.3282998 0.010482961 255 255 255
3.0909858 1.7985071 0.0037255085 255 255 255
-70.376709 -20.046406 -0.097342297 255 255 255
-2.3433671 -1.5901936 -0.0033960121 255 255 255
1.296775 2.4392726 0.021712024 255 255 255
63.314976 69.21553 0.12789725 255 255 255
1.1748999 2.8649886 0.010074062 255 255 255
0.21074992 0.81348377 0.00049430371 255 255 255
1.6101938 3.1196079 0.0044111675 255 255 255
1.6022658 1.2376889 0.0020956052 255 255 255
-3.1109138 -0.64246237 -0.0035928988 255 255 255
-18.681145 -19.632572 -0.034668528 255 255 255
0.79555631 1.231475 0.0022054543 255 255 255
-2.2837379 -1.1678054 -0.0035457984 255 255 255
-45.308323 -16.649986 -0.066789493 255 255 255
-1.6613954 -0.35319337 -0.0039197751 255 255 255
-1.9961653 -0.88507473 -0.0029214586 255 255 255
-2.5163159 -1.1903889 -0.0034794183 255 255 255
-2.1421313 -0.52117652 -0.0025968554 255 255 255
-2.036339 -1.2620931 -0.003549939 255 255 255
1.4507096 2.2001472 0.0040793787 255 255 255
-3.5884778 -1.2566161 -0.0056980136 255 255 255
-3.2346079 -0.80448437 -0.0035116146 255 255 255
-2.1712465 -1.2538353 -0.0035268283 255 255 255
-2.0773787 -0.9823302 -0.003678882 255 255 255
0.38513526 0.88265616 0.00059906376 255 255 255
-9.7272835 -7.7150741 -0.015503607 255 255 255
0.12183245 1.4089502 0.0028657748 255 255 255
35.149174 16.670521 0.040688742 255 255 255
1.1399082 1.4224408 0.0022231569 255 255 255
0.97089213 1.0874686 0.0015917332 255 255 255
-68.424255 -28.52808 -0.089992188 255 255 255
-3.0675304 -1.1743211 -0.0033891811 255 255 255
-1.7182072 -1.1123456 -0.0037023074 255 255 255
-2.5792148 -1.2021816 -0.0034588766 255 255 255
-5.3370051 -3.7323687 -0.0083072446 255 255 255
-1.009356 -1.6623986 -0.0036456629 255 255 255
-1.5335771 -1.1296455 -0.0037418872 255 255 255
-2.3492868 -1.2387273 -0.003494011 255 255 255
0.57422793 1.1110581 0.0010854729 255 255 255
0.43563068 1.1007427 0.0013736376 255 255 255
-1.6650977 -1.1939429 -0.0036739272 255 255 255
-2.8266234 -0.20024484 -0.0037802102 255 255 255
-4.7842622 -3.1743016 -0.0066413279 255 255 255
-2.3620193 -1.2657355 -0.0041158404 255 255 255
-2.5565157 -1.5511173 -0.0045163482 255 255 255
0.41660997 0.72040331 0.00076745101 255 255 255
1.6133236 1.6762118 0.0028470021 255 255 255
-1.8130467 -0.2773599 -0.0038537837 255 255 255
-2.7386646 -1.2418754 -0.0034081058 255 255 255
-2.670501 -1.419181 -0.0033339097 255 255 255
0.3006607 0.75404269 0.00046594877 255 255 255
-2.4340582 -1.1017421 -0.0035400684 255 255 255
-3.048595 -1.8923211 -0.0048941765 255 255 255
-2.6523144 -1.2011154 -0.0034441624 255 255 255
-1.2765489 -0.4080804 -0.0018717493 255 255 255
-2.4121535 -1.1988872 -0.0034980837 255 255 255
0.026908088 0.61812431 -8.4264348e-06 255 255 255
-2.3954768 -1.0792744 -0.0035587985 255 255 255
0.10224871 1.1124257 0.0022884593 255 255 255
0.64329708 0.95488679 0.001401974 255 255 255
2.8263638 1.5098097 0.0048104618 255 255 255
-1.7597096 -0.9693501 -0.0029215815 255 255 255
-1.4445817 -0.43302935 -0.0039397851 255 255 255
-0.95060259 -0.46554363 -0.0080724051 255 255 255
0.4116905 0.93302023 0.00070812652 255 255 255
-2.4855714 -1.0461068 -0.0035589118 255 255 255
-0.70854527 -0.59831136 -0.0039618025 255 255 255
0.70476812 1.5884247 0.005620983 255 255 255
67.033195 27.283287 0.077565409 255 255 255
-1.8528987 -1.076169 -0.003686998 255 255 255
-0.45459607 -0.081136189 -0.0034667107 255 255 255
-2.9827809 -1.8228599 -0.0042906152 255 255 255
-2.2933867 0.0061898632 -0.0028817293 255 255 255
-2.3016143 -0.97629398 -0.0036345802 255 255 255
-5.5210147 -0.47731316 -0.0090075675 255 255 255
-2.150465 -1.1384518 -0.0035889857 255 255 255
-1.6265138 -0.87711942 -0.0025889927 255 255 255
-1.0892048 -1.1797177 -0.0038318925 255 255 255
-0.12450372 0.53135151 -0.0004136455 255 255 255
-1.4181809 -0.66552699 -0.0023723077 255 255 255
-0.68103725 -2.0776711 -0.014651581 255 255 255
0.41236553 0.83077413 0.0007172827 255 255 255
-2.0174434 -1.0924973 -0.0037056573 255 255 255
-2.1753793 -1.0712454 -0.0036197444 255 255 255
-6.1337018 -0.91754526 -0.0081393486 255 255 255
-1.6635565 -1.3039519 -0.0036146673 255 255 255
-9.7005367 -8.6303406 -0.015548947 255 255 255
-0.086657114 0.5728873 -0.00021525538 255 255 255
-6.7842293 -4.6056433 -0.0098141711 255 255 255
-2.3761461 -1.2720263 -0.0033915604 255 255 255
-7.7272825 -5.938797 -0.010130947 255 255 255
1.7429733 2.4187303 0.0055548442 255 255 255
10.199034 12.831817 0.019111941 255 255 255
3.3006961 2.0536971 0.0048888773 255 255 255
3.7776268 1.9918476 0.0043207034 255 255 255
-2.5974967 -1.123127 -0.0034927665 255 255 255
1.6156695 3.8133922 0.0077206753 255 255 255
-1.6413827 -1.0301757 -0.0037534374 255 255 255
5.7855754 3.5544193 0.0070649576 255 255 255
-0.21021673 0.53552705 -0.00036839483 255 255 255
-2.2490091 -1.3317609 -0.0034560333 255 255 255
-2.3275015 -1.3448567 -0.003434964 255 255 255
0.62299371 1.3911976 0.0020884012 255 255 255
-3.0181596 -0.98527598 -0.0034782665 255 255 255
0.46976712 0.96508682 0.00094376551 255 255 255
0.87908602 1.2807631 0.0016992043 255 255 255
-1.9912808 -1.1745781 -0.0028606365 255 255 255
-2.2089977 -1.2734694 -0.0034995722 255 255 255
3.1381876 2.3683 0.0051543801 255 255 255
0.53501582 0.85216415 0.0012973542 255 255 255
26.44401 24.347176 0.039198264 255 255 255
-5.3854551 -3.7095749 -0.014155037 255 255 255
0.091469713 1.3821313 0.0025976331 255 255 255
-0.47396955 -0.067417167 -0.0039980495 255 255 255
-0.17896166 0.54883146 -0.00035523181 255 255 255
7.8817348 4.1876283 0.011023139 255 255 255
-1.7106633 -0.49595442 -0.0039027417 255 255 255
-2.193296 -1.1771581 -0.003560968 255 255 255
-0.58029377 -1.0801568 -0.0048001641 255 255 255
-1.9809499 -0.32152963 -0.0038801474 255 255 255
-0.41981536 -0.89761114 -0.0039705494 255 255 255
-2.5463479 -1.2302457 -0.0034525828 255 255 255
-1.8641719 -1.2746119 -0.0035865852 255 255 255
-5.92945 -2.7655511 -0.0077853575 255 255 255
3.4920673 58.27401 0.11878498 255 255 255
-1.1469306 -0.69266057 -0.0094559574 255 255 255
-1.9185591 -0.049563903 -0.0039231223 255 255 255
-0.17200382 -0.29947785 -0.0039932574 255 255 255
-2.2896001 -0.99692595 -0.0036288302 255 255 255
-5.0126634 -1.5410254 -0.010247742 255 255 255
-1.7673018 -0.33936211 -0.0039086649 255 255 255
-1.933199 -1.079991 -0.0036678978 255 255 255
-0.6091882 -0.67563468 -0.0039794017 255 255 255
4.6836419 2.3907864 0.0058856364 255 255 255
2.0379341 1.8507979 0.0028125769 255 255 255
1.8237188 1.6191114 0.0050649717 255 255 255
1.4477693 1.5658385 0.0035320716 255 255 255
-2.271287 -1.3369538 -0.003618828 255 255 255
-0.24079636 -0.37787619 -0.002517455 255 255 255
-1.8766825 -0.32753742 -0.0038946469 255 255 255
-2.5060952 -0.5804956 -0.0037359926 255 255 255
-2.9375713 -0.37255612 -0.0037184891 255 255 255
-0.73951542 -0.87672168 -0.0039319331 255 255 255
-2.3221099 -1.0896993 -0.0035764889 255 255 255
-2.1768157 -0.040273435 -0.0038528023 255 255 255
-0.062341455 0.60508502 -0.00013772899 255 255 255
-0.921969 -0.1422791 -0.0083387392 255 255 255
-1.9914691 -1.2415993 -0.0036885601 255 255 255
0.1454519 0.70113569 0.00019150446 255 255 255
0.94772059 3.5390115 0.017964773 255 255 255
-0.21203886 -0.27530438 -0.0022939325 255 255 255
-3.2237093 -0.78077179 -0.0035246909 255 255 255
-1.0252526 -0.27750579 -0.0039803088 255 255 255
-1.7379117 -0.32701728 -0.0039149062 255 255 255
1.9821029 1.3877902 0.0024419616 255 255 255
-1.8234788 -0.32594147 -0.0039027617 255 255 255
-1.2019799 -0.43954057 -0.0050740056 255 255 255
-2.3218138 -0.82920861 -0.0037064732 255 255 255
4.9870777 2.8438735 0.0059520868 255 255 255
0.45597813 1.1759156 0.0016398322 255 255 255
-2.899615 -0.31663263 -0.0037411605 255 255 255
1.4977775 1.5713644 0.0035165646 255 255 255
0.40096256 2.3784821 0.0047827424 255 255 255
-3.0130787 -0.50648427 -0.0036655376 255 255 255
0.9057759 1.1128477 0.0015665942 255 255 255
-0.36075175 0.54764694 -0.00054158544 255 255 255
-1.0386276 -1.5183108 -0.0043229349 255 255 255
-1.7666358 -0.33242774 -0.0039098435 255 255 255
-1.9356211 -0.32328904 -0.0038865933 255 255 255
0.34398323 0.91820991 0.0005187607 255 255 255
-2.3192134 -1.2258173 -0.0035058106 255 255 255
-2.4257569 -1.2369236 -0.0034758563 255 255 255
4.3943582 3.8245857 0.0091591319 255 255 255
-1.8197995 -3.8399127 -0.012542955 255 255 255
-0.09287937 0.56784517 -0.00020178917 255 255 255
-2.8095815 -13.323132 -0.026007129 255 255 255
-2.422117 -0.94339663 -0.0036177509 255 255 255
-2.3444214 -1.1711003 -0.0035279535 255 255 255
-0.71061623 -1.5706785 -0.0037616601 255 255 255
6.438571 6.8652792 0.010283955 255 255 255
1.322399 1.4594793 0.0020301011 255 255 255
-1.1054246 -2.7809558 -0.0206981 255 255 255
1.3217324 1.4504968 0.0019979787 255 255 255
-1.4693938 -1.083928 -0.0037711107 255 255 255
0.31619531 0.79533416 0.00076828757 255 255 255
-3.8853219 -1.1987076 -0.004701152 255 255 255
-2.4634025 -1.2651186 -0.0034536473 255 255 255
-1.8668294 -0.44540229 -0.003882319 255 255 255
0.58735842 0.9775995 0.0012744647 255 255 255
2.0397804 1.1188504 0.0028613894 255 255 255
-1.7846551 -0.32698485 -0.0039063143 255 255 255
-7.9717793 -3.4347131 -0.0095161563 255 255 255
5.6752958 6.4112105 0.0096569071 255 255 255
25.258545 11.922862 0.033482518 255 255 255
-1.465896 -0.33192208 -0.0050015459 255 255 255
-2.3170092 -1.2221825 -0.0035074302 255 255 255
-2.3079221 -1.2228792 -0.0035092784 255 255 255
-8.4704218 -5.9900103 -0.011143456 255 255 255
-0.61729574 -0.4245218 -0.003997629 255 255 255
-2.9276066 -0.35845891 -0.0037227413 255 255 255
2.9626656 2.6865616 0.0080780908 255 255 255
-1.7469739 -1.1477749 -0.0070824795 255 255 255
1.6227273 1.1162723 0.0027214049 255 255 255
-1.3357829 -0.39120567 -0.0039402335 255 255 255
0.44998261 0.8943758 0.0010270099 255 255 255
-0.60155416 0.051087584 -0.0051219454 255 255 255
-2.5800617 -1.2027926 -0.003460122 255 255 255
-8.4392204 -1.0076283 -0.010121062 255 255 255
-0.56691349 -1.1310358 -0.0039052144 255 255 255
-1.6104356 -1.1219453 -0.0037213049 255 255 255
-4.2145038 -3.4622397 -0.0067147091 255 255 255
-0.57680285 -1.5010108 -0.0077864565 255 255 255
0.54306245 1.2756093 0.0023807236 255 255 255
5.6811876 1.2915406 0.0069223358 255 255 255
1.0510197 1.25525 0.0018157554 255 255 255
10.889432 7.2202635 0.013556016 255 255 255
-2.7648082 -4.4006214 -0.01872069 255 255 255
8.7251148 3.946403 0.0097733214 255 255 255
9.4812622 9.1785107 0.015273786 255 255 255
-1.617864 -1.2120658 -0.0036762601 255 255 255
-3.252449 -0.79846054 -0.003504982 255 255 255
-1.4832786 -1.0737609 -0.0037712043 255 255 255
-0.57603002 -0.82595551 -0.0099547524 255 255 255
-2.5001953 -1.2937526 -0.00343112 255 255 255
-0.35840583 -0.23694991 -0.0038434088 255 255 255
-9.4680023 -2.6572647 -0.011197544 255 255 255
-3.0304761 -1.3868608 -0.0047344565 255 255 255
-3.1025891 -0.63043475 -0.003603935 255 255 255
-0.66523665 0.23673567 -0.0022132609 255 255 255
-3.3306017 -0.31203267 -0.0036616945 255 255 255
3.5200586 2.1259999 0.0046933708 255 255 255
1.9338611 1.897409 0.0034854431 255 255 255
-2.713032 -1.2201885 -0.0034172286 255 255 255
-2.9248648 -0.35421109 -0.0037244374 255 255 255
-2.2123768 -1.1100616 -0.003714737 255 255 255
-3.0138769 -0.98881048 -0.0034796053 255 255 255
-2.9614534 -0.43008584 -0.0036967346 255 255 255
-1.6779921 -0.62429982 -0.0038848571 255 255 255
-2.9469986 -0.39790761 -0.0037062315 255 255 255
0.51039255 0.92814261 0.00096632511 255 255 255
-0.078831643 0.48211268 -0.00066717964 255 255 255
-2.0991111 -1.1136088 -0.0036174257 255 255 255
-0.017006621 -0.58249038 -0.0034053698 255 255 255
-2.9485698 -0.40052131 -0.0037035975 255 255 255
-2.6717803 -1.414336 -0.0038790561 255 255 255
-0.22260109 -0.26442343 -0.0022916759 255 255 255
-2.839628 -0.2697795 -0.005061409 255 255 255
-2.3542893 -1.2440953 -0.0034925337 255 255 255
-2.8260226 -0.20008589 -0.0037804502 255 255 255
-1.4020188 -0.45539391 -0.0039453506 255 255 255
-2.8551667 -0.25250238 -0.0037517697 255 255 255
-1.629293 -0.29847547 -0.0039246883 255 255 255
-7.6933422 -1.7967585 -0.008422344 255 255 255
-0.13127327 -0.061887011 -0.0022152779 255 255 255
-1.875338 -0.26478481 -0.0038995726 255 255 255
0.95768136 1.0566282 0.0019505402 255 255 255
22.472988 2.1598597 0.027368885 255 255 255
-1.6113842 -1.2071943 -0.003688385 255 255 255
0.54938281 0.94201332 0.0019043223 255 255 255
-2.4629838 -0.91064423 -0.003629622 255 255 255
-0.56312555 -1.1354009 -0.003900009 255 255 255
-3.1012506 -0.6337862 -0.0035984712 255 255 255
-0.33309051 -0.10735272 -0.0021648472 255 255 255
-1.3051007 -0.50839853 -0.003951774 255 255 255
-2.8230095 -0.19081567 -0.0037773328 255 255 255
-3.0687046 -1.1745567 -0.0033903706 255 255 255
3.2714431 2.3383517 0.0054755863 255 255 255
-0.20327225 -0.32530743 -0.0058436701 255 255 255
-2.7344732 -1.1250534 -0.0034779923 255 255 255
0.45510849 1.1902467 0.001970215 255 255 255
-2.3203235 -1.2141148 -0.0035107879 255 255 255
-1.6762047 -0.61869049 -0.0038862128 255 255 255
-1.6182003 -1.2084677 -0.0036820956 255 255 255
-0.97932541 -0.24307358 -0.0040276451 255 255 255
-0.81436247 -0.46025184 -0.0039682388 255 255 255
-0.57201648 -1.1186497 -0.0039069853 255 255 255
0.27231663 0.9288761 0.0013356681 255 255 255
-2.0547044 -1.0874883 -0.0032384398 255 255 255
2.1967051 6.2453079 0.010112379 255 255 255
0.43935692 0.98294663 0.001509633 255 255 255
-0.57925195 0.10890223 -0.0011850076 255 255 255
1.2576885 1.1486589 0.0020265807 255 255 255
-0.2480572 0.43954539 -0.00068522821 255 255 255
-0.4420459 -0.079899654 -0.0040030857 255 255 255
-0.46979031 -0.57391405 -0.0048880298 255 255 255
-1.3557723 -0.48945156 -0.0039522401 255 255 255
0.29191354 0.81966239 0.00066778233 255 255 255
4.4034219 2.6166346 0.0064824484 255 255 255
-1.8689767 -0.45272046 -0.0038854545 255 255 255
-0.17792217 0.52822495 -0.00039249079 255 255 255
-0.43446943 -0.88270146 -0.0039795283 255 255 255
-1.2653338 -0.83674461 -0.0039005382 255 255 255
-4.4036012 -2.2788827 -0.0061499793 255 255 255
0.099323906 0.7009306 0.00019659432 255 255 255
0.810435 1.5763159 0.0020176261 255 255 255
1.648044 1.3314129 0.0043328376 255 255 255
-0.76545423 -0.26213124 -0.0035442081 255 255 255
-0.13573501 0.54415965 -0.00026955173 255 255 255
9.5793629 3.6403339 0.017759567 255 255 255
1.3227116 1.4548519 0.0020277852 255 255 255
19.86014 10.092093 0.025548032 255 255 255
11.960273 4.6373076 0.016398443 255 255 255
-1.9790976 -0.3142606 -0.0038766111 255 255 255
-1.6114105 -1.221737 -0.0036771474 255 255 255
-0.8258968 -1.3311195 -0.0038197527 255 255 255
-1.936121 -0.31637779 -0.0038876308 255 255 255
3.998909 2.4624486 0.0062088962 255 255 255
-0.30258384 -0.21292712 -0.003266284 255 255 255
-0.61653626 -0.40794405 -0.0039997455 255 255 255
-2.7159278 -0.66492099 -0.0036715316 255 255 255
-2.25402 -1.4563708 -0.0033839496 255 255 255
0.39500627 2.2484107 0.0041161962 255 255 255
0.47400692 1.0724168 0.0021481828 255 255 255
-3.2244878 -0.78568757 -0.0035230725 255 255 255
-2.2707026 -1.0711193 -0.0035965263 255 255 255
-3.2027755 -0.7478382 -0.0035383345 255 255 255
-0.45266339 -0.26081055 -0.0039886218 255 255 255
-0.52268827 -0.75505549 -0.0039728996 255 255 255
-1.8455567 -0.28474548 -0.0039005892 255 255 255
-0.66521007 -1.7368346 -0.003720802 255 255 255
-0.65811044 -1.7344335 -0.003718016 255 255 255
-1.8860675 -0.69937956 -0.0038312979 255 255 255
-0.90800458 -0.37704524 -0.003981065 255 255 255
3.2519011 1.683211 0.0040346282 255 255 255
-0.64764094 -1.0175015 -0.0039149998 255 255 255
-2.5327685 -1.543929 -0.0039867186 255 255 255
-1.0285779 -0.2749657 -0.0039796717 255 255 255
-0.82139075 -1.3308895 -0.003825678 255 255 255
1.6779343 1.4992989 0.0040953886 255 255 255
-0.9232558 -3.5379775 -0.008898776 255 255 255
0.31804001 1.3721162 0.006029957 255 255 255
-1.5052205 -0.40593252 -0.0039374051 255 255 255
1.0943757 1.1327196 0.0019476399 255 255 255
-1.0322994 -0.41048294 -0.0021980549 255 255 255
-0.36919519 -1.3391776 -0.0038730248 255 255 255
-3.3587205 -0.20421745 -0.0036992091 255 255 255
-0.075970598 -1.291057 -0.0039393003 255 255 255
0.44157755 0.97535539 0.0010656143 255 255 255
-2.9604869 -0.42803168 -0.0036977115 255 255 255
0.6636669 1.0801485 0.0013657736 255 255 255
-1.1286939 -0.19125099 -0.0039675711 255 255 255
0.42438444 0.982584 0.00098521903 255 255 255
-3.2040865 -0.7426762 -0.0035392358 255 255 255
0.3095381 0.79398799 0.00074718986 255 255 255
0.5068531 0.888758 0.00077672111 255 255 255
-0.77182895 -0.2708391 -0.0035791185 255 255 255
-2.3178282 -1.1961058 -0.0035204326 255 255 255
0.82910734 1.1676809 0.0082720518 255 255 255
-2.6552942 -1.7103713 -0.0047822371 255 255 255
1.6707982 1.9108878 0.0033139272 255 255 255
-1.685993 -1.1791841 -0.0036772902 255 255 255
-3.9201474 -2.3181129 -0.0060362346 255 255 255
-1.7227678 -0.34674373 -0.0039136787 255 255 255
-0.4700391 -1.1373724 -0.0094458479 255 255 255
-0.6055429 -0.41592908 -0.0039955392 255 255 255
-2.5236213 -1.1999564 -0.0034724476 255 255 255
-1.8856187 -0.70446801 -0.0038264638 255 255 255
-0.1241774 0.57538325 -0.00022193453 255 255 255
-0.4803533 -1.3093177 -0.0038706523 255 255 255
-1.6470282 -1.0319256 -0.0037474034 255 255 255
-0.087261528 -1.2904112 -0.0039373846 255 255 255
-0.79983455 -0.47430182 -0.0039777416 255 255 255
-0.14215405 0.52063018 -0.00049924478 255 255 255
-0.48267788 0.15943597 -0.002244327 255 255 255
9.1601295 4.4434395 0.010531681 255 255 255
-2.406101 -1.1837279 -0.0035064865 255 255 255
-2.5588021 -0.31840146 -0.0037873706 255 255 255
1.2584466 1.4849206 0.0023157655 255 255 255
4.1779928 1.7245748 0.0068798522 255 255 255
-0.51555496 0.30566043 -0.0014853153 255 255 255
0.48838735 1.0210774 0.0010310129 255 255 255
-2.2313051 -0.99480242 -0.0036404096 255 255 255
-1.4505938 -1.2860761 -0.0036822229 255 255 255
-1.9974118 -0.31424069 -0.0038784535 255 255 255
-5.5013766 -3.2475953 -0.0068845153 255 255 255
-0.11052026 0.5582456 -0.00025279244 255 255 255
-0.64866185 -1.0136279 -0.0039145742 255 255 255
0.54840815 1.0349804 0.0010202579 255 255 255
1.3538448 1.645949 0.0031982395 255 255 255
-0.081561118 -1.2763343 -0.0039413599 255 255 255
-19.173386 -6.792151 -0.026373874 255 255 255
1.5431942 1.1792514 0.0019285445 255 255 255
0.44750386 0.92898649 0.0010552967 255 255 255
-3.2592731 -0.81153429 -0.0034943167 255 255 255
-1.3526541 -0.48369417 -0.0039536236 255 255 255
2.5156314 2.0118697 0.0048048315 255 255 255
9.3495331 6.4613447 0.023773087 255 255 255
-2.2281094 -0.99597186 -0.0036406703 255 255 255
0.41106787 1.1209289 0.0073100477 255 255 255
-0.5616169 -0.7231586 -0.0039702398 255 255 255
-1.7204649 -0.33957314 -0.0039105201 255 255 255
2.7087088 2.3283639 0.0048474143 255 255 255
-0.068118915 -1.2991542 -0.0039388123 255 255 255
-2.9203932 -0.36413413 -0.003712663 255 255 255
-2.3522954 -0.57174009 -0.0037759342 255 255 255
4.4826961 1.8562578 0.0055843098 255 255 255
-0.62446278 -0.79710782 -0.0034990639 255 255 255
-4.7744074 -2.7131815 -0.0067971549 255 255 255
245.91965 106.03847 0.30360693 255 255 255
-1.1206088 -0.19747536 -0.0039729546 255 255 255
-0.55616552 -0.72789818 -0.0039701783 255 255 255
0.60359746 1.7684834 0.0055694729 255 255 255
-0.27681142 -0.4416618 -0.003989297 255 255 255
-2.407366 -1.2081571 -0.0032913564 255 255 255
-2.3449023 -0.32844386 -0.0038189378 255 255 255
-1.8881966 -1.0795394 -0.0036811281 255 255 255
1.9024038 1.5486318 0.0030451799 255 255 255
-2.4943843 -1.3696082 -0.0033870407 255 255 255
0.56179702 1.2924865 0.0017157539 255 255 255
-2.3569889 -0.38607839 -0.0054848208 255 255 255
-2.8326292 -0.32795736 -0.0036184525 255 255 255
-3.2581363 -0.81561208 -0.0034936359 255 255 255
-2.9294362 -0.36450705 -0.0037162823 255 255 255
0.53744072 1.5546219 0.011818483 255 255 255
1.0188118 1.274222 0.0018477176 255 255 255
0.4066827 1.0676799 0.0018131078 255 255 255
-10.443678 -7.7828555 -0.014710702 255 255 255
0.30486977 0.91701877 0.0010497281 255 255 255
-2.0592723 -1.4075817 -0.004218393 255 255 255
0.73640513 1.444152 0.0020556303 255 255 255
-0.08246848 -1.2929744 -0.0039378805 255 255 255
-0.74661559 -0.95799142 -0.0058166846 255 255 255
1.9791813 1.7961769 0.0027292881 255 255 255
-0.073090732 -1.2856296 -0.003940843 255 255 255
-5.5460725 -1.1982877 -0.0059582428 255 255 255
-1.3384616 -0.77688998 -0.008150734 255 255 255
0.18531729 0.67063773 0.00037730497 255 255 255
6.0322108 5.6445708 0.017611088 255 255 255
-0.28179225 -0.050457347 -0.0044829431 255 255 255
-1.7646793 -1.2835143 -0.0039663319 255 255 255
0.31733811 0.76991069 0.00061535847 255 255 255
-1.8350732 -0.7289685 -0.0030773645 255 255 255
1.5904679 1.1361783 0.0018810264 255 255 255
-0.061801985 -1.2851642 -0.0039429907 255 255 255
2.3014219 1.1857562 0.0028397297 255 255 255
-0.5364266 -1.0030091 -0.0039338027 255 255 255
-4.6035266 -3.0803101 -0.0070767272 255 255 255
1.8315693 1.7701668 0.0033906691 255 255 255
-3.0109558 -0.48765996 -0.0036804678 255 255 255
4.0088067 2.0708885 0.0083495965 255 255 255
-0.67222077 0.11888649 -0.005183538 255 255 255
-3.006017 -0.48855594 -0.0036709879 255 255 255
0.32446525 6.2479086 0.011451549 255 255 255
-1.933194 -0.57613295 -0.0038533004 255 255 255
-33.990242 -7.2015419 -0.035866518 255 255 255
-7.6174173 -5.6426344 -0.020386843 255 255 255
2.7304542 2.329565 0.0048868763 255 255 255
0.43669215 1.0254277 0.0010163982 255 255 255
-1.7318132 -0.73744208 -0.0038488884 255 255 255
12.165164 6.6170406 0.015869711 255 255 255
1.9938788 1.3946352 0.0033798439 255 255 255
0.5080319 1.1415063 0.0084286788 255 255 255
1.1224197 1.8676071 0.014352188 255 255 255
-2.9343929 -0.36816916 -0.0037195829 255 255 255
2.5290539 1.9000933 0.0066069197 255 255 255
-0.1534728 0.52604616 -0.00029901596 255 255 255
-1.6090542 -0.36948392 -0.0039276485 255 255 255
-2.6776547 -1.3509182 -0.0039406568 255 255 255
-2.3656607 -1.188704 -0.0035083829 255 255 255
1.5420871 3.099961 0.017020907 255 255 255
-2.9315822 -0.3933799 -0.0037149682 255 255 255
-2.5665171 -1.0137091 -0.0035524296 255 255 255
-3.1820633 -0.7175715 -0.0035660006 255 255 255
-2.3809845 -1.2999635 -0.0034493082 255 255 255
0.53241789 0.92970949 0.0010900662 255 255 255
-1.2617217 -0.057982907 -0.0039689783 255 255 255
0.59438556 1.0448571 0.0010898607 255 255 255
-1.2778305 0.13809739 -0.001873398 255 255 255
1.9118263 1.7347916 0.002634065 255 255 255
-2.3386762 -1.0343512 -0.0036041783 255 255 255
0.11962487 0.67127556 0.00016164317 255 255 255
-0.62640381 -0.41368669 -0.0039974572 255 255 255
-1.8665291 -0.95563763 -0.0037318908 255 255 255
-0.53295201 -0.10501801 -0.0045839888 255 255 255
-1.4126943 -1.2102848 -0.0037243902 255 255 255
0.5119704 1.1800532 0.001854135 255 255 255
-1.7038009 -0.4655433 -0.0039034523 255 255 255
1.1428175 2.4345555 0.0028441448 255 255 255
0.56838536 1.1749809 0.001419058 255 255 255
-4.4522142 -3.1213739 -0.0071510142 255 255 255
0.18420452 0.70434755 0.00022685667 255 255 255
3.5631781 1.928126 0.0045026038 255 255 255
-2.8254189 -0.72381788 -0.0036216376 255 255 255
-0.27805978 -0.45175877 -0.0039832215 255 255 255
0.69369274 1.1001198 0.0014414681 255 255 255
-0.21258891 -0.51502407 -0.0032539445 255 255 255
3.7417898 2.3055966 0.005387635 255 255 255
-2.9439106 -0.38936138 -0.003708954 255 255 255
-0.42201301 -1.5192403 -0.0038343584 255 255 255
0.16633549 1.464252 0.0044703917 255 255 255
-0.18999596 -0.5206123 -0.0047318372 255 255 255
-2.4042778 -0.87167567 -0.003665885 255 255 255
-2.2928982 -1.2877442 -0.0034768903 255 255 255
-0.31310833 0.059938289 -0.005180324 255 255 255
-0.63718677 -0.40760553 -0.0039966647 255 255 255
1.1434714 1.594947 0.0061154598 255 255 255
-0.60621625 -0.67734998 -0.003977831 255 255 255
-11.005108 -7.9809422 -0.013890177 255 255 255
