ply
format ascii 1.0
comment PCL generated
element vertex 1101
property float x
property float y
property float z
property uchar red
property uchar green
property uchar blue
element face 0
element camera 0
property float view_px
property float view_py
property float view_pz
property float x_axisx
property float x_axisy
property float x_axisz
property float y_axisx
property float y_axisy
property float y_axisz
property float z_axisx
property float z_axisy
property float z_axisz
property float focal
property float scalex
property float scaley
property float centerx
property float centery
property int viewportx
property int viewporty
property float k1
property float k2
end_header
273.58185 1067.8099 2.0573664 255 255 255
176.82338 174.15971 0.65713185 255 255 255
75.408028 185.25021 0.28112134 255 255 255
-367.56067 -434.423 -1.7485578 255 255 255
-272.64359 -230.9929 -1.4250895 255 255 255
351.4704 880.24615 1.4879966 255 255 255
-183.80547 -660.59039 -2.0903335 255 255 255
-1200.4476 -2112.988 -3.1610575 255 255 255
-737.70435 -864.61926 -3.64188 255 255 255
399.44272 1463.0685 2.5122471 255 255 255
-861.06201 -3482.6726 -7.7182045 255 255 255
-522.61658 -6321.3091 -13.156432 255 255 255
-204.63156 -807.74384 -2.3182433 255 255 255
199.36635 513.41858 0.69406021 255 255 255
-577.43878 -368.47769 -2.4733069 255 255 255
285.05811 935.79736 1.3288144 255 255 255
-267.48862 -871.63306 -3.1550672 255 255 255
-116.39014 -611.35699 -1.9491347 255 255 255
1188.1606 1479.7841 3.5879364 255 255 255
316.19455 795.68622 1.0269957 255 255 255
-519.33429 -1232.0653 -4.4665837 255 255 255
1288.8817 660.27637 2.7286575 255 255 255
3527.2173 2035.2643 4.0417752 255 255 255
206.5367 2051.1721 3.6057034 255 255 255
959.11841 6348.5371 13.090473 255 255 255
-236.90419 -751.92078 -2.4021201 255 255 255
-185.29744 -519.27618 -1.89656 255 255 255
-452.71829 -1935.1172 -4.5665998 255 255 255
902.52954 857.80243 1.9515892 255 255 255
144.01605 926.39478 1.3753715 255 255 255
877.7644 786.30536 1.0646482 255 255 255
-1666.5377 -1769.1542 -8.35425 255 255 255
1975.9796 16495.713 36.219681 255 255 255
-189.77493 -639.64795 -2.1589007 255 255 255
361.71344 1607.4865 2.5383611 255 255 255
751.47272 766.9436 2.689187 255 255 255
-311.89493 -351.45547 -1.4372014 255 255 255
233.40839 1646.1489 2.8979163 255 255 255
-833.6756 -870.14392 -3.7964051 255 255 255
492.34036 2408.5576 3.5847774 255 255 255
-421.62476 -572.50836 -1.6931758 255 255 255
-114.13134 -1162.5485 -3.3837578 255 255 255
1002.2335 1198.4381 2.1888518 255 255 255
1022.7537 3844.8384 6.1422286 255 255 255
5780.998 1233.4873 6.6786485 255 255 255
968.22668 4658.6328 6.5878811 255 255 255
4934.2197 8781.5469 20.057573 255 255 255
1672.1106 1885.0262 2.7939174 255 255 255
367.349 509.86652 0.95146328 255 255 255
1358.0356 1403.1246 2.5536134 255 255 255
1119.1587 12710.798 22.641413 255 255 255
139.80231 115.51613 0.5321843 255 255 255
-1724.6636 -1797.8395 -6.6688013 255 255 255
2895.0549 4698.3838 10.977921 255 255 255
-4530.6445 -2899.1416 -13.879631 255 255 255
-171.06415 -373.72641 -2.0971701 255 255 255
3645.1409 3444.1377 9.3809729 255 255 255
639.54175 675.48541 0.79453403 255 255 255
135.68297 557.66724 0.85321158 255 255 255
-337.91003 -783.40045 -2.1921923 255 255 255
-635.63281 -1625.6073 -4.6592751 255 255 255
475.37634 810.95935 0.87199527 255 255 255
4866.5493 1784.6636 5.0693007 255 255 255
-289.39758 -349.48642 -1.6761308 255 255 255
869.22357 914.99371 3.2481608 255 255 255
-1902.3688 -4691.3169 -14.264218 255 255 255
-833.12097 -464.16418 -3.3089213 255 255 255
-461.62057 -2761.051 -5.8470974 255 255 255
1494.1521 3477.9912 6.6088214 255 255 255
521.71545 499.24548 1.2449065 255 255 255
1026.5537 1615.75 1.633164 255 255 255
-2663.0049 -1766.0131 -8.305337 255 255 255
-1151.1027 -1868.7416 -5.2317419 255 255 255
-588.7489 -2248.4824 -6.5749702 255 255 255
225.46558 2174.1172 3.7646039 255 255 255
1627.5465 641.98798 3.396863 255 255 255
-645.79523 -3311.4824 -8.0630341 255 255 255
5427.853 1652.8827 5.5068088 255 255 255
3009.7463 2494.9348 7.589633 255 255 255
-3745.3042 -8141.6021 -17.784582 255 255 255
1332.9969 1836.3292 3.1370232 255 255 255
269.05551 387.48181 0.95461583 255 255 255
435.78452 1919.7025 3.6775229 255 255 255
4012.8352 2454.0857 10.215312 255 255 255
-435.25696 -842.1333 -2.4583778 255 255 255
-276.51358 -580.27295 -2.0549619 255 255 255
-1944.0635 -2191.7441 -3.6844037 255 255 255
552.5354 488.37546 0.59786123 255 255 255
1132.2924 2180.3247 3.322505 255 255 255
43011.406 55380.109 146.03284 255 255 255
115.86722 50.679916 0.20302604 255 255 255
2171.8149 2547.4243 11.893856 255 255 255
1081.3158 868.99689 3.8916907 255 255 255
351.94894 1596.6434 2.4360533 255 255 255
1089.7274 680.18555 2.363827 255 255 255
3493.0874 2051.9551 4.0027943 255 255 255
-559.5824 -1304.3928 -3.9762931 255 255 255
-2069.9392 -3416.5381 -8.9659986 255 255 255
-2996.8215 -5422.0942 -13.782696 255 255 255
153.24425 377.60059 0.83597583 255 255 255
2957.5137 998.35278 4.8274016 255 255 255
150.88359 1269.7395 1.7892574 255 255 255
3123.7163 1187.0289 4.6630154 255 255 255
1244.5111 2472.728 5.0281448 255 255 255
-358.40683 -153.97182 -1.3819711 255 255 255
929.57043 1267.0415 2.1321623 255 255 255
-1707.7725 -1477.1852 -4.7088809 255 255 255
201.91708 158.89656 0.57142156 255 255 255
569.49677 238.22533 1.0129601 255 255 255
43.664829 122.5532 0.35319999 255 255 255
34.833038 95.254486 0.24948269 255 255 255
-827.73657 -1132.4728 -3.521812 255 255 255
1279.3123 7928.7236 11.002651 255 255 255
318.89932 627.01636 1.3665024 255 255 255
2126.0981 1265.9017 5.1162801 255 255 255
-1207.6992 -2145.2563 -5.1261544 255 255 255
-560.83759 -597.255 -2.0375075 255 255 255
-650.97626 -747.10254 -2.4312034 255 255 255
271.11475 1288.9827 2.2435629 255 255 255
-252.38719 -642.46442 -2.4585381 255 255 255
-1603.1556 -2518.2944 -5.6573 255 255 255
522.78973 269.85895 1.3854797 255 255 255
653.30658 1856.0896 3.0468569 255 255 255
192.97281 1433.3191 2.3897822 255 255 255
910.46643 3686.0769 12.600583 255 255 255
-388.99112 -1113.8555 -3.8506725 255 255 255
357.84515 795.32532 1.2699155 255 255 255
5705.459 1662.1331 5.5470304 255 255 255
-1702.0885 -3950.1609 -8.2518454 255 255 255
-3472.9858 -7701.8379 -17.333712 255 255 255
-9843.5361 -23847.152 -50.529346 255 255 255
-186.58748 -395.09299 -1.6502634 255 255 255
515.88605 401.2583 0.61397737 255 255 255
97.835846 322.85336 0.49665982 255 255 255
1475.0319 2335.2412 5.6636496 255 255 255
-1202.1964 -925.48474 -2.65733 255 255 255
9841.0059 18663.283 63.920029 255 255 255
-695.36969 -1659.0386 -4.202486 255 255 255
2092.135 1181.356 5.492959 255 255 255
-750.42114 -592.19427 -1.9063041 255 255 255
1483.351 2386.2893 5.7257771 255 255 255
1338.983 1701.8663 2.5387609 255 255 255
-113.16805 -189.92677 -1.8681723 255 255 255
1257.3566 2521.0281 4.6462798 255 255 255
-854.71228 -3270.9192 -6.6768832 255 255 255
-1063.0474 -3763.0127 -11.533819 255 255 255
-1108.4287 -1961.4017 -4.5724678 255 255 255
-221.22473 -295.14716 -1.4581639 255 255 255
-923.17798 -1013.2036 -4.15343 255 255 255
-688.61426 -3380.5205 -8.229496 255 255 255
111.73706 436.94415 0.64328319 255 255 255
-721.40515 -2538.781 -5.2885017 255 255 255
215.52505 971.55359 1.4568692 255 255 255
170.17912 292.81445 0.68503994 255 255 255
-4301.4014 -1842.4115 -11.993064 255 255 255
1559.4774 2824.1809 6.5481424 255 255 255
-478.14035 -907.79736 -2.5765879 255 255 255
237.95081 1233.0179 2.3340132 255 255 255
593.50635 660.6709 1.7012159 255 255 255
-929.02905 -949.54333 -3.0797458 255 255 255
-183.82542 -2176.5525 -6.2963748 255 255 255
-1610.5095 -2084.0552 -6.9577198 255 255 255
-166.98064 -485.17673 -1.790139 255 255 255
520.92883 1094.9325 2.0712457 255 255 255
1822.9774 9857.2598 21.98712 255 255 255
-556.12909 -994.45679 -2.8022726 255 255 255
314171.22 700862.94 1723.1858 255 255 255
-241.48273 -255.04149 -1.330086 255 255 255
586.22888 509.04483 1.5482577 255 255 255
-245.75812 -590.37646 -2.6713235 255 255 255
-404.45853 -1195.3186 -4.033699 255 255 255
-917.89215 -904.80371 -2.2139482 255 255 255
578.48505 2380.5781 3.7834136 255 255 255
518.47485 1827.4149 2.7888253 255 255 255
932.92523 832.49774 2.3759372 255 255 255
-267.53818 -1242.5164 -3.7044218 255 255 255
792.79938 1774.1311 3.4349337 255 255 255
-1291.0629 -1773.6168 -4.9311833 255 255 255
1230.5874 2150.9399 4.6834216 255 255 255
678.5202 1090.4471 3.8578014 255 255 255
102.49529 73.662468 0.24398845 255 255 255
-1375.9526 -3201.3467 -12.626119 255 255 255
-795.42743 -5147.8594 -8.5678272 255 255 255
-750.67615 -1493.3898 -5.0838137 255 255 255
764.90527 798.31311 1.5388719 255 255 255
829.57391 488.66772 2.0340428 255 255 255
2777.0688 746.58777 5.2175059 255 255 255
4777.9043 5060.959 15.704645 255 255 255
-2729.0903 -3715.2188 -14.552404 255 255 255
-817.19147 -1530.2059 -3.6422873 255 255 255
435.89804 997.67706 1.7709295 255 255 255
454.56885 1900.5889 3.726094 255 255 255
-408.17575 -1717.5986 -3.6463807 255 255 255
-380.5192 -782.17712 -2.23297 255 255 255
-4371.4849 -25073.238 -47.377193 255 255 255
1264.488 1594.1594 1.8335091 255 255 255
-551.88843 -435.98175 -1.6675589 255 255 255
3073.4124 16315.058 33.247688 255 255 255
-463.3757 -1364.6832 -3.2246842 255 255 255
3633.8218 3984.0486 12.636212 255 255 255
1282.1783 1358.8394 3.6539903 255 255 255
1069.3315 2796.2502 4.8293839 255 255 255
-620.97992 -2408.1965 -4.8376808 255 255 255
1093.7007 2600.887 5.0210295 255 255 255
-350.30658 -1182.8705 -3.6560404 255 255 255
-17312.693 -33902.293 -102.35834 255 255 255
328.26517 502.86029 1.2590655 255 255 255
-145.72757 -356.40283 -1.612536 255 255 255
-142.44957 -188.38959 -1.460766 255 255 255
-224.98335 -809.65436 -3.1118016 255 255 255
1613.6582 3476.792 7.5963812 255 255 255
150.23787 1080.9166 1.5225842 255 255 255
3161.4602 2319.9653 3.6768134 255 255 255
447.41302 3213.2939 5.4942698 255 255 255
103.04613 1444.4551 2.4661145 255 255 255
-514.50598 -917.40851 -2.5326648 255 255 255
-1761.0431 -3476.5457 -7.044558 255 255 255
245.71341 361.68283 0.37466356 255 255 255
215.31105 1916.5967 3.3174326 255 255 255
-719.5011 -1268.9939 -3.2261281 255 255 255
157.34769 258.89142 0.52457207 255 255 255
1691.559 2737.4182 6.1884365 255 255 255
197.65451 1605.9103 2.9046712 255 255 255
-8464.707 -10462.097 -25.920382 255 255 255
4798.0093 2113.9419 4.6457219 255 255 255
184.66978 56.789471 0.71853405 255 255 255
-153.0385 -744.71753 -2.1915607 255 255 255
-3912.6729 -7917.978 -17.383512 255 255 255
1011.1111 1199.5253 2.1986601 255 255 255
-11602.756 -3985.1768 -13.622476 255 255 255
-261.20828 -316.83466 -1.5317008 255 255 255
399.61871 459.09738 1.2201345 255 255 255
-735.59625 -424.85791 -1.7945557 255 255 255
-220.13188 -223.99202 -1.5748402 255 255 255
437.10114 2445.7251 4.8902974 255 255 255
1608.2024 920.97675 4.0057282 255 255 255
-1199.3464 -769.20422 -2.3267179 255 255 255
1583.8096 5457.0327 11.537372 255 255 255
213.12379 221.17322 0.39294982 255 255 255
179.31453 518.62048 0.81904995 255 255 255
-2845.2913 -8941.2227 -17.917753 255 255 255
224.98903 2224.7227 4.3869915 255 255 255
-537.13855 -269.48978 -1.5875318 255 255 255
-1265.6937 -1819.5923 -3.8121605 255 255 255
-6571.4189 -9501.3447 -26.034229 255 255 255
1126.7876 14880.999 27.702631 255 255 255
-727.95471 -602.27216 -2.594491 255 255 255
3914.3696 3183.3376 10.098585 255 255 255
5055.042 2281.1636 4.5725827 255 255 255
447.51981 581.28204 0.61715114 255 255 255
493.1626 516.37939 1.7760355 255 255 255
-2053.0759 -2029.5911 -5.9024057 255 255 255
-1061.6537 -1009.6772 -3.0525765 255 255 255
1484.7555 2509.5654 6.0606956 255 255 255
-32255.236 -14895.143 -36.540665 255 255 255
-421.81808 -3015.1821 -5.4418287 255 255 255
1158.6678 2347.604 4.7550821 255 255 255
9965.791 14269.959 30.725056 255 255 255
-7387.0127 -13182.681 -32.629402 255 255 255
1917.8246 3117.8711 7.296598 255 255 255
315.44055 1048.0818 1.4860713 255 255 255
-5822.7441 -4018.5996 -21.133961 255 255 255
20189.309 12610.485 48.742821 255 255 255
461.1503 569.66608 1.6964288 255 255 255
1319.4071 752.42139 3.5494921 255 255 255
327.18506 536.54834 1.1297234 255 255 255
2928.2944 4896.0015 10.258963 255 255 255
1465.5673 846.21149 3.0915997 255 255 255
-237.21983 -626.87744 -2.0886877 255 255 255
-1923.201 -1779.3488 -7.1279936 255 255 255
808.75513 3585.5193 6.9561687 255 255 255
565.1651 659.05292 0.76458943 255 255 255
-28586.773 -47149.473 -125.00319 255 255 255
-1196.3314 -559.6994 -3.8134794 255 255 255
-2582.7864 -5071.98 -10.757197 255 255 255
805.54266 2633.6099 5.1816626 255 255 255
611.68896 806.33466 1.8077148 255 255 255
-1808.374 -9270.4463 -21.22241 255 255 255
148.81117 1090.2836 1.5416468 255 255 255
-1069.0093 -3244.1804 -8.2658443 255 255 255
-1088.2366 -857.52594 -3.0550234 255 255 255
-667.33142 -1033.6864 -2.8827469 255 255 255
4405.7876 2514.9727 4.181047 255 255 255
442.89639 607.55804 0.64225519 255 255 255
-161.44009 -937.82159 -2.419275 255 255 255
1454.0931 2912.8174 5.7406259 255 255 255
109.56107 107.61102 0.42608196 255 255 255
-2091.23 -3063.0671 -8.875968 255 255 255
375.68985 424.23322 1.1486809 255 255 255
-4518.3804 -3934.116 -17.377476 255 255 255
18991.701 81651.398 177.0672 255 255 255
-869.54407 -1328.816 -3.0280583 255 255 255
-1062.6102 -1053.5836 -4.0661287 255 255 255
-466.16458 -262.30099 -1.5398251 255 255 255
433.91049 204.86696 0.96367329 255 255 255
54.289875 45.060673 0.20126091 255 255 255
-120.14808 -578.53308 -1.909618 255 255 255
-828.99603 -1262.054 -3.2190959 255 255 255
-321.20959 -703.28198 -2.144851 255 255 255
144.52136 306.22205 0.74245679 255 255 255
52.269375 74.286087 0.16209765 255 255 255
-429.80243 -204.62756 -1.4993905 255 255 255
-655.83136 -526.93066 -2.165601 255 255 255
1437.1796 1382.0374 2.6237426 255 255 255
130.76627 254.19374 0.41431227 255 255 255
-388.56747 -169.43452 -1.3803331 255 255 255
-1873.0762 -2706.5449 -9.1126299 255 255 255
-17758.68 -56792.672 -121.01682 255 255 255
-378.32672 -780.83875 -2.7987092 255 255 255
52.370213 204.77765 0.30119967 255 255 255
-192.14854 -528.36017 -2.0898004 255 255 255
-479.93451 -1057.2107 -3.5853815 255 255 255
3940.4441 2148.1987 4.2009029 255 255 255
-1106.7671 -2520.0654 -9.2037163 255 255 255
527.13074 801.16046 1.2155713 255 255 255
596.13934 540.59821 1.5125979 255 255 255
1267.3365 2008.129 4.3335886 255 255 255
1092.7272 673.49249 2.3737299 255 255 255
-635.21582 -2198.908 -4.4270716 255 255 255
3563.3477 2343.3633 9.6695757 255 255 255
2001.4885 4836.749 11.007027 255 255 255
-269.28351 -613.67743 -2.0623958 255 255 255
-333.72375 -385.79462 -2.2595775 255 255 255
900.06354 969.12207 1.0981975 255 255 255
395.25085 175.79619 0.3942214 255 255 255
288.38348 369.54379 0.95736217 255 255 255
1013.4005 2099.2295 4.4598775 255 255 255
-966.52643 -2192.5452 -6.4801569 255 255 255
-3195.041 -4443.7578 -12.32236 255 255 255
-202.08548 -70.821999 -1.2439315 255 255 255
264.25116 1243.4016 2.4350693 255 255 255
-10708.068 -21787.074 -54.544792 255 255 255
-562.06171 -293.16687 -2.1109223 255 255 255
364.26163 709.99756 1.1197937 255 255 255
-428.95029 -1447.983 -3.5304904 255 255 255
10319.447 12725.645 44.420479 255 255 255
-972.77332 -1177.9028 -3.5295367 255 255 255
-1171.3646 -1661.1019 -5.0038376 255 255 255
-1419.6206 -1433.7305 -4.7638812 255 255 255
-799.64343 -2142.5945 -6.3918133 255 255 255
-1148.4966 -2152.0979 -4.8713908 255 255 255
961.45972 2466.6433 5.324492 255 255 255
3529.2466 6906.6323 17.206715 255 255 255
499.21014 709.02692 1.5281622 255 255 255
365.918 496.06299 1.1894631 255 255 255
1163.8062 1266.5018 3.3469138 255 255 255
475.87119 810.33557 0.7060889 255 255 255
-11009.418 -29714.334 -63.831436 255 255 255
3630.6912 2489.8167 3.8637087 255 255 255
2157.9138 2119.8625 4.4835472 255 255 255
-433.38156 -355.21567 -2.2897413 255 255 255
3709.3967 4474.4805 9.7474289 255 255 255
130.69299 206.8645 0.42770153 255 255 255
-549.71753 -551.57782 -2.8254302 255 255 255
3638.1128 2482.9714 3.8689854 255 255 255
-1226.6636 -1873.3002 -3.9163237 255 255 255
-524.50208 -863.02899 -3.065398 255 255 255
-417.89639 -522.07056 -2.073436 255 255 255
-591.74744 -669.5564 -2.4796946 255 255 255
861.92316 1328.1768 2.4570646 255 255 255
-208.69841 -365.33929 -1.9664246 255 255 255
277.59985 358.76016 1.0060308 255 255 255
927.98932 1182.0835 3.0521305 255 255 255
-261.54193 -505.48373 -1.8381087 255 255 255
297.4234 1531.3685 2.7000191 255 255 255
-884.58087 -1390.901 -5.1483192 255 255 255
1338.389 3686.0186 9.7404127 255 255 255
-660.54218 -979.49622 -2.1205852 255 255 255
42.205791 73.31942 0.1067498 255 255 255
23031.555 9732.5029 27.238243 255 255 255
3700.5713 2515.4419 3.8808892 255 255 255
3665.1604 2349.8906 3.9353535 255 255 255
-567.54102 -825.22308 -1.9087791 255 255 255
137.26224 85.514671 0.36418286 255 255 255
723.16461 2545.1172 9.0798721 255 255 255
164.86667 592.54547 0.87788856 255 255 255
8495.5811 10727.851 34.164639 255 255 255
-3155.4272 -6371.4922 -14.630337 255 255 255
-1322.5999 -299.41199 -4.632689 255 255 255
1284.1218 873.6236 3.5374236 255 255 255
231.36497 1496.8226 2.6762121 255 255 255
1109.0631 687.32025 2.3968835 255 255 255
-257.52612 -235.7664 -1.3575124 255 255 255
1002.1501 1198.016 2.1882737 255 255 255
1436.3744 1381.1469 2.6226792 255 255 255
1625.5916 643.47607 3.3827076 255 255 255
931.06061 1268.4161 2.1348078 255 255 255
-460.03125 -1652.9586 -3.4220333 255 255 255
1596.304 635.74146 3.341682 255 255 255
590.78381 370.01236 1.8320161 255 255 255
-126.51928 -1280.2808 -3.6320319 255 255 255
327.55945 1437.42 2.1216419 255 255 255
5705.4243 1661.6926 5.5455337 255 255 255
230.21924 417.8559 0.95559913 255 255 255
1681.5896 7792.5176 16.217571 255 255 255
-1281.7321 -1896.1512 -4.2744484 255 255 255
2061.5254 1337.3711 3.2965136 255 255 255
-254.12601 -348.41556 -1.4553456 255 255 255
-166.26033 -805.36975 -2.4964402 255 255 255
1734.566 1512.0459 2.8846626 255 255 255
973.18304 690.6756 2.1707428 255 255 255
577.41931 1341.0056 2.3076468 255 255 255
-15204.361 -25971.877 -61.148335 255 255 255
880.90906 1527.125 2.8016205 255 255 255
398.94946 893.10626 1.432249 255 255 255
-131.22432 -545.9259 -1.902939 255 255 255
337.96652 454.82095 0.71620238 255 255 255
-249.91994 -417.56735 -2.5237043 255 255 255
-95.074478 -637.04999 -1.9564086 255 255 255
-1771.6083 -3976.9839 -6.942142 255 255 255
-1768.7158 -2506.4651 -7.0463729 255 255 255
-1553.958 -1320.9352 -7.8999052 255 255 255
-287.64615 -388.17953 -1.4357935 255 255 255
-4819.292 -7382.3882 -19.924095 255 255 255
352.77264 1739.4612 3.0214379 255 255 255
899.01141 3611.1431 8.0349216 255 255 255
3847.5671 2292.9807 4.0619645 255 255 255
-630.17474 -1864.2864 -3.2985508 255 255 255
1258.2836 1581.7382 3.4560328 255 255 255
160.08052 398.79547 0.8221122 255 255 255
-251.73216 -167.5842 -1.3113571 255 255 255
4177.4756 2044.8794 4.4177756 255 255 255
746.34302 266.34775 1.2945715 255 255 255
-1305.426 -1986.7682 -4.275856 255 255 255
75.640015 1201.1055 2.2549934 255 255 255
3029.7346 4165.812 11.610564 255 255 255
-679.87152 -3119.0605 -6.2118807 255 255 255
-229.08945 -1296.1787 -3.7202535 255 255 255
6121.9443 1324.0217 6.4239902 255 255 255
2924.5857 13224.049 46.383354 255 255 255
247.60016 939.98248 1.4149057 255 255 255
290.42221 1301.4344 2.0247395 255 255 255
13.924829 103.49679 0.2907134 255 255 255
467.68433 2870.9373 5.729722 255 255 255
1087.5715 2022.6172 4.3167362 255 255 255
-1517.0468 -3080.1692 -5.8478618 255 255 255
771.99707 781.87018 2.002691 255 255 255
125.07234 79.068054 0.30439579 255 255 255
-323.80969 -539.36493 -2.4670222 255 255 255
2034.5098 1838.7769 3.0634885 255 255 255
-672.63116 -1857.6476 -6.067277 255 255 255
-550.93243 -4702.5957 -9.7580128 255 255 255
1622.5103 1420.0255 4.2161651 255 255 255
458.98709 906.16669 2.5223513 255 255 255
940.61176 6202.7671 12.789863 255 255 255
120.89581 1052.6185 1.7474191 255 255 255
1482.7493 2818.3049 5.3881226 255 255 255
-447.40997 -1036.5387 -3.4739745 255 255 255
-162.41606 -395.54004 -1.6762589 255 255 255
-3420.998 -15343.536 -32.096474 255 255 255
1108.9854 764.07263 2.3542621 255 255 255
-2230.4534 -3381.3267 -8.8625126 255 255 255
-105.50666 -218.06366 -1.3282334 255 255 255
-1969.1635 -3534.2415 -7.5217156 255 255 255
-279.11545 -207.63202 -1.3505986 255 255 255
698.42957 3472.1484 6.3404226 255 255 255
739.70978 2157.5103 3.5497303 255 255 255
804.9212 1696.2125 3.403065 255 255 255
417.26547 411.54041 2.6434329 255 255 255
1543.882 2626.572 4.4646206 255 255 255
861.41962 2080.2466 4.6923351 255 255 255
145.38812 234.7372 0.75778812 255 255 255
120.22468 510.66461 0.866992 255 255 255
730.23132 590.34552 1.7833756 255 255 255
1357.6868 1403.2673 2.5529912 255 255 255
192.83701 483.85403 0.98025852 255 255 255
178.20116 114.67088 0.71172529 255 255 255
-252.82382 -177.8904 -1.2932762 255 255 255
477.81287 865.27612 1.7713588 255 255 255
4422.0596 2121.0969 13.698963 255 255 255
2329.4966 1096.3485 2.7081623 255 255 255
428.67593 420.44165 1.6271338 255 255 255
458.25781 2035.787 3.3038185 255 255 255
26589.998 52163.812 117.99354 255 255 255
-2982.5405 -11188.877 -29.098104 255 255 255
-842.2868 -1310.5571 -2.99986 255 255 255
26.334913 103.11012 0.29712498 255 255 255
275.74179 421.61038 0.92659378 255 255 255
1377.8649 1273.2665 3.7579558 255 255 255
-738.04791 -780.78015 -2.0391376 255 255 255
111.61036 528.30725 0.74032956 255 255 255
186.55525 996.65503 1.7097076 255 255 255
-1369.9636 -856.95135 -5.1587796 255 255 255
-583.34479 -1112.9222 -2.7044461 255 255 255
1675.4425 1886.6833 2.7985036 255 255 255
519.61646 566.1405 1.4410684 255 255 255
1724.9644 2341.0715 6.3290181 255 255 255
217.39833 275.88037 0.91441333 255 255 255
-241.45641 -237.48332 -1.4799545 255 255 255
75.703056 473.76282 0.85225248 255 255 255
230.65553 1036.0333 1.4517752 255 255 255
-66494.055 -86712.273 -132.93556 255 255 255
227.1609 669.70862 1.9419631 255 255 255
-8428.9395 -14719.149 -49.401882 255 255 255
209.35361 733.34961 1.8373661 255 255 255
-441.56662 -470.08743 -2.1633399 255 255 255
229.2056 222.40218 0.64788055 255 255 255
-2238.8982 -4515.4849 -9.6830416 255 255 255
2264.6995 1669.6687 4.7072678 255 255 255
177.08476 974.66388 1.393733 255 255 255
1003.2411 1609.6593 2.2817495 255 255 255
3623.4568 3091.7524 10.215944 255 255 255
401.84335 392.36151 1.0431651 255 255 255
68922.148 40822.512 168.83517 255 255 255
335.7056 960.3847 1.3953264 255 255 255
-1041.4379 -2487.5479 -7.1641965 255 255 255
268.32224 1299.1016 1.8974618 255 255 255
287.40283 193.9501 0.57252169 255 255 255
238.45279 2124.3022 2.9227605 255 255 255
879.33112 3100.1807 5.1014128 255 255 255
57.673382 788.89862 1.4112793 255 255 255
5894.5244 2403.9417 5.9541802 255 255 255
5440.396 1656.6697 5.5214171 255 255 255
3525.8254 2033.9299 4.0381951 255 255 255
-331.58521 -402.71246 -2.0798423 255 255 255
-1541.2991 -1101.9336 -3.0908213 255 255 255
1359.095 1395.4198 2.553921 255 255 255
1182.7228 2398.2671 5.1969213 255 255 255
-115.07985 -626.28143 -2.157506 255 255 255
1068.1261 718.84875 2.3136566 255 255 255
-72.155258 -86.938324 -1.1040926 255 255 255
-13478.141 -9918.2988 -39.23381 255 255 255
331.47955 1198.3752 2.0056775 255 255 255
622.33191 487.95419 0.76697618 255 255 255
-466.1785 -1352.335 -4.205358 255 255 255
400.34003 547.26569 1.5460223 255 255 255
-1088.9614 -1314.4349 -4.3244081 255 255 255
-155.92947 -502.23663 -1.7901329 255 255 255
-786.29279 -966.38568 -2.2237432 255 255 255
572.16205 733.38055 1.0268785 255 255 255
-255.90359 -857.73523 -3.0123188 255 255 255
33.746281 422.4552 0.61526686 255 255 255
-3537.2146 -3151.3579 -13.896062 255 255 255
-120.00538 -930.67218 -2.661895 255 255 255
-286.96857 -808.57709 -2.5986631 255 255 255
189.0128 699.55298 1.0418628 255 255 255
421.90717 435.43954 1.2534902 255 255 255
-1308.8915 -1401.5197 -4.5731611 255 255 255
1472.9698 2961.5183 6.5919285 255 255 255
2838.113 4557.8721 9.2416496 255 255 255
314.75897 577.61145 1.3195307 255 255 255
137.57013 266.3696 0.61302787 255 255 255
110.39617 56.670116 0.27530089 255 255 255
807.33722 852.50995 1.5379047 255 255 255
-267.7124 -308.17584 -1.4280756 255 255 255
1753.8928 9831.5098 14.402744 255 255 255
592.4729 512.39349 1.5569884 255 255 255
-186.45966 -957.56769 -3.0542831 255 255 255
266.29639 323.67447 0.78274667 255 255 255
322.61288 826.1875 1.0620103 255 255 255
2054.2744 4627.062 10.350554 255 255 255
129.20764 286.29987 1.0403942 255 255 255
153.29814 378.3952 0.83785701 255 255 255
-358.71561 -1901.8425 -4.6239195 255 255 255
633.52484 2838.9553 8.3499746 255 255 255
-1099.8192 -2363.7163 -7.596405 255 255 255
-278.42651 -1666.5859 -4.9067593 255 255 255
3726.5542 9655.8828 29.165476 255 255 255
-3623.4907 -10234.714 -23.78813 255 255 255
627.6311 1126.2461 2.4406507 255 255 255
712.97675 482.76593 1.6484611 255 255 255
6361.1812 17020.148 25.946083 255 255 255
569.08862 205.56686 0.67479324 255 255 255
596.17108 693.79724 0.75072634 255 255 255
284.40601 391.45544 1.139667 255 255 255
1271.5085 638.62091 2.4667377 255 255 255
-243.79903 -570.74939 -1.907228 255 255 255
1374.4041 4150.9932 13.742977 255 255 255
1804.196 1785.4663 5.948772 255 255 255
860.70367 561.47473 2.1423864 255 255 255
429.71234 377.56775 1.3279767 255 255 255
250.36018 1036.8184 2.1703827 255 255 255
97.46476 428.16571 0.62861723 255 255 255
95.414978 100.21514 0.23055637 255 255 255
-625.87299 -815.09485 -2.4673014 255 255 255
-521.05536 -1235.0964 -4.4760747 255 255 255
-1980.8723 -2318.4446 -11.657895 255 255 255
3197.2122 3309.978 11.571074 255 255 255
-311.97891 -914.11761 -2.9223409 255 255 255
283.30389 2758.8516 5.1115866 255 255 255
-4436.3169 -4613.4458 -11.491674 255 255 255
691.40961 898.52264 2.1763651 255 255 255
610.24487 2269.0957 4.7598925 255 255 255
-997.36157 -6587.4126 -11.984424 255 255 255
3253.697 5750.1113 14.326535 255 255 255
-295.31961 -618.19812 -2.5029156 255 255 255
-1005.5368 -7138.0737 -16.435503 255 255 255
332.0748 1273.3969 2.0711451 255 255 255
1094.3407 674.54016 2.3776269 255 255 255
-616.84369 -754.23584 -1.9017203 255 255 255
825.44141 1134.261 1.9457248 255 255 255
1810.8588 313.11951 6.8932128 255 255 255
109.27117 84.526161 0.16879174 255 255 255
-128.62979 -315.5015 -1.7025453 255 255 255
3249.0459 5881.3706 16.547241 255 255 255
573.28296 321.91281 1.608796 255 255 255
426.18161 1413.2445 2.3511176 255 255 255
217.56827 498.43347 1.176005 255 255 255
913.16577 634.91687 2.2272329 255 255 255
-662.4173 -1421.8158 -5.5920415 255 255 255
1226.9154 1606.5215 7.3726306 255 255 255
-1428.204 -2755.6021 -5.2940559 255 255 255
-165.39069 -357.27853 -1.6307662 255 255 255
-9611.5107 -9931.6064 -17.003132 255 255 255
-8616.9443 -3770.4331 -9.6388493 255 255 255
109.94337 432.94571 0.9594146 255 255 255
-551.9101 -626.70819 -2.0460846 255 255 255
-42869.316 -25722.334 -48.794018 255 255 255
-215.83725 -414.84167 -1.4081479 255 255 255
-132.57617 -1013.3083 -3.360846 255 255 255
4412.7578 2369.0466 4.9517183 255 255 255
337.5274 1145.296 2.1668153 255 255 255
-358.43246 -153.94254 -1.3820598 255 255 255
-240.06352 -449.35248 -2.0991533 255 255 255
5402.2871 8774.5684 19.5882 255 255 255
-801.92694 -700.15631 -2.13379 255 255 255
-17076.432 -13207.69 -68.366814 255 255 255
1435.1694 3149.7744 4.4137826 255 255 255
397.2818 1007.4702 1.9276915 255 255 255
3412.1714 903.74316 5.6596928 255 255 255
-5300.7339 -6298.7627 -20.800535 255 255 255
205.64252 1141.6523 1.7289828 255 255 255
65.875908 239.29205 0.50916779 255 255 255
2820.3445 1611.6749 3.8340025 255 255 255
-169.49506 -383.29593 -1.5976969 255 255 255
671.18268 409.65979 1.4405371 255 255 255
-9411.2773 -18518.209 -46.56921 255 255 255
-816.23889 -497.64651 -3.6412466 255 255 255
207.98628 1826.1654 3.3024359 255 255 255
2926.4573 4465.0654 19.683384 255 255 255
566.76471 1248.9473 2.2424827 255 255 255
903.58209 5289.7256 11.302908 255 255 255
2759.1919 9983.0898 22.339687 255 255 255
458.05997 729.63336 1.2315558 255 255 255
-916.41547 -1333.8885 -4.1062741 255 255 255
-695.81146 -1169.5983 -2.8628027 255 255 255
-1748.3284 -2329.447 -9.8197803 255 255 255
317.10773 241.47221 1.0196756 255 255 255
11308.583 19261.021 29.249069 255 255 255
-13138.351 -47544.809 -74.832481 255 255 255
-1743.0428 -3057.1326 -6.1687722 255 255 255
178.50859 265.16504 0.57318795 255 255 255
-925.8772 -1813.6794 -3.7123892 255 255 255
-1689.1394 -2438.9883 -6.0920658 255 255 255
-7422.792 -5953.8892 -21.992998 255 255 255
-520.55627 -469.64297 -2.0120516 255 255 255
941.69135 4717.895 9.2637148 255 255 255
-1523.6003 -2277.4395 -4.7104816 255 255 255
-1166.5164 -2072.4248 -4.8771324 255 255 255
1414.5125 3825.4058 8.598979 255 255 255
4384.2417 14568.731 31.268223 255 255 255
-358.29813 -362.68109 -2.5566761 255 255 255
-142.48792 -1766.1227 -5.2029648 255 255 255
350.75729 1621.8684 2.4514608 255 255 255
-260.40549 -295.73358 -1.3866009 255 255 255
371.87375 586.35382 0.88944715 255 255 255
-4275.7324 -25157.223 -57.27058 255 255 255
357.94702 517.80261 1.1917745 255 255 255
-296.46637 -713.22821 -2.4394875 255 255 255
-342.16882 -1118.078 -3.6133089 255 255 255
2036.9315 1583.6782 5.4174118 255 255 255
-593.17657 -790.72083 -1.8495895 255 255 255
1183.0591 3534.4539 6.5536957 255 255 255
544.51971 883.83282 1.8227999 255 255 255
226.18062 274.25507 1.354162 255 255 255
-22505.6 -15681.859 -69.400452 255 255 255
691.08771 890.41571 2.397155 255 255 255
1045.6421 1270.4227 3.4649007 255 255 255
308.64493 1292.0587 2.1880274 255 255 255
175.40463 1198.6139 1.7898827 255 255 255
1224.2463 3087.9353 6.6579585 255 255 255
-831.49487 -613.54437 -3.7457194 255 255 255
1995.3203 4375.9849 9.0488453 255 255 255
-482.63385 -771.16028 -2.1415174 255 255 255
-263.72726 -538.25952 -2.2422974 255 255 255
871.55609 1276.3563 2.1685624 255 255 255
2651.333 5149.9941 10.964925 255 255 255
-591.90289 -537.73022 -1.6810508 255 255 255
940.23346 951.18964 2.217185 255 255 255
3225.696 19035.039 26.336149 255 255 255
-186.29343 -427.85056 -1.7770842 255 255 255
34779.969 28482.99 99.407516 255 255 255
197.58931 939.90009 1.3646686 255 255 255
-895.61072 -824.14014 -2.5886428 255 255 255
396.61887 2875.8071 5.6499214 255 255 255
2004.8523 2651.6594 6.9000864 255 255 255
1806.0824 4166.876 8.9963741 255 255 255
561.9353 320.86108 1.5817837 255 255 255
634.05719 283.37881 0.80258745 255 255 255
31.015059 76.889481 0.23949337 255 255 255
1571.9048 3213.5664 7.0033917 255 255 255
-2981.2083 -10609.157 -26.102757 255 255 255
-277.40216 -648.76514 -2.0858836 255 255 255
1300.5182 1238.3225 3.1997828 255 255 255
14941.403 30556.373 81.077942 255 255 255
759.8324 1513.3424 3.0732834 255 255 255
280.16309 1163.8386 2.2121596 255 255 255
598.40417 2496.3528 4.7918558 255 255 255
203.73953 254.1864 0.65085447 255 255 255
-506.73013 -836.41772 -1.9301429 255 255 255
-774.68176 -866.17218 -2.4472661 255 255 255
236.79338 1086.0155 1.5418744 255 255 255
608.97858 2897.7202 6.0493817 255 255 255
-606.34717 -244.62181 -1.7255563 255 255 255
119.93445 1341.2251 2.1520879 255 255 255
224.01215 1066.9935 1.7931813 255 255 255
130.33734 47.063885 0.3044678 255 255 255
52.08889 305.46713 0.86667174 255 255 255
1401.6183 1716.8199 6.8109365 255 255 255
-508.2092 -1029.4246 -2.5878851 255 255 255
-219.19177 -134.88609 -1.2449878 255 255 255
-132.46776 -819.88654 -2.7908144 255 255 255
-5932.5776 -7808.5728 -18.667627 255 255 255
2419.2966 6040.0801 12.483891 255 255 255
1364.8262 1439.4287 3.7209527 255 255 255
276.61032 370.55756 0.65712702 255 255 255
1402.2603 1331.5895 1.6750365 255 255 255
-277.53851 -1312.9353 -4.0564933 255 255 255
-3806.8262 -11780.565 -27.556257 255 255 255
205.96928 260.55222 0.67234021 255 255 255
-728.7666 -927.58826 -2.1502473 255 255 255
-11565.99 -4697.165 -30.893396 255 255 255
213.3004 1636.7142 2.3266079 255 255 255
-962.71704 -2133.8037 -6.6178374 255 255 255
230.91663 228.49541 0.65832227 255 255 255
-1832.9916 -1128.9291 -4.6084499 255 255 255
1134.7203 8584.9561 13.508505 255 255 255
497.9657 463.98596 1.2193704 255 255 255
878.97888 3233.033 6.3272433 255 255 255
-2848.8398 -1198.6575 -10.068772 255 255 255
-86.59124 -559.25415 -1.8751402 255 255 255
-475.02872 -2235.01 -4.535831 255 255 255
-527.10699 -981.74609 -2.9082339 255 255 255
75159.672 94752.648 212.5676 255 255 255
413.14322 217.80994 0.41972542 255 255 255
-218.21051 -236.97121 -1.5736172 255 255 255
2397.4058 10225.288 24.633953 255 255 255
-574.7196 -351.56857 -2.6019559 255 255 255
4402.6885 2513.0938 4.1776562 255 255 255
2479.4141 3839.3584 10.247842 255 255 255
959.14172 2687.9961 4.2356372 255 255 255
1038.416 1179.368 2.781348 255 255 255
1870.882 11132.767 21.808395 255 255 255
-249.61781 -774.79431 -2.5761571 255 255 255
514.5448 1021.777 2.3727038 255 255 255
79.580498 832.64673 1.1719948 255 255 255
857.78247 887.93787 1.0426103 255 255 255
396.52951 249.46976 1.2125739 255 255 255
1426.424 1529.4293 5.6300282 255 255 255
-1042.7902 -5156.3496 -8.3295193 255 255 255
287.08829 854.70532 1.3612405 255 255 255
485.00861 569.74982 0.9076584 255 255 255
-1375.5446 -2488.5974 -5.6516333 255 255 255
239.29913 929.51154 1.373775 255 255 255
305.58893 723.89813 0.94916439 255 255 255
-1044.0674 -1518.3782 -2.6402602 255 255 255
-133.23268 -228.51404 -1.3575027 255 255 255
6116.7222 1322.6637 6.4197292 255 255 255
182.38731 1443.1155 2.0953355 255 255 255
-961.51202 -1009.165 -2.8333969 255 255 255
4828.5889 1764.1517 5.0750403 255 255 255
157.81697 1082.635 1.5328997 255 255 255
3694.7888 2512.4802 3.8741336 255 255 255
-287.72034 -818.66998 -2.8516264 255 255 255
580.69995 555.37836 0.91194391 255 255 255
-2130.3044 -4427.4126 -12.170718 255 255 255
446.69421 554.08026 1.0176015 255 255 255
348.88498 385.49084 1.0978751 255 255 255
-265.10733 -602.38275 -1.8912512 255 255 255
-3307.3711 -2896.4824 -9.4436893 255 255 255
1149.2804 2793.9163 6.2367864 255 255 255
222.13068 1043.1345 2.0712066 255 255 255
-1141.6956 -1097.4423 -4.843873 255 255 255
-397.84839 -470.50787 -2.555361 255 255 255
43.835819 122.54647 0.35318398 255 255 255
270.50461 958.17877 1.5158253 255 255 255
484.27579 3023.5508 5.3220954 255 255 255
5698.1816 1662.1154 5.5396986 255 255 255
3384.1235 2804.9072 4.1316204 255 255 255
395.07819 1504.5526 2.3736031 255 255 255
-338.81137 -272.25699 -1.5160085 255 255 255
-314.22852 -929.47333 -2.9290535 255 255 255
650.85004 2405.1682 4.9920926 255 255 255
2023.422 2159.571 10.947663 255 255 255
-461.55661 -667.91083 -2.9658687 255 255 255
1337.5419 1697.7844 2.5345719 255 255 255
2296.9241 4115.3281 5.8852606 255 255 255
140.16718 208.56447 0.48649344 255 255 255
-20856.727 -71165.062 -163.51553 255 255 255
378.00537 365.10568 0.91554028 255 255 255
-513.69855 -746.11823 -1.7968125 255 255 255
-240.57866 -315.69046 -1.6351527 255 255 255
-3557.8594 -6735.0547 -14.576573 255 255 255
233.07799 1042.1908 1.5516516 255 255 255
268.93768 1569.7776 2.6090567 255 255 255
4783.9287 2104.4639 4.6371212 255 255 255
1092.1478 673.8139 2.3719568 255 255 255
1161.7538 1347.9976 1.4274714 255 255 255
223.08002 291.26129 0.83678395 255 255 255
233.42445 522.27673 1.0067891 255 255 255
-1180.4537 -4428.0474 -10.93633 255 255 255
-1229.0309 -1565.9667 -7.0226011 255 255 255
2807.1816 12497.555 28.67548 255 255 255
5711.1006 28560.252 61.087254 255 255 255
25.878832 102.22326 0.29488605 255 255 255
-308.53058 -781.6438 -2.2436717 255 255 255
-1584.3115 -3319.7651 -6.9518981 255 255 255
573.00714 408.97467 2.4417088 255 255 255
611.27557 1160.7148 2.4987454 255 255 255
1452.1082 1355.307 3.7685609 255 255 255
1601.0797 2452.8772 6.2977042 255 255 255
-179.2747 -549.35516 -2.2112939 255 255 255
2078.3254 3080.5164 6.9357862 255 255 255
-885.96765 -761.45172 -3.6941085 255 255 255
2555.3831 5683.3682 11.93387 255 255 255
-266.18863 -543.39453 -1.9146304 255 255 255
-240.45375 -1677.4509 -3.2990701 255 255 255
-311.03613 -1810.6479 -3.6002033 255 255 255
623.47858 1062.2302 2.3293505 255 255 255
59.35598 35.22892 0.17706199 255 255 255
-11177.579 -16431.203 -50.896385 255 255 255
-337.22549 -1701.252 -4.1482086 255 255 255
-305.16333 -1630.1926 -3.3757865 255 255 255
-3779.7417 -16949.785 -25.02882 255 255 255
1948.4707 5108.0039 11.238659 255 255 255
2418.6931 5564.7832 10.690084 255 255 255
-7452.6313 -15351.448 -42.773052 255 255 255
518.34076 566.34406 1.4392999 255 255 255
-262.92273 -633.14587 -2.4318953 255 255 255
812.68207 289.28867 0.93650728 255 255 255
149.25067 1192.9274 1.9671994 255 255 255
-231.29234 -507.13083 -1.7790457 255 255 255
-300.46408 -708.52039 -2.0735636 255 255 255
-105.01359 -706.45111 -2.2414758 255 255 255
360.00406 534.49042 1.2055572 255 255 255
1050.3156 506.8985 1.239748 255 255 255
253.35237 229.28816 0.77225077 255 255 255
290.31976 1554.7903 2.3858616 255 255 255
1355.9854 2281.322 4.8740969 255 255 255
8184.7534 8435.4707 21.968742 255 255 255
-453.57431 -942.34991 -2.7050683 255 255 255
-1276.0861 -1611.9646 -8.2180033 255 255 255
164.96259 1729.1356 3.0763361 255 255 255
484.95721 1174.7699 2.0372949 255 255 255
426.20023 1031.6593 1.6668653 255 255 255
84.347267 247.64381 0.39156401 255 255 255
-211.5164 -696.15381 -2.51316 255 255 255
-812.04987 -2082.1348 -5.7042203 255 255 255
83.019218 349.09497 0.55827785 255 255 255
963.65778 1053.2288 3.483212 255 255 255
47.52042 249.43675 0.42092595 255 255 255
1358.6564 1404.5438 2.55477 255 255 255
684.07941 941.61212 1.5982336 255 255 255
433.38779 463.76724 1.2752335 255 255 255
1358.7994 1395.9775 2.5542004 255 255 255
141.74944 411.66669 1.0409782 255 255 255
4087.969 9118.998 30.953819 255 255 255
-412.56387 -401.85172 -2.0345819 255 255 255
5323.1138 9760.7119 20.339087 255 255 255
-575.5929 -1736.5787 -5.5290918 255 255 255
716.42859 764.44244 2.6374953 255 255 255
582.91278 328.23602 1.626058 255 255 255
262.08487 756.84625 1.1932697 255 255 255
-200.23534 -1349.8582 -4.1372499 255 255 255
-465.58902 -1507.5354 -3.2516925 255 255 255
2550.0737 5284.2671 10.573946 255 255 255
2043.2485 1844.8408 3.0729017 255 255 255
270.4494 1355.8983 1.8771218 255 255 255
-152.65012 -627.85419 -2.0452011 255 255 255
1300.251 1278.7877 3.0635402 255 255 255
578.41968 294.18439 0.563582 255 255 255
3523.7642 2032.6174 4.0360394 255 255 255
199.8017 676.3573 1.0688428 255 255 255
2592.301 2078.376 6.7084842 255 255 255
612.45886 3622.2617 6.8426127 255 255 255
-915.38684 -2798.0039 -4.8946195 255 255 255
383.70905 1410.3816 2.1997123 255 255 255
-85.908859 -823.25226 -2.9452395 255 255 255
359.54083 530.36792 0.89080584 255 255 255
185.34752 434.23315 0.92519468 255 255 255
-3142.7385 -4460.604 -11.814703 255 255 255
1964.4578 1202.1854 4.6284595 255 255 255
256.3252 193.92705 0.28937513 255 255 255
53.126186 117.07198 0.35112774 255 255 255
-198.86667 -900.99829 -3.0158658 255 255 255
485.40631 796.13898 1.4092969 255 255 255
38.380054 66.446838 0.22037803 255 255 255
-10052.35 -13577.733 -46.494617 255 255 255
1326.5419 1923.9026 4.1927595 255 255 255
424.31985 978.64124 1.5540736 255 255 255
221.00798 1468.6567 2.2077773 255 255 255
981.97839 1397.77 3.0074062 255 255 255
215.79553 1373.8383 2.0653911 255 255 255
139.51775 977.8653 1.505905 255 255 255
193.97452 1160.3815 1.6228532 255 255 255
-606.4696 -1360.5192 -3.0547545 255 255 255
10230.949 15695.007 40.256645 255 255 255
-508.93372 -1054.0743 -2.7935414 255 255 255
1657.0492 617.83527 3.4856822 255 255 255
509.66196 1088.1292 1.9100987 255 255 255
3393.3958 899.86957 5.629014 255 255 255
-517.31134 -815.03247 -2.6252799 255 255 255
-973.07092 -2804.731 -8.3061085 255 255 255
447.63184 909.12073 1.7035682 255 255 255
-621.35431 -1140.5651 -2.1449268 255 255 255
-759.81787 -344.12469 -2.9402993 255 255 255
-723.2467 -564.32666 -1.8710378 255 255 255
133.51309 1065.3129 1.5856192 255 255 255
-306.18445 -3522.7454 -9.5807972 255 255 255
1165.7938 5037.9785 11.683743 255 255 255
-99.145584 -497.69415 -1.7309463 255 255 255
871.92841 1212.8109 1.8941104 255 255 255
215.50966 1312.8231 1.9387044 255 255 255
-198.55524 -613.79382 -2.1402464 255 255 255
143.54709 127.04336 0.15999551 255 255 255
133.02354 1484.6063 2.0937216 255 255 255
103.77467 811.34698 1.1354512 255 255 255
151.97949 729.51093 1.0351396 255 255 255
-1212.3032 -1771.4528 -2.8377192 255 255 255
-105.44338 -218.04297 -1.3281212 255 255 255
586.32678 1022.4432 1.9708965 255 255 255
-222.59108 -1439.0416 -4.1647692 255 255 255
-1218.3208 -4459.0957 -8.6321335 255 255 255
242.0471 1120.4271 1.6894587 255 255 255
412.78375 350.93182 1.0835 255 255 255
-108.64533 -941.55096 -3.2475507 255 255 255
-7272.8506 -10828.784 -26.957409 255 255 255
426.04257 1052.031 3.7301979 255 255 255
209.02332 1067.9093 2.2840006 255 255 255
-230.38084 -482.58685 -1.7910091 255 255 255
-1616.0167 -9896.7148 -15.575391 255 255 255
-191.28418 -552.08972 -1.95353 255 255 255
-5590.2432 -8330.5547 -35.000469 255 255 255
-577.38428 -602.60657 -3.3401146 255 255 255
3854.6787 2307.856 4.0569019 255 255 255
362.10287 491.858 2.2100561 255 255 255
-541.52612 -746.50079 -2.3610466 255 255 255
1050.3546 1949.7561 4.2286839 255 255 255
661.02899 892.35352 1.9660888 255 255 255
1122.8573 729.50128 3.2503471 255 255 255
-1467.4917 -2544.2275 -6.1614819 255 255 255
135.41815 406.66025 0.74700731 255 255 255
524.43652 1638.1757 5.6338468 255 255 255
879.62079 3142.4919 5.4130397 255 255 255
437.12527 142.92502 0.47583914 255 255 255
301.62543 601.74072 1.6123199 255 255 255
207.01167 793.55872 1.2145121 255 255 255
-881.80389 -770.35822 -2.0871799 255 255 255
436.67621 386.10373 1.0686085 255 255 255
2274.1772 3623.8699 8.0127382 255 255 255
-370.60349 -438.64682 -1.5695167 255 255 255
-733.77875 -2707.0408 -5.3511796 255 255 255
-167.60448 -496.48694 -2.0242519 255 255 255
-713.94171 -1459.0133 -3.8768258 255 255 255
-29518.443 -62715.242 -119.13587 255 255 255
467.43225 278.50818 1.3853449 255 255 255
3131.4763 1191.2717 4.6767955 255 255 255
8961.2188 17846.854 40.196381 255 255 255
2442.7742 2244.562 7.131834 255 255 255
1091.4465 4551.7627 11.121395 255 255 255
-893.34393 -821.94208 -2.5841882 255 255 255
354.09641 2499.3035 5.1610303 255 255 255
-703.8609 -2650.407 -5.5219851 255 255 255
1829.9093 9083.6309 18.852037 255 255 255
-181.91579 -1254.9911 -2.7566571 255 255 255
1319.2427 663.57861 2.7872734 255 255 255
-20592.006 -51805.078 -199.61613 255 255 255
-2558.2659 -5116.5269 -9.4539146 255 255 255
8650.4531 85663.359 176.739 255 255 255
-199.20255 -478.28827 -1.9017164 255 255 255
76.100937 125.14328 0.33481067 255 255 255
-719.37067 -1663.4415 -4.4651804 255 255 255
-310.89877 -704.70203 -2.1983435 255 255 255
808.53925 612.9967 1.5548154 255 255 255
4032.22 5003.9746 14.706795 255 255 255
-263.45084 -472.27408 -1.928309 255 255 255
-202.51045 -977.18628 -2.9223542 255 255 255
3345.7751 7490.9814 12.600965 255 255 255
230.58188 208.01663 0.29434791 255 255 255
50.816681 310.83337 0.65247589 255 255 255
165.11276 606.7951 0.92052156 255 255 255
1036.5247 1272.6469 4.9352002 255 255 255
120.91032 39.477783 0.11754725 255 255 255
1524.8079 3392.2507 6.6123242 255 255 255
-1230.8595 -5089.2935 -14.406939 255 255 255
-306.90424 -994.63385 -2.6430674 255 255 255
198.3486 1210.9904 1.7110747 255 255 255
-132.59995 -146.55519 -1.2586443 255 255 255
-578.3913 -2209.8918 -5.4967747 255 255 255
-528.0658 -156.90752 -1.616478 255 255 255
976.34064 2268.2078 5.9485188 255 255 255
-2921.4673 -2532.8633 -4.9996953 255 255 255
-2406.1812 -14082.921 -27.227715 255 255 255
-3633.874 -24552.699 -54.701233 255 255 255
178.54765 1223.713 1.7296567 255 255 255
238.57799 397.72986 0.5982964 255 255 255
-86.452881 -278.02341 -1.6363764 255 255 255
60.912312 128.85568 0.30638757 255 255 255
1164.1853 1078.3667 3.449821 255 255 255
-1271.6718 -2379.9199 -8.196559 255 255 255
107.9837 247.45654 0.48146886 255 255 255
1585.1455 6968.3887 10.129287 255 255 255
-927.70746 -858.19025 -4.1605811 255 255 255
273.48389 337.38559 0.95802879 255 255 255
2038.0066 1842.9611 3.06951 255 255 255
-97.490746 -258.28198 -1.6396478 255 255 255
-302.63281 -865.20953 -3.3439448 255 255 255
4175.7095 2419.6711 4.1475487 255 255 255
254.13971 305.25507 0.89900792 255 255 255
1411.0514 1447.8253 2.5928452 255 255 255
254.45911 773.87628 1.0757625 255 255 255
1661.9497 3197.9407 7.0073524 255 255 255
-367.21002 -1398.6683 -4.0759292 255 255 255
-211.26019 -1022.3337 -3.4584775 255 255 255
1024.5369 1299.0343 1.4388496 255 255 255
1549.9526 2529.927 3.5811069 255 255 255
1465.4797 4809.9946 9.9252644 255 255 255
190.29013 398.91022 0.88959694 255 255 255
-765.39777 -1339.6986 -4.8476005 255 255 255
2423.657 8873.5107 16.447426 255 255 255
334.13745 773.86981 2.0870988 255 255 255
60.161129 560.17548 1.095204 255 255 255
-204.8203 -847.59058 -2.9098449 255 255 255
300.23755 939.65564 1.7994245 255 255 255
3822.3315 2491.1533 3.951226 255 255 255
355.86304 1752.7852 3.3364654 255 255 255
249.55147 1150.4518 2.3854775 255 255 255
848.04718 2960.0234 5.8147454 255 255 255
-307.81586 -792.3313 -2.8127372 255 255 255
-583.20154 -927.2605 -2.468029 255 255 255
1232.8885 1692.8314 4.1017675 255 255 255
-668.86914 -870.96545 -2.0165277 255 255 255
9041.6348 14111.155 32.16946 255 255 255
-289.45197 -776.32416 -2.7904325 255 255 255
-512.60199 -234.37642 -1.601989 255 255 255
128.7095 488.16293 0.95248502 255 255 255
-1925.427 -2494.7671 -7.4718647 255 255 255
-2539.4951 -638.8045 -8.8230801 255 255 255
-2134.2292 -2953.0081 -7.1854587 255 255 255
131.77881 123.86996 0.50109369 255 255 255
-178.89668 -1120.1436 -3.7245395 255 255 255
-7930.1631 -19484.393 -31.397629 255 255 255
682.26233 606.36853 0.79113871 255 255 255
-720.41321 -960.05273 -2.215281 255 255 255
-215.07788 -591.11877 -2.4473686 255 255 255
394.13031 2978.1648 6.3446636 255 255 255
58.345272 64.285042 0.16581087 255 255 255
208.3938 1280.3828 2.1161547 255 255 255
-2433 -1691.8668 -4.7288089 255 255 255
674.29443 2993.3643 7.2046638 255 255 255
7486.3252 22603.576 46.943695 255 255 255
-610.89728 -629.21173 -3.4444854 255 255 255
-203.84692 -306.6741 -1.4445959 255 255 255
391.06781 510.73752 1.3060606 255 255 255
561.81104 572.07446 0.87277126 255 255 255
106.03358 1641.3169 2.8834043 255 255 255
1902.7964 2987.8726 4.4442225 255 255 255
1050.8857 2047.5074 4.9052477 255 255 255
462.11935 1766.9407 2.7446256 255 255 255
-368.21854 -1309.3857 -3.0982542 255 255 255
1657.0186 2766.7637 5.9864717 255 255 255
-293.45432 -817.44409 -3.004668 255 255 255
479.55106 1327.7085 4.2842641 255 255 255
1166.6908 981.95734 1.4198551 255 255 255
866.85724 777.59766 1.0627677 255 255 255
413.3515 757.3468 1.1230938 255 255 255
216.07018 744.33215 1.1131005 255 255 255
2456.688 2697.0049 7.3762603 255 255 255
-1299.8942 -1485.3563 -3.4570982 255 255 255
966.10358 693.25604 2.1549134 255 255 255
101.9777 993.82983 1.4145823 255 255 255
918.93274 1152.2534 1.854347 255 255 255
-522.16913 -7167.6528 -16.421923 255 255 255
-1318.1316 -1864.9153 -3.1949153 255 255 255
-761.54749 -1359.1819 -3.1307483 255 255 255
223.43839 291.60135 0.83742541 255 255 255
2817.333 4277.7021 10.527916 255 255 255
148.04047 199.12502 0.53490466 255 255 255
2852.6318 4341.0796 9.0390711 255 255 255
7672.335 9529.8457 33.024578 255 255 255
517.06024 10510.123 18.908266 255 255 255
85570.047 146206.05 258.32343 255 255 255
1260.0215 1975.3546 4.7809176 255 255 255
-733.79712 -807.95404 -2.353045 255 255 255
-649.37616 -1375.8617 -3.0591681 255 255 255
246.59 406.28857 0.63834882 255 255 255
5787.104 1648.7257 5.5766201 255 255 255
1003.4803 1199.478 2.1918695 255 255 255
301.2756 2218.9355 3.5531528 255 255 255
3131.8645 1191.1266 4.6764941 255 255 255
189.97255 397.98694 0.88757569 255 255 255
-860.85126 -8539.1729 -15.291944 255 255 255
1044.2345 1884.2689 6.3237805 255 255 255
1390.1472 2292.0068 6.2201924 255 255 255
43.97628 122.9388 0.35477796 255 255 255
1745.1823 912.75055 2.0621386 255 255 255
256.91614 1280.2842 2.1600673 255 255 255
401.84906 1144.7355 2.0427358 255 255 255
-138.96255 -681.36853 -2.548609 255 255 255
-520.85333 -1502.0879 -5.1775756 255 255 255
-482.10187 -2120.2715 -6.3162775 255 255 255
