ply
format ascii 1.0
comment PCL generated
element vertex 1106
property float x
property float y
property float z
property uchar red
property uchar green
property uchar blue
element face 0
element camera 0
property float view_px
property float view_py
property float view_pz
property float x_axisx
property float x_axisy
property float x_axisz
property float y_axisx
property float y_axisy
property float y_axisz
property float z_axisx
property float z_axisy
property float z_axisz
property float focal
property float scalex
property float scaley
property float centerx
property float centery
property int viewportx
property int viewporty
property float k1
property float k2
end_header
3136.6675 2152.9927 6.7486367 255 255 255
-462.56519 -245.33502 -1.5314006 255 255 255
823.85272 783.6308 1.9778771 255 255 255
-1223.7206 -1667.4973 -4.1037092 255 255 255
5766.9644 5480.1479 10.877949 255 255 255
2052.4299 1454.47 3.104701 255 255 255
180.77293 113.56851 0.52524918 255 255 255
6907.4331 2399.1143 8.6405268 255 255 255
-4334.23 -6270.9858 -12.303993 255 255 255
1364.4039 813.92438 1.9556723 255 255 255
4166.1831 2334.7949 5.2973547 255 255 255
-613.68805 -736.09161 -2.4650156 255 255 255
2653.3982 958.60004 4.9934707 255 255 255
-15055.998 -14978.389 -34.168587 255 255 255
-2901.1396 -2526.5789 -6.9507656 255 255 255
2899.4258 2244.5732 3.9770732 255 255 255
715.63379 769.44971 1.8120768 255 255 255
6105.8159 2251.1121 7.8742943 255 255 255
-478.35867 -824.90808 -2.5375507 255 255 255
3356.8796 3841.1609 13.022932 255 255 255
2869.6218 2231.1409 3.9510567 255 255 255
-552.77112 -447.62497 -1.8533515 255 255 255
168.34807 226.67361 0.67457265 255 255 255
-1099.3026 -944.82306 -3.4979982 255 255 255
-630.42834 -729.6355 -2.4825463 255 255 255
196.79871 164.88948 0.26663703 255 255 255
8407.1631 3489.0198 8.2696323 255 255 255
1976.2933 970.9668 3.748481 255 255 255
1268.7018 800.48822 2.709861 255 255 255
6190.0869 5788.6538 20.437256 255 255 255
16670.525 3194.687 19.157755 255 255 255
3338.6619 2100.5198 4.5717926 255 255 255
1719.5764 2945.689 6.4840527 255 255 255
809.96179 738.70819 1.9601047 255 255 255
821.96344 580.8407 2.0212348 255 255 255
6242.186 2352.9736 7.8596025 255 255 255
658.5954 764.67896 1.7306777 255 255 255
-798.23267 -682.65759 -3.9389918 255 255 255
3911.8137 1785.8531 5.6702843 255 255 255
177.16084 993.28571 1.4744022 255 255 255
1563.4869 1448.0375 2.2521992 255 255 255
290.88388 791.23566 1.4263562 255 255 255
-952.48492 -1769.1774 -4.0540824 255 255 255
-5454.4302 -3270.123 -9.8110132 255 255 255
772.47583 731.04388 1.9042137 255 255 255
2253.6287 1551.8975 2.8838851 255 255 255
3446.2673 2068.9553 4.7250218 255 255 255
6349.561 2346.9617 8.016798 255 255 255
1451.5582 3143.5779 4.4692593 255 255 255
-1115.5809 -1468.504 -3.835978 255 255 255
-522.00513 -615.7854 -2.3070667 255 255 255
1300.6982 4364.8594 7.7044058 255 255 255
599.38531 851.59863 1.6851553 255 255 255
-1304.223 -1818.5248 -6.269299 255 255 255
466.26562 271.30667 1.3998529 255 255 255
-12172.678 -23104.777 -45.537956 255 255 255
5400.647 5197.6709 16.834385 255 255 255
-621.05048 -758.60315 -2.4630437 255 255 255
5296.1772 2553.2173 6.3309588 255 255 255
-2836.1133 -2350.6318 -8.2921257 255 255 255
-522.98071 -448.69623 -1.6510761 255 255 255
5035.7603 2808.1948 5.7500801 255 255 255
3238.5806 2668.4509 10.820902 255 255 255
1579.5809 1450.3054 2.8800077 255 255 255
629.24432 498.12857 1.666706 255 255 255
91252.289 164455.39 465.38974 255 255 255
-4922.9404 -3938.396 -15.112004 255 255 255
-13292.133 -15182.42 -41.090649 255 255 255
617.13416 1015.8577 1.9424393 255 255 255
2917.7427 3692.3875 9.4691992 255 255 255
3353.1003 2584.3936 4.2550302 255 255 255
-625.93402 -799.47479 -2.6009386 255 255 255
2882.8501 1571.7865 3.6359987 255 255 255
-562.1203 -601.88788 -2.1980789 255 255 255
2046.53 2539.5786 7.6911826 255 255 255
409.89288 244.80722 0.51562673 255 255 255
-522.60425 -476.60281 -1.7670977 255 255 255
863.47461 437.78802 2.2367129 255 255 255
945.76709 1524.6276 2.8399322 255 255 255
-637.23431 -666.85974 -2.5443993 255 255 255
2255.1089 1350.3535 3.8277144 255 255 255
147.84236 228.46259 0.44290656 255 255 255
610.95331 749.8147 1.6637676 255 255 255
373.18802 654.74713 1.0060358 255 255 255
760.63684 778.5033 1.8851285 255 255 255
426.47198 249.87354 1.3038003 255 255 255
2055.8438 1204.6157 2.8355985 255 255 255
8422.9053 3507.626 8.2551689 255 255 255
-1804.0055 -1269.9863 -5.235651 255 255 255
1032.1101 993.63336 2.2570989 255 255 255
-1292.976 -1363.7981 -3.5292058 255 255 255
-376.12405 -135.00562 -1.3938708 255 255 255
3737.7368 1847.5994 11.667952 255 255 255
-1898.2885 -1175.9949 -3.493329 255 255 255
5313.4331 2277.5059 6.779253 255 255 255
751.39587 586.90485 1.8841501 255 255 255
671.9328 768.22864 1.7497628 255 255 255
474.70044 740.36609 1.3093565 255 255 255
-834.46539 -380.60229 -2.1427243 255 255 255
-494.30301 -137.33592 -1.6362828 255 255 255
2157.0781 3180.0015 6.3460517 255 255 255
-722.776 -866.6875 -2.7365799 255 255 255
-17825.062 -8865.5225 -27.535387 255 255 255
-841.97339 -721.86346 -2.7709205 255 255 255
901.93896 812.33679 2.0882761 255 255 255
370.0563 280.17886 1.1511189 255 255 255
1645.5486 1466.0259 2.9548705 255 255 255
5021.0547 2415.7573 6.2065873 255 255 255
-1005.6843 -758.35577 -3.875175 255 255 255
-6180.7866 -8940.0029 -16.932333 255 255 255
-481.70514 -626.57733 -2.0247989 255 255 255
-3045.4836 -2694.2683 -9.1021433 255 255 255
-3724.6472 -1385.2654 -9.7502851 255 255 255
5928.5249 2219.824 7.7102351 255 255 255
-2454267.2 -413033.78 -2730.7971 255 255 255
-574.98981 -820.47375 -2.5389044 255 255 255
669.26459 1202.3921 1.7441019 255 255 255
-4462.6177 -3227.822 -14.05559 255 255 255
668.07294 344.86572 1.1851041 255 255 255
2692.4617 3740.2349 9.7310085 255 255 255
2384.0466 1921.2181 3.6137266 255 255 255
-877.81274 -845.03357 -2.9476495 255 255 255
-1684.5079 -3895.6306 -7.2608337 255 255 255
-1934.16 -1845.3794 -4.8905768 255 255 255
-621.31451 -902.13544 -2.805234 255 255 255
-420.77359 -394.3291 -1.6104742 255 255 255
918.7724 596.33228 2.8344927 255 255 255
-538.85034 -663.74353 -2.1599591 255 255 255
3282.5508 1959.0116 4.6297956 255 255 255
4291.8174 1873.9978 6.0693088 255 255 255
-14895.836 -24267.74 -44.982624 255 255 255
-902.94214 -2865.2954 -5.3584991 255 255 255
4165.3525 2268.9307 5.3702097 255 255 255
-841.75208 -1049.993 -2.9075205 255 255 255
15335.655 10410.354 53.396236 255 255 255
478.83926 434.44058 0.73472548 255 255 255
-930.72668 -914.09015 -3.2753475 255 255 255
874.59564 1108.7094 2.0768337 255 255 255
-2538.4446 -1787.3787 -11.717104 255 255 255
532.8952 1023.6609 1.6994275 255 255 255
788.28479 1502.1305 2.1191494 255 255 255
702.01648 1052.3204 1.8673712 255 255 255
-644.41699 -1069.3557 -2.9059362 255 255 255
925.05426 1154.3773 2.1362526 255 255 255
-1506.0909 -1350.5449 -5.4131117 255 255 255
1093.4595 1217.2242 4.521646 255 255 255
3678.2034 2135.6958 4.9374418 255 255 255
-932.78387 -782.85797 -2.9363761 255 255 255
920.69293 1105.8838 2.1248701 255 255 255
2643.8228 1609.5012 3.8840706 255 255 255
3030.7551 1946.1198 4.3359914 255 255 255
-540.61584 -366.88968 -1.8635429 255 255 255
715.73676 903.66809 1.8381836 255 255 255
3230.9087 1768.7761 4.756249 255 255 255
1870.9897 1651.0298 3.0556285 255 255 255
1075.2054 764.46759 1.4308347 255 255 255
1770.5193 1014.6501 5.1483688 255 255 255
5418.0195 2116.9077 7.2083321 255 255 255
869.65668 1078.8436 2.0670731 255 255 255
260.41388 469.47552 1.1061609 255 255 255
-632.57953 -631.82318 -2.4822772 255 255 255
860.84973 1102.5208 2.0607145 255 255 255
437.11987 518.39612 0.78630656 255 255 255
-18729.852 -7517.833 -27.899948 255 255 255
-2009.8252 -2811.6729 -6.3869796 255 255 255
760.71503 528.60211 1.9151454 255 255 255
-591.26965 -375.87082 -2.0075679 255 255 255
4123.7251 2191.4834 5.4105558 255 255 255
803.90027 806.46606 1.9517175 255 255 255
-363.66138 -703.5827 -2.2303996 255 255 255
-2303.9531 -3933.6575 -5.8323283 255 255 255
5957.2031 11295.544 23.077007 255 255 255
4174.2554 2262.896 5.3854718 255 255 255
-3487.1545 -4130.7964 -9.5950937 255 255 255
-3447.0234 -5230.8682 -10.21068 255 255 255
-3132.0369 -3894.217 -10.309349 255 255 255
-2897.2148 -1700.5696 -7.9145708 255 255 255
2662.562 1823.2941 3.9884639 255 255 255
4958.0571 2018.8003 6.7476487 255 255 255
-1569.0808 -1144.8152 -5.8237176 255 255 255
-3890.4358 -4185.9424 -14.864747 255 255 255
-1840.514 -1427.8591 -6.0152164 255 255 255
2379.2532 1944.7571 3.5981216 255 255 255
3456.0947 2064.3286 4.74121 255 255 255
-618.36194 -707.11951 -2.2840505 255 255 255
2291.2666 1906.719 3.5204582 255 255 255
1797.693 1461.0879 2.7458484 255 255 255
-1079.2021 -859.51575 -2.3394947 255 255 255
-1922.1677 -3067.8738 -9.0283203 255 255 255
2308.1428 1878.6376 3.5511825 255 255 255
-615.51453 -583.09912 -2.4707217 255 255 255
-591.55243 -549.71259 -1.8607469 255 255 255
-917.03271 -1776.2708 -3.8836741 255 255 255
-549.80255 -256.1926 -1.5946347 255 255 255
1023.6906 1697.6383 3.7984662 255 255 255
2891.0762 2099.4106 8.8846636 255 255 255
1613.5769 1505.6038 2.9085248 255 255 255
4153.1499 1842.246 5.9267693 255 255 255
2760.364 1929.1606 8.4717274 255 255 255
-309.93484 -385.41904 -1.6946622 255 255 255
820.1543 986.04822 1.8976222 255 255 255
-23760.625 -35072.75 -63.190975 255 255 255
-431.9382 -449.21536 -1.9725059 255 255 255
1642.2485 2578.936 3.677515 255 255 255
-1037.7478 -844.59808 -4.1925139 255 255 255
-719.44061 -666.77338 -2.5764966 255 255 255
2434.4314 2008.6228 3.6272242 255 255 255
1583.4695 1543.2977 2.8594625 255 255 255
-1891.2017 -1587.795 -6.5977621 255 255 255
904.54596 920.66815 2.0865769 255 255 255
-3065.2153 -5053.3071 -10.092174 255 255 255
-1777.1647 -739.27515 -3.3998666 255 255 255
452.28824 743.73651 1.3839672 255 255 255
953.28583 1044.2371 1.9948062 255 255 255
-306.46213 -399.61002 -1.5430722 255 255 255
2661.0925 1830.7223 3.9820986 255 255 255
731.49146 522.80908 1.8587497 255 255 255
904.1142 1110.9175 2.1084898 255 255 255
200.27054 180.00734 0.66658771 255 255 255
627.53296 765.28979 1.6877859 255 255 255
-359.0249 -172.76953 -1.363592 255 255 255
-6430.8765 -5217.0791 -20.231348 255 255 255
2115.8674 2145.3916 3.2707357 255 255 255
755.15082 540.88434 1.9011225 255 255 255
-4519.3857 -1993.9713 -11.854993 255 255 255
-855.29468 -1157.213 -3.4188576 255 255 255
5604.2012 2154.3508 7.3943424 255 255 255
1071.8186 1135.462 2.3046949 255 255 255
964.90442 519.44934 1.1698694 255 255 255
-2532.9768 -1893.9062 -4.5349574 255 255 255
24704.93 9630.3486 30.864607 255 255 255
-701.27869 -1621.5775 -4.1107125 255 255 255
-703.71582 -771.41455 -2.684727 255 255 255
-401.34668 -663.93689 -2.1870139 255 255 255
1561.9717 1518.8899 2.8386824 255 255 255
3518.0669 1846.1942 5.0486851 255 255 255
-4095.8066 -7488.438 -14.870538 255 255 255
580.4436 871.6651 1.37582 255 255 255
-1745.0459 -1941.7079 -6.3530016 255 255 255
1375.158 1591.0326 3.7455349 255 255 255
5804.6777 4219.9497 8.9532404 255 255 255
-1415.0516 -653.7865 -4.6964755 255 255 255
-358.2374 -422.99725 -1.7321621 255 255 255
1821.9237 1048.8353 3.4434574 255 255 255
-1535.7328 -908.65497 -4.6594472 255 255 255
-1730.3821 -2462.8406 -6.506032 255 255 255
2075.0789 1637.2188 4.978394 255 255 255
-630.48792 -526.37573 -2.9795601 255 255 255
-610.96429 -697.61731 -2.4057107 255 255 255
-5598.8555 -5070.1826 -17.357063 255 255 255
-707.97577 -856.2475 -2.7365394 255 255 255
10330.686 4418.103 18.102438 255 255 255
1573.5892 1525.2294 2.84916 255 255 255
1356.4471 930.96399 1.6058306 255 255 255
666.08795 388.00961 1.1632202 255 255 255
3171.2346 1777.5786 4.6685286 255 255 255
325.74176 270.42184 0.40146756 255 255 255
1632.1122 1839.9791 4.9499779 255 255 255
-2596.7195 -2235.3257 -9.2319069 255 255 255
-1035.8837 -1459.8635 -3.7401536 255 255 255
-442.88257 -563.89581 -2.0896473 255 255 255
2582.3611 1750.3802 2.9515467 255 255 255
8128.6021 2494.4048 10.077125 255 255 255
2219.0942 1008.8243 4.1203289 255 255 255
-427.45468 -553.68054 -2.0948346 255 255 255
-1230.9536 -787.91138 -2.6864071 255 255 255
2276.052 2441.7288 4.7797151 255 255 255
-335.07584 -628.99963 -2.0549316 255 255 255
285.87436 341.09576 0.9950189 255 255 255
-681.49011 -723.57098 -2.7655437 255 255 255
5068.5728 2848.1909 5.7509322 255 255 255
-1521.7341 -1280.1892 -5.0232282 255 255 255
6336.5249 2349.3459 7.9896517 255 255 255
-689.68707 -655.18494 -2.414125 255 255 255
1482.4664 601.16071 3.8929355 255 255 255
-483.14911 -244.44153 -1.5365802 255 255 255
840.64771 1063.6022 2.3627875 255 255 255
-672.05103 -506.65594 -2.450958 255 255 255
3194.0886 1934.5397 4.5483999 255 255 255
-2683.0503 -334.04175 -7.2622585 255 255 255
-733.66791 -1271.5741 -2.9772096 255 255 255
273.80942 620.53455 1.2025623 255 255 255
-19895.811 -10368.487 -23.541067 255 255 255
-3207.9661 -1768.8489 -9.8159275 255 255 255
372.7991 613.82367 1.2675151 255 255 255
765.21118 801.38257 1.8935393 255 255 255
269.44064 536.59088 1.1257166 255 255 255
3070.6077 1749.9811 4.565577 255 255 255
354.32419 488.31076 1.1906475 255 255 255
811.81647 1526.4642 2.1405518 255 255 255
1640.0251 1462.531 2.947767 255 255 255
-720.08759 -858.0401 -2.7970212 255 255 255
4684.3125 3731.4355 8.5413151 255 255 255
2505.7341 1560.8163 3.992625 255 255 255
1651.3812 2177.6074 5.0145998 255 255 255
-17691.885 -6444.0698 -42.915447 255 255 255
-488.397 -430.92233 -1.7060306 255 255 255
-630.14972 -927.05792 -2.671689 255 255 255
-1599.9526 -2041.7472 -3.811651 255 255 255
2746.3203 1297.1467 4.649229 255 255 255
3296.2478 2086.6958 4.5329266 255 255 255
670.89722 501.82175 0.88410956 255 255 255
762.45392 750.55042 1.8858774 255 255 255
1253.126 1488.1376 3.8857493 255 255 255
2768.2302 1586.7977 5.788877 255 255 255
5075.7471 2849.3835 5.7620587 255 255 255
904.47394 1136.5137 2.1149743 255 255 255
2113.9993 1901.4058 3.5874541 255 255 255
266.37747 161.4422 0.47598851 255 255 255
-1629.4017 -2813.6221 -7.5005722 255 255 255
-1288.1523 -2143.5649 -6.2797008 255 255 255
6279.9341 2354.104 7.9076223 255 255 255
-2224.7566 -1296.7999 -9.133069 255 255 255
4690.3018 2605.6372 6.7362156 255 255 255
476.72818 593.42889 1.4205449 255 255 255
408.68021 557.62372 1.3077821 255 255 255
4312.0303 2889.3887 4.9816256 255 255 255
-547.93311 -462.30493 -2.0758138 255 255 255
5187.3608 5426.9062 18.037134 255 255 255
-529.4104 -449.2504 -1.7958165 255 255 255
625.43262 369.22699 1.1429424 255 255 255
1193.3552 1409.6014 2.4462361 255 255 255
5326.1255 2554.3762 6.3731289 255 255 255
3334.2576 1820.8538 4.8307734 255 255 255
1471.2955 631.86407 2.6356547 255 255 255
-29302.881 -21286.705 -100.79793 255 255 255
-5883.8716 -6140.4082 -24.853998 255 255 255
555.44122 624.38287 1.1972537 255 255 255
2873.3933 2301.4211 8.8813782 255 255 255
-795.25238 -1134.7834 -2.9760563 255 255 255
-2608.469 -2575.9336 -6.6137342 255 255 255
-459.84711 -257.29318 -2.2309542 255 255 255
-454.05344 -505.98926 -2.7685254 255 255 255
3437.8499 1848.8214 4.9361525 255 255 255
1956.9073 3164.6553 4.688693 255 255 255
702.66211 401.58041 0.8789587 255 255 255
-3296.7891 -2397.5857 -10.667747 255 255 255
345.13431 545.00659 1.2186234 255 255 255
-651.57343 -673.64215 -2.4265022 255 255 255
-592.56 -528.08301 -1.8578067 255 255 255
-1160.9314 -2206.5784 -4.4132981 255 255 255
-2050.4575 -2060.2466 -8.0472498 255 255 255
3260.0481 1626.1853 4.9705234 255 255 255
6140.1523 2405.1296 7.6212392 255 255 255
326.23422 360.11075 1.453419 255 255 255
2386.7185 1939.0389 3.6106241 255 255 255
831.95734 1087.3169 2.0257072 255 255 255
3042.0896 1888.0879 4.4000301 255 255 255
-682.11572 -549.7467 -2.5283985 255 255 255
448.56436 946.38043 1.5864786 255 255 255
1974.1646 1314.5562 3.0281572 255 255 255
10893.063 3272.7283 11.337453 255 255 255
-1009.884 -1087.1127 -3.9345403 255 255 255
797.25061 583.55695 1.9747835 255 255 255
-317.57516 -196.5657 -1.3630971 255 255 255
629.89954 1244.6488 1.7728738 255 255 255
-372.84134 -642.83075 -2.0799763 255 255 255
901.32178 1131.4045 2.1099308 255 255 255
-2269.7769 -2262.3149 -5.9530168 255 255 255
-1916.6411 -2739.3303 -6.1142044 255 255 255
-2525.8745 -2120.9336 -6.2421122 255 255 255
789.98981 302.90494 2.0518513 255 255 255
1161.4503 1401.3235 2.4122672 255 255 255
906.37512 1134.1187 2.1140823 255 255 255
-2084.9011 -2063.6003 -8.1305628 255 255 255
5215.0503 2596.7075 6.1895347 255 255 255
452.04187 510.08423 1.3502266 255 255 255
1574.8612 1515.2184 2.854182 255 255 255
-567.62836 -867.763 -2.4629714 255 255 255
1129.3914 2945.8762 5.6046162 255 255 255
497.72363 685.82043 1.4139633 255 255 255
-7599.9482 -6644.5435 -25.312899 255 255 255
-576.60498 -673.88983 -3.0428503 255 255 255
-13785.858 -21005.104 -37.884026 255 255 255
-582.95624 -685.5528 -2.3633914 255 255 255
914.25037 731.47388 2.4262242 255 255 255
-581.52362 -317.17661 -2.7099152 255 255 255
-2083.6841 -2065.5598 -7.4004593 255 255 255
2598.6819 5131.0977 7.8863249 255 255 255
308.88031 162.61983 0.63748276 255 255 255
-1561.7341 -1406.9623 -5.1351161 255 255 255
3149.4204 1598.3859 4.8490181 255 255 255
-1037.5812 -1226.7509 -4.0412469 255 255 255
3787.3506 1756.3558 5.5396419 255 255 255
3063.854 1863.5503 4.4498854 255 255 255
2335.1453 1881.4187 3.5801413 255 255 255
3066.928 1723.7296 4.5873737 255 255 255
1060.3252 861.62537 2.3219299 255 255 255
-469.30032 -553.01251 -2.0599337 255 255 255
1032.5671 990.18945 2.2572093 255 255 255
1101.1946 1325.0317 2.3381331 255 255 255
-929.98169 -717.14471 -2.8242421 255 255 255
3041.7363 1942.7836 4.3553052 255 255 255
5234.0669 5129.2329 16.781382 255 255 255
1819.6011 1695.842 3.0887918 255 255 255
-665.59552 -720.08337 -2.4788959 255 255 255
2325.137 3176.4094 5.9297309 255 255 255
61.494984 97.73735 0.3293193 255 255 255
-1273.906 -1672.1848 -4.2339487 255 255 255
1631.8173 2046.6259 4.0600977 255 255 255
1386.6073 975.97943 2.6545203 255 255 255
-883.06311 -1652.1238 -4.2090664 255 255 255
1581.3566 1591.6772 2.846664 255 255 255
-1371.2755 -1413.6935 -4.9585662 255 255 255
-832.23914 -4559.3848 -8.1950216 255 255 255
2434.5623 1995.3162 3.6356332 255 255 255
-21879.264 -33535.492 -62.473637 255 255 255
-1388.6125 -1241.9448 -5.3193202 255 255 255
-378.00488 -591.30292 -2.0349698 255 255 255
-641.02051 -1246.879 -3.1181641 255 255 255
833.85461 804.84131 1.6807095 255 255 255
481.47833 561.49359 1.1453224 255 255 255
573.1424 613.59961 1.5720155 255 255 255
883.7251 1136.588 2.0933342 255 255 255
2367.2822 1976.1183 3.5717902 255 255 255
2974.2266 1697.8376 4.4913077 255 255 255
768.13458 729.14343 1.895483 255 255 255
824.02936 1097.4208 1.7857293 255 255 255
669.37469 1312.5033 2.0964515 255 255 255
-323.85132 -352.42502 -1.7269105 255 255 255
770.08362 583.41345 1.9218466 255 255 255
5026.1479 2733.7229 5.8184252 255 255 255
594.36127 698.95184 1.6239758 255 255 255
-16203.883 -8023.5215 -51.78582 255 255 255
-667.5321 -810.88324 -2.6415241 255 255 255
-835.79669 -941.789 -2.4222074 255 255 255
14936.414 1658.6735 18.607775 255 255 255
488.60098 681.05536 0.74511027 255 255 255
-982.36975 -1015.8678 -3.5223765 255 255 255
801.56891 766.59979 1.9485214 255 255 255
902.41205 1158.0376 2.1140001 255 255 255
-745.50433 -1200.4771 -4.0873599 255 255 255
-360.2525 -696.9043 -2.2139952 255 255 255
2729.1313 1627.855 4.2311516 255 255 255
-712.51526 -813.55688 -2.6270082 255 255 255
551.8559 583.75104 1.531507 255 255 255
2684.3831 1638.0359 4.1647816 255 255 255
6942.7012 8972.5479 16.860064 255 255 255
663.08685 966.99908 1.7984501 255 255 255
1878.4105 1805.2999 3.1227512 255 255 255
1131.7887 1290.8982 2.3762269 255 255 255
-2355.1257 -6078.0137 -10.592541 255 255 255
2195.1663 1902.7197 3.4219 255 255 255
15649.075 17503.881 44.065052 255 255 255
745.1087 569.99152 1.799919 255 255 255
689.25482 911.74408 1.7663209 255 255 255
-1585.762 -1908.27 -5.2953038 255 255 255
-192822.19 -161756.61 -367.36359 255 255 255
866.65125 809.95148 2.0372894 255 255 255
490.513 360.52151 0.71600187 255 255 255
-5364.8662 -6401.0112 -10.600123 255 255 255
1047.2925 847.99121 2.3057537 255 255 255
1293.4314 591.2677 2.281872 255 255 255
2396.01 1925.1278 3.6272118 255 255 255
-1493.8208 -2111.6304 -6.0654731 255 255 255
752.38507 986.90771 1.9310913 255 255 255
-589.62433 -633.68829 -2.2476797 255 255 255
706.63019 528.06946 1.8064492 255 255 255
440.9184 647.76111 1.3824803 255 255 255
2316.3025 894.91162 4.4761314 255 255 255
-1081.8336 -1416.6021 -3.7080386 255 255 255
1281.537 1149.3215 4.106863 255 255 255
1426.1335 1225.2784 4.4924259 255 255 255
4505.6665 2091.1653 6.0165453 255 255 255
780.17682 804.30798 1.9143897 255 255 255
5209.2612 2594.4946 6.1815696 255 255 255
61.381218 97.849236 0.32969549 255 255 255
2304.864 890.45856 4.4598303 255 255 255
2895.3726 1963.2402 4.1675863 255 255 255
51.64373 69.7593 0.12217776 255 255 255
9031.4463 3015.8567 9.7563744 255 255 255
4265.0679 2058.2898 4.9106722 255 255 255
5034.2388 2490.7256 6.1162167 255 255 255
3230.9658 1767.5137 4.7559738 255 255 255
1071.0077 1134.8469 2.3033133 255 255 255
-13465.629 -9865.5977 -41.725216 255 255 255
419.88742 313.71207 0.63814521 255 255 255
-614.46533 -745.26337 -2.4837358 255 255 255
4531.3511 2222.6086 6.1796994 255 255 255
-909.20978 -1021.9602 -3.6213672 255 255 255
217.80066 141.86838 0.6017341 255 255 255
862.6225 437.84235 2.2344725 255 255 255
-555.68079 -744.23761 -2.2753947 255 255 255
-8126.4604 -3055.4778 -19.363304 255 255 255
3209.7651 1994.5348 4.5138721 255 255 255
4324.876 2241.1125 5.5939283 255 255 255
-2930.4727 -2562.6475 -7.0121551 255 255 255
3337.7263 1823.0095 4.8357673 255 255 255
581.67981 371.06723 1.6142581 255 255 255
542.16449 946.5163 1.6621825 255 255 255
1588.8939 2495.3713 4.9859233 255 255 255
4838.7036 2069.8494 6.0839324 255 255 255
-652.04614 -766.69452 -2.3667188 255 255 255
1566.7141 1339.9116 3.1349702 255 255 255
2910.259 2245.8787 3.9907155 255 255 255
-15353.152 -7697.0225 -18.244522 255 255 255
8740.9414 6486.6812 12.24304 255 255 255
675.58844 773.25732 1.7559685 255 255 255
8694.2861 2498.4033 10.826716 255 255 255
-2068.2532 -2011.1388 -5.3791103 255 255 255
6486.9883 2379.5337 8.1203918 255 255 255
15668.864 11660.449 33.428265 255 255 255
1581.6213 1541.1703 2.8569374 255 255 255
572.68573 615.50006 2.0442138 255 255 255
1590.4153 1767.413 2.8408966 255 255 255
4166.8022 2334.9548 5.2989688 255 255 255
-2570.0049 -2736.2678 -6.6815834 255 255 255
-1772.0679 -1202.5812 -3.8605974 255 255 255
-1287.3381 -1082.8563 -2.6045067 255 255 255
2188.8149 932.26672 4.1639433 255 255 255
1619.36 1796.3451 2.8028975 255 255 255
-9272.4414 -3533.7705 -11.271456 255 255 255
-1721.6656 -1321.1975 -5.7884641 255 255 255
717.64056 770.86963 1.8166842 255 255 255
999.34009 1570.5415 3.2344968 255 255 255
424.94601 249.73955 1.3002601 255 255 255
1193.2097 1409.0862 2.4451456 255 255 255
2628.27 1459.2009 4.2661495 255 255 255
-77343.305 -68987.898 -253.07494 255 255 255
1493.9722 2161.9375 3.1017966 255 255 255
-896.80377 -1274.7703 -3.3720086 255 255 255
1711.5226 1856.7662 2.8809471 255 255 255
439.45831 314.5867 0.6003781 255 255 255
893.3761 1287.8047 2.1313879 255 255 255
5920.8218 2217.335 7.6995306 255 255 255
1361.0793 2097.2205 3.7681613 255 255 255
1053.7365 3292.5918 7.2335567 255 255 255
-764.23724 -556.21954 -1.9223251 255 255 255
-15880.543 -15248.912 -50.468159 255 255 255
-3941.5188 -3907.78 -14.949821 255 255 255
167.25423 227.38731 0.41602218 255 255 255
6343.9556 2345.4465 8.0094852 255 255 255
2175.3462 1458.807 3.6295342 255 255 255
819.23047 783.1806 1.9744883 255 255 255
-1916.9713 -1840.0873 -4.8620157 255 255 255
-555.71814 -353.45523 -1.7627732 255 255 255
-1962.2798 -1930.0311 -5.1359434 255 255 255
2368.5747 1977.2013 3.573796 255 255 255
1736.045 949.0603 2.4683337 255 255 255
1873.6655 1042.035 2.6760886 255 255 255
4339.7246 1861.062 5.160418 255 255 255
1184.1172 744.26227 1.8410544 255 255 255
6277.2803 5195.7935 20.057413 255 255 255
923.763 1110.0737 2.1301434 255 255 255
-734.35724 -850.53326 -2.8139696 255 255 255
729.00842 677.25476 1.7368453 255 255 255
-1512.6659 -1087.9263 -3.1294596 255 255 255
-706.24664 -567.17413 -2.424417 255 255 255
-1254.5638 -1630.8384 -4.1773319 255 255 255
1828.1902 725.21863 3.3839686 255 255 255
867.67224 809.67291 2.0362051 255 255 255
579.49475 474.20648 1.4647182 255 255 255
-630.63715 -730.38922 -2.483336 255 255 255
-622.74255 -690.20947 -2.2986455 255 255 255
449.09241 586.95892 1.3808527 255 255 255
2422.5183 983.7663 4.5036411 255 255 255
900.6651 1131.0197 2.1089501 255 255 255
43.505314 79.173103 0.264487 255 255 255
-1935.8997 -2589.21 -5.9755745 255 255 255
-594.89484 -366.02789 -1.9944999 255 255 255
285.65497 341.3942 0.99522853 255 255 255
2908.7483 2236.7268 3.9909954 255 255 255
6021.6821 2364.9468 7.5450535 255 255 255
2477.3804 1951.455 3.7038777 255 255 255
2152.7642 923.91504 4.1036057 255 255 255
2315.9136 884.80713 4.4862509 255 255 255
813.60016 741.95862 1.9661887 255 255 255
2295.988 1851.9885 3.5511634 255 255 255
6125.582 2315.812 7.7734284 255 255 255
750.06793 784.60718 1.8657726 255 255 255
6278.2603 2352.832 7.9051023 255 255 255
-1028.5535 -1378.9783 -3.5020461 255 255 255
2297.4377 1947.8381 3.5120213 255 255 255
3542.0376 2044.9403 4.474463 255 255 255
-8306.0947 -9059.501 -23.725346 255 255 255
2160.0164 920.8786 4.1313195 255 255 255
272.74405 619.45038 1.200809 255 255 255
2548.8127 905.60632 4.9305639 255 255 255
2377.3918 990.50775 4.4114904 255 255 255
-9143.5127 -7429.7646 -27.271912 255 255 255
2831.3259 1681.6418 4.3197336 255 255 255
3293.4519 2898.3298 10.993448 255 255 255
22762.072 19504.471 46.585342 255 255 255
288.04547 468.95361 0.94934171 255 255 255
-574.33575 -817.20679 -2.3819022 255 255 255
3681.5415 2127.9851 4.9452457 255 255 255
567.27686 948.05933 1.6930789 255 255 255
-1221.0774 -2470.4031 -4.9740486 255 255 255
-1170.9093 -1013.4617 -2.7755919 255 255 255
2142.2559 917.19983 4.0998487 255 255 255
-1253.1216 -930.49664 -4.7395873 255 255 255
2379.4309 990.76123 4.410439 255 255 255
3468.2869 1936.725 7.4337387 255 255 255
-952.86322 -1229.2869 -3.7601919 255 255 255
-2039.6948 -1791.1667 -7.0496225 255 255 255
1782.0907 1823.6421 2.4878769 255 255 255
719.60553 446.32083 0.86762267 255 255 255
2312.3762 1882.2643 3.5581234 255 255 255
6138.0732 2403.5857 7.6196265 255 255 255
811.65021 1525.8413 2.1399913 255 255 255
1582.0004 1547.1932 2.8544052 255 255 255
866.95148 589.56042 2.0990818 255 255 255
5070.2104 2850.1582 5.7533908 255 255 255
4174.71 2263.6816 5.3862123 255 255 255
798.50153 1521.7922 2.1330006 255 255 255
3783.4082 1755.2338 5.5317836 255 255 255
-12233.73 -14642.719 -38.775539 255 255 255
759.94202 767.3559 2.0694501 255 255 255
-2688.2063 -4660.9814 -9.0578995 255 255 255
811.89984 795.50702 1.9620787 255 255 255
1592.7866 1231.6866 1.8336433 255 255 255
364.85129 863.45337 2.0556927 255 255 255
2234.8342 1871.7333 3.4747126 255 255 255
868.26398 1088.4575 2.0664344 255 255 255
-1533.0643 -2066.4619 -4.9293709 255 255 255
431.6597 645.44098 1.3691697 255 255 255
4334.3701 2891.7166 5.0000796 255 255 255
-705.98474 -2908.8694 -5.4133625 255 255 255
3292.5615 2085.1089 4.5281377 255 255 255
-11542.342 -20768.895 -40.1045 255 255 255
901.07794 1156.5498 2.110585 255 255 255
3167.3936 1787.1731 4.6592321 255 255 255
-484.66977 -555.75092 -2.0924675 255 255 255
-2252.2041 -3163.3474 -7.8124442 255 255 255
2187.3096 934.66296 4.1623101 255 255 255
832.41681 1087.7771 2.0271602 255 255 255
4686.7295 1962.5369 6.4745846 255 255 255
1541.7424 633.36639 2.7766781 255 255 255
-505.75745 -447.29437 -1.9981468 255 255 255
5798.5464 4213.5425 8.9430857 255 255 255
164.61871 225.50266 0.41123766 255 255 255
6621.4497 5474.5083 9.9217672 255 255 255
966.33649 279.78497 1.3812107 255 255 255
-1485.6454 -2082.9297 -4.7453408 255 255 255
715.99487 903.87885 1.8376212 255 255 255
6333.4351 2726.6831 7.2601871 255 255 255
-1193.6917 -851.34821 -4.1226978 255 255 255
3036.2283 1948.0071 4.3431773 255 255 255
825.60651 785.59161 1.9814857 255 255 255
2089.6372 951.87549 3.9612443 255 255 255
2829.3896 1883.6044 4.1452112 255 255 255
8413.209 3503.79 8.2470884 255 255 255
-1292.0876 -1786.0592 -4.3524485 255 255 255
1640.6188 1462.3705 2.9479196 255 255 255
1577.7844 1521.0796 2.8585389 255 255 255
1822.9243 1049.0682 3.446193 255 255 255
1166.5103 1310.834 2.4143448 255 255 255
3254.7224 1623.8191 4.9617438 255 255 255
1486.7161 2258.7639 3.1087358 255 255 255
-327.00339 -492.47076 -1.9001632 255 255 255
-803.08582 -550.71716 -2.8562262 255 255 255
-115.05053 -69.036873 -1.2923858 255 255 255
933.74359 559.39362 1.1223829 255 255 255
-1224.3888 -1031.4176 -3.8487906 255 255 255
1807.1779 1348.163 2.3673372 255 255 255
-834.04132 -506.73453 -3.6973829 255 255 255
5931.7422 2370.4888 7.4147501 255 255 255
-3080.9216 -2756.0386 -7.5382547 255 255 255
5417.7124 2117.0105 7.2069235 255 255 255
20.270994 74.576569 0.22977626 255 255 255
2151.407 2169.2817 3.1368148 255 255 255
30.264057 80.770828 0.249872 255 255 255
-302.07993 -496.13095 -1.652724 255 255 255
628.8504 895.87262 1.7364736 255 255 255
2385.2124 2381.7039 6.6495266 255 255 255
4797.0176 2363.6318 6.0157871 255 255 255
-550.40906 -522.68457 -1.8724232 255 255 255
2600.4219 1754.0963 3.9663317 255 255 255
3671.4844 2132.4993 4.9286866 255 255 255
-2922.0967 -3424.8647 -12.136626 255 255 255
795.02832 849.23572 1.940249 255 255 255
682.85809 781.3678 1.7671711 255 255 255
4015.2432 2161.9404 5.3123355 255 255 255
-5195.6089 -5166.8389 -12.405349 255 255 255
541.54211 722.14569 1.5404909 255 255 255
-471.82315 -894.61902 -2.5161269 255 255 255
3918.2759 1665.9498 5.854372 255 255 255
-191.88243 -174.80858 -1.4066607 255 255 255
3351.5422 2075.8718 4.3746943 255 255 255
812.51465 616.76257 1.9902794 255 255 255
2742.8755 3086.4336 8.2856226 255 255 255
3340.9358 2101.157 4.5750608 255 255 255
2113.4216 1731.9572 5.0414619 255 255 255
3823.2642 2110.2307 5.1376557 255 255 255
-551.04346 -398.25595 -1.7314492 255 255 255
-38251.012 -9230.0947 -47.736275 255 255 255
-594.78467 -450.73904 -1.8467215 255 255 255
-538.25153 -846.34302 -2.4763186 255 255 255
-1689.3677 -1662.9314 -6.1009383 255 255 255
1223.4152 1227.5596 3.5743017 255 255 255
16673.713 3198.6155 19.163158 255 255 255
2331.1553 987.79431 4.3287101 255 255 255
773.5094 790.22162 1.9048712 255 255 255
-777.11078 -980.0462 -2.3796694 255 255 255
826.19727 581.58392 2.0272098 255 255 255
279.79343 583.88 1.1763569 255 255 255
5136.0439 2059.0068 6.9300551 255 255 255
6356.2744 2356.1003 8.0159826 255 255 255
2899.8438 2244.8562 3.9776571 255 255 255
-640.83124 -625.19141 -2.4005589 255 255 255
-2869.4702 -2985.5312 -7.3387046 255 255 255
-2761.9568 -4665.0684 -9.2124548 255 255 255
811.52612 740.78485 1.9642274 255 255 255
-4289.4653 -9175.1221 -15.917125 255 255 255
427.98587 676.36194 1.4092439 255 255 255
4529.856 1925.2563 6.311955 255 255 255
-1779.4818 -739.90277 -3.4032533 255 255 255
626.83093 491.35028 0.91457778 255 255 255
1996.2466 1283.2236 3.0028372 255 255 255
-823.36267 -640.91699 -2.5392401 255 255 255
208.32196 201.84387 0.74828678 255 255 255
1031.4319 992.89233 2.2565124 255 255 255
-2005.7462 -2024.0122 -5.2844758 255 255 255
3204.8623 1998.4082 4.5045304 255 255 255
-7533.4897 -8834.5508 -18.816372 255 255 255
1172.5605 903.4527 1.3053569 255 255 255
6575.1777 3548.0459 6.4696741 255 255 255
5037.0439 2809.8325 5.7518864 255 255 255
981.74371 428.49518 2.5529835 255 255 255
-17572.518 -15081.874 -56.534962 255 255 255
-11684.346 -8239.4111 -34.742886 255 255 255
950.34003 788.49939 1.5255833 255 255 255
-785.7561 -920.26996 -2.8153493 255 255 255
3917.2659 2202.0996 5.1529651 255 255 255
434.6972 646.73291 1.3735453 255 255 255
-1622.162 -2318.7102 -6.5636954 255 255 255
3523.6865 1848.1191 5.0578246 255 255 255
1204.8422 545.08997 2.8814156 255 255 255
1206.0114 777.03876 2.0409489 255 255 255
-4112.1587 -2643.6907 -12.752452 255 255 255
778.10315 791.75043 1.9114388 255 255 255
-467.24707 -687.66418 -2.3258638 255 255 255
-5793.2275 -6346.8481 -17.774521 255 255 255
-4157.8638 -1454.9156 -10.655945 255 255 255
1938.3995 1119.0037 2.8430035 255 255 255
3445.6741 2005.8096 4.7841125 255 255 255
6272.9971 2721.3013 7.1841254 255 255 255
336.25723 259.45679 1.0713171 255 255 255
6283.9912 2719.4822 7.195725 255 255 255
-766.1629 -831.36023 -2.721175 255 255 255
195.94711 260.08926 0.88104099 255 255 255
-12734.599 -12009.035 -40.377514 255 255 255
17806.756 3335.2881 20.014227 255 255 255
533.4458 1024.4691 1.7009547 255 255 255
-2802.8643 -2958.8762 -6.6889033 255 255 255
869.95349 1079.4249 2.0683694 255 255 255
571.03748 546.78412 1.5576962 255 255 255
-771.86591 -854.10333 -2.7549696 255 255 255
430.54071 395.72144 1.0355784 255 255 255
60.445751 92.740067 0.31771716 255 255 255
275.28464 811.32098 1.3636589 255 255 255
-3094.0024 -2680.4009 -10.225387 255 255 255
-1635.9023 -2241.2256 -5.4994125 255 255 255
3456.6208 2064.021 4.7405949 255 255 255
4280.5215 2038.6595 5.8035145 255 255 255
687.87402 771.90381 1.7730224 255 255 255
4148.7666 1840.6475 5.9200182 255 255 255
877.71625 748.02673 2.1625483 255 255 255
4166.2534 2269.6699 5.3727398 255 255 255
774.86499 434.1521 1.0779146 255 255 255
-781.4176 -651.45776 -2.724714 255 255 255
-523.25275 -752.6778 -2.2562399 255 255 255
3073.7676 1752.5801 4.5706806 255 255 255
-6565.3091 -3952.2583 -10.624687 255 255 255
-834.98499 -814.13287 -2.7622113 255 255 255
1411.0074 1680.6371 1.8216723 255 255 255
2838.5713 2354.2896 3.8677266 255 255 255
783.78882 1133.6305 1.9785832 255 255 255
2383.1633 998.87537 2.5803301 255 255 255
1348.8512 1084.6464 3.2885888 255 255 255
395.24802 152.34097 0.44993675 255 255 255
2664.1204 1824.0466 3.9898136 255 255 255
6864.1001 3751.4414 15.414925 255 255 255
835.91144 465.33575 1.0227209 255 255 255
-829.19226 -798.58124 -3.1402662 255 255 255
-440.61984 -340.17065 -1.6174641 255 255 255
-886.80914 -883.00531 -3.4363449 255 255 255
3171.7644 1642.4463 4.8225565 255 255 255
-890.03143 -899.01196 -3.1832292 255 255 255
1060.2831 862.03162 2.3225012 255 255 255
534.39404 384.41852 0.63967472 255 255 255
729.7467 1403.9119 2.3340669 255 255 255
3904.7061 1782.3285 5.6581082 255 255 255
875.79053 1135.3793 2.0811369 255 255 255
-766.37225 -204.85976 -2.6589828 255 255 255
-5737.1313 -4705.5049 -8.1399555 255 255 255
2853.6931 2363.5723 3.8855071 255 255 255
875.7605 1109.7147 2.0791111 255 255 255
-17123.383 -17343.275 -61.953915 255 255 255
2283.3452 2779.7615 7.2217064 255 255 255
1128.2272 1035.5128 2.3843596 255 255 255
1085.2513 1054.4368 2.3229897 255 255 255
1555.2174 1814.3297 4.5361533 255 255 255
-3066.2639 -5054.1426 -10.095447 255 255 255
-615.8147 -521.25623 -2.2330499 255 255 255
769.42712 566.64832 1.9235977 255 255 255
-1547.1892 -493.72314 -5.0120683 255 255 255
-709.74152 -881.58813 -2.7628772 255 255 255
2381.1748 1945.6674 3.6008911 255 255 255
-730.77692 -339.22144 -1.9559951 255 255 255
931.52155 820.61914 2.1330903 255 255 255
671.33435 767.60669 1.7484269 255 255 255
16608.564 17616.791 59.080555 255 255 255
-905.07312 -1479.91 -3.5251367 255 255 255
2280.2583 1846.0005 3.5362651 255 255 255
2411.6079 1992.7366 3.5945351 255 255 255
832.51196 1102.3719 2.0291913 255 255 255
-1882.9484 -2635.4907 -5.9380803 255 255 255
30679.504 38025.645 73.663742 255 255 255
-2125.1218 -3023.2302 -6.6243868 255 255 255
-1668.9492 -1977.2933 -4.3875446 255 255 255
2731.9785 1628.4677 4.2354393 255 255 255
2395.3977 1684.3466 3.7536683 255 255 255
-878.65045 -867.58893 -3.1825223 255 255 255
-2050.8645 -1691.3402 -7.0368571 255 255 255
2359.4946 2255.8179 3.4686925 255 255 255
2172.3889 1663.1798 3.5032101 255 255 255
-596.79376 -740.68848 -2.3236501 255 255 255
371.5939 429.48523 0.91896814 255 255 255
2599.7893 1612.8134 4.0739307 255 255 255
14329.276 3181.5007 15.828087 255 255 255
-607.54602 -870.45282 -2.6791847 255 255 255
-871.65094 -1427.066 -3.8446789 255 255 255
990.59552 543.23462 1.1350853 255 255 255
2695.7996 1283.7731 4.5851669 255 255 255
2686.6411 3800.8894 7.92731 255 255 255
2428.5242 983.46448 4.5305929 255 255 255
2319.4756 1829.0255 3.5887704 255 255 255
-2476.9827 -2301.2424 -8.7988958 255 255 255
2931.0474 2263.675 3.9974008 255 255 255
836.19409 1080.3824 2.0274427 255 255 255
-462.20203 -822.49982 -2.6622241 255 255 255
-9940.5625 -9139.2891 -32.946377 255 255 255
2125.6836 1332.9281 2.801019 255 255 255
-729.50586 -972.9538 -2.6145885 255 255 255
2373.6038 1944.0873 3.5933745 255 255 255
2196.0298 1902.3887 3.4221575 255 255 255
-219.23047 -620.31439 -1.9695275 255 255 255
-894.73077 -1325.7938 -3.7318377 255 255 255
-611.4953 -673.6521 -2.3634269 255 255 255
-684.07745 -716.21759 -2.5509086 255 255 255
-523.38031 -540.83636 -2.1851423 255 255 255
-779.74078 -987.52185 -3.0220747 255 255 255
2405.7646 2472.2458 6.2684975 255 255 255
2896.1318 1955.0188 4.172009 255 255 255
-1520.4276 -1238.5798 -4.7343926 255 255 255
699.99213 907.84705 1.8213744 255 255 255
2385.8171 1984.7928 3.5889826 255 255 255
666.18274 746.57776 1.7356337 255 255 255
-864.3645 -823.34607 -2.7917218 255 255 255
1370.3755 1927.973 2.7042325 255 255 255
271.89804 380.22012 0.70853215 255 255 255
1093.6373 890.72723 1.2110404 255 255 255
827.31177 901.9375 1.915833 255 255 255
-284.04398 -285.4552 -1.4635074 255 255 255
91994.57 121598.65 233.81551 255 255 255
1080.8337 2629.4944 4.092062 255 255 255
991.52673 1294.2134 2.8595762 255 255 255
2161.8599 1741.5725 3.3281226 255 255 255
-730.42004 -1072.7677 -3.1402886 255 255 255
-4299.8398 -3569.9895 -14.541176 255 255 255
3449.333 1675.3555 5.1742706 255 255 255
697.40009 395.19962 0.87590194 255 255 255
-783.59723 -829.74902 -3.5747106 255 255 255
-81045.547 -91908.008 -290.95856 255 255 255
481.21637 418.28339 0.875085 255 255 255
808.93097 1528.8481 2.1410506 255 255 255
1658.4108 1679.2904 2.0376301 255 255 255
-5567.0044 -4817.0176 -9.5501051 255 255 255
3453.2324 2073.0286 4.7348261 255 255 255
1204.0879 1394.8905 2.8739297 255 255 255
977.93188 677.32513 2.3946049 255 255 255
2384.6873 1937.7269 3.6082737 255 255 255
-1092.139 -1498.9181 -3.8960457 255 255 255
3566.6318 1704.4536 5.3028111 255 255 255
900.71552 1578.8547 2.2220106 255 255 255
-1469.9912 -2194.2632 -4.6470137 255 255 255
578.40955 1162.157 2.1334388 255 255 255
444.1015 571.16779 1.2698994 255 255 255
-1118.8518 -755.07465 -2.5411417 255 255 255
693.3291 904.42999 1.8113903 255 255 255
1051.2487 1016.3825 2.2814388 255 255 255
929.01239 1277.1178 2.2140372 255 255 255
390.10641 514.44305 1.2584912 255 255 255
2109.1704 1436.575 3.5541501 255 255 255
-804.47955 -997.9787 -2.3442297 255 255 255
-6497.8853 -4303.9209 -12.061535 255 255 255
5083.9644 2468.7473 6.5468178 255 255 255
820.43945 1068.8951 2.0067158 255 255 255
1510.8304 1935.5183 3.8089328 255 255 255
-3449.1042 -2523.0933 -12.30021 255 255 255
833.55273 1061.0156 2.0235753 255 255 255
2275.0137 2255.3679 3.3937333 255 255 255
993.92383 2704.9207 3.1934497 255 255 255
-2275.0166 -2944.5889 -7.4480686 255 255 255
5331.29 2510.0315 8.5765295 255 255 255
553.27197 585.17059 1.5351785 255 255 255
43.535007 78.676201 0.26340306 255 255 255
2255.6243 1350.8016 3.8299949 255 255 255
912.39319 1509.498 2.9528804 255 255 255
-414.60153 -357.96866 -1.5819992 255 255 255
3350.9124 2583.0754 4.2523856 255 255 255
-1864.2266 -2699.6533 -6.551764 255 255 255
1124.3743 1290.2756 2.3645127 255 255 255
2359.186 1843.0365 3.6248751 255 255 255
-3932.8533 -1063.0359 -10.284427 255 255 255
-19099.035 -15054.87 -36.265007 255 255 255
-14490.86 -14769.915 -37.328651 255 255 255
2974.552 1698.1279 4.4920235 255 255 255
-748.49213 -587.72791 -2.8178704 255 255 255
2353.155 2036.3729 8.0169287 255 255 255
2393.6873 1923.5553 3.6246586 255 255 255
1715.1515 1360.8286 3.0754664 255 255 255
-637.49219 -1013.951 -3.329458 255 255 255
610.17603 748.69159 1.6598492 255 255 255
-780.25354 -795.87555 -2.7060537 255 255 255
-2625.1453 -4330.1172 -8.6643791 255 255 255
-2289.8811 -3327.5647 -7.0424175 255 255 255
1712.7216 1690.4911 2.9026744 255 255 255
787.91339 1501.1897 2.1178801 255 255 255
3488.1265 2190.4814 10.434469 255 255 255
-11015.385 -7509.3428 -16.154772 255 255 255
1612.1245 1503.6978 2.9040451 255 255 255
-665.78363 -1088.7103 -2.7192359 255 255 255
3065.4973 1722.2313 4.5857077 255 255 255
-2113.8906 -5395.6631 -9.4072685 255 255 255
-3550.5195 -2401.0044 -11.023939 255 255 255
1101.558 1325.3301 2.3392029 255 255 255
-1442.7546 -1092.2344 -4.3549261 255 255 255
6312.2563 7950.8662 19.672121 255 255 255
-1469.312 -1113.4862 -4.4213357 255 255 255
786.9455 1135.0187 1.9837037 255 255 255
3557.9355 2084.1382 4.6138496 255 255 255
794.02728 857.80829 1.9390756 255 255 255
581.84088 927.21936 1.6966302 255 255 255
6530.1245 3528.6675 6.4432082 255 255 255
-1728.4071 -3493.0769 -6.613986 255 255 255
-164628.17 -136781.17 -596.80237 255 255 255
-941.56439 -948.07965 -3.3876328 255 255 255
749.86377 553.89606 1.8881929 255 255 255
-1023.2068 -1352.37 -3.614373 255 255 255
6136.4067 3419.3315 7.1593924 255 255 255
145612.12 126177.86 461.45294 255 255 255
-930.85132 -1195.0317 -3.7442162 255 255 255
1384.5978 2010.1211 3.1683249 255 255 255
3204.2349 1992.0594 4.5063362 255 255 255
169.06436 225.74641 0.67502284 255 255 255
3679.2009 2137.1494 4.9411416 255 255 255
1031.0536 992.77216 2.2559819 255 255 255
-476.23236 -948.96906 -2.6532044 255 255 255
304.22446 240.23395 0.99318409 255 255 255
6482.2129 2378.7104 8.1120272 255 255 255
-2876.2979 -2102.4734 -6.4944658 255 255 255
1976.2865 971.24683 3.7486501 255 255 255
2980.3467 2562.1111 4.3679271 255 255 255
866.49469 238.36659 1.1335251 255 255 255
36.764942 81.993195 0.26273075 255 255 255
1271.4991 1491.8706 3.5781746 255 255 255
208.56276 202.18422 0.7499131 255 255 255
4163.1978 2332.2502 5.2932878 255 255 255
-3401.5535 -1337.9459 -4.7778578 255 255 255
-635.31519 -877.81366 -2.8827469 255 255 255
-2046.7173 -5144.9492 -8.5727882 255 255 255
-2313.2014 -3432.8193 -7.1444426 255 255 255
-1284.6129 -968.47498 -4.1392822 255 255 255
6138.2422 2402.9478 7.6196947 255 255 255
4760.8457 2181.74 6.2182512 255 255 255
8432.3916 3512.2979 8.2680626 255 255 255
-655.00543 -803.29871 -2.6150317 255 255 255
-1067.4509 -1420.0464 -3.6204574 255 255 255
1135.8807 1150.519 3.0557094 255 255 255
1296.5314 1497.5251 3.208391 255 255 255
431.23828 645.745 1.3689929 255 255 255
-1545.5546 -1506.3065 -4.0451546 255 255 255
2910.6807 2237.7454 3.9931514 255 255 255
771.82983 566.08563 1.9291551 255 255 255
717.73175 905.6814 1.842245 255 255 255
570.23303 545.92554 1.5555625 255 255 255
1103.3702 1918.991 4.0015569 255 255 255
4453.1274 2336.2793 5.6303754 255 255 255
3162.0334 1784.801 4.6497836 255 255 255
449.48224 222.40764 0.53219473 255 255 255
798.28101 608.01874 1.9702958 255 255 255
6304.0542 4892.5391 9.2997694 255 255 255
239.78415 487.5954 0.88222384 255 255 255
5924.5332 2366.6304 7.4054871 255 255 255
963.56891 1117.5298 2.3154702 255 255 255
7716.9346 5271.7358 25.928286 255 255 255
3339.8882 1825.463 4.8384013 255 255 255
-308.50443 -595.18585 -1.9259887 255 255 255
4281.5806 1871.4794 6.0583291 255 255 255
686.39587 790.72467 1.7742425 255 255 255
8.6979046 71.2015 0.2152126 255 255 255
-2679.2532 -2521.3274 -6.7858882 255 255 255
686.78992 771.13324 1.7709516 255 255 255
3910.8462 2197.8015 5.1427202 255 255 255
14348.382 15853.604 39.180832 255 255 255
4449.2749 2272.4561 5.7058525 255 255 255
4019.4202 2163.7249 5.3178043 255 255 255
-1775.5896 -1205.2639 -3.867399 255 255 255
9714.2598 5576.811 14.127677 255 255 255
-2300.2849 -2037.2782 -7.97154 255 255 255
1550.2623 1863.6697 2.8521354 255 255 255
892.45953 1286.4901 2.1288111 255 255 255
2827.6765 1883.3329 4.1448603 255 255 255
-593.99402 -542.1853 -1.8563359 255 255 255
2667.1997 1834.0397 3.9930341 255 255 255
6336.6177 2348.6157 7.9899049 255 255 255
2381.4829 1935.4778 3.603471 255 255 255
-990.48743 -1119.9296 -3.6916492 255 255 255
2910.8269 2244.9553 3.9909499 255 255 255
3201.5024 1995.5837 4.4999275 255 255 255
155.76247 222.52989 0.58888024 255 255 255
771.86804 824.14581 1.9017626 255 255 255
-543.84656 -595.21631 -2.2203145 255 255 255
-1725.3026 -1803.9839 -6.1003118 255 255 255
52.669937 39.890301 0.05924828 255 255 255
-1713.0634 -864.33209 -3.48296 255 255 255
2876.4421 2234.4294 3.9597542 255 255 255
6835.0552 5424.5 13.111933 255 255 255
-565.52319 -524.95923 -2.6793654 255 255 255
5026.4355 2416.3276 6.2115855 255 255 255
-2910.3872 -2547.1431 -6.9740629 255 255 255
736.54156 777.68286 1.8443154 255 255 255
-2228.0918 -1947.2521 -7.5994005 255 255 255
2895.834 2243.5889 3.9749036 255 255 255
2981.4329 1555.476 4.6662335 255 255 255
-681.97559 -832.71179 -2.7219548 255 255 255
1032.5939 1357.6942 3.1966405 255 255 255
2596.9912 1752.8973 3.9622703 255 255 255
370.77637 280.48312 1.1531647 255 255 255
4740.3926 2410.9573 5.8803205 255 255 255
-585.76257 -371.94012 -2.0096295 255 255 255
861.76984 535.04041 2.1215518 255 255 255
3296.8887 2087.9082 4.534945 255 255 255
1872.6886 1611.2797 2.9129565 255 255 255
3528.8984 2100.5183 5.2733746 255 255 255
2295.5999 1945.5647 3.5091624 255 255 255
4181.6846 2268.5562 5.3982406 255 255 255
188.32147 253.15791 0.85470116 255 255 255
-274.63312 -414.06512 -1.7217472 255 255 255
11089.242 3306.0251 11.49942 255 255 255
3822.8381 2110.1475 5.13974 255 255 255
689.00836 768.00775 1.7723871 255 255 255
315.22995 592.48883 0.96379966 255 255 255
10780.446 1146.9983 13.294801 255 255 255
2297.5984 1852.89 3.5536349 255 255 255
1844.5938 2572.6731 3.7722642 255 255 255
5043.8765 2494.6934 6.1294804 255 255 255
674.54926 772.27063 1.7529405 255 255 255
2899.1257 2251.0962 3.9689405 255 255 255
811.19659 794.74255 1.9605798 255 255 255
626.03296 892.54437 1.7293262 255 255 255
1581.2299 1546.5823 2.8529818 255 255 255
2669.3831 1826.5532 3.9965689 255 255 255
2548.8127 905.60632 4.9305639 255 255 255
6239.5195 2349.8887 7.8570695 255 255 255
5974.0688 2375.47 7.4663978 255 255 255
8891.9062 17268.564 33.224529 255 255 255
593.90741 635.00946 1.4117806 255 255 255
1541.405 1866.2698 2.7529299 255 255 255
2384.7219 1053.7585 4.3478684 255 255 255
275.56485 804.09607 1.358241 255 255 255
-3157.3096 -2803.0657 -7.6788607 255 255 255
3521.8711 1846.5361 5.0545316 255 255 255
2049.8933 1287.933 3.5821083 255 255 255
-901.18414 -618.3847 -2.0026135 255 255 255
2297.1992 883.84601 4.4424505 255 255 255
6018.3525 2369.1208 7.530962 255 255 255
720.0603 522.07367 1.8385098 255 255 255
2332.2793 1059.3739 4.2449994 255 255 255
1202.9869 544.57635 2.876837 255 255 255
43.306877 78.503593 0.26262012 255 255 255
237.40262 239.93863 0.62252659 255 255 255
3258.905 1626.2568 4.9706473 255 255 255
975.92053 574.82617 2.3314791 255 255 255
1572.269 1521.2598 2.8501325 255 255 255
2884.2378 1528.255 4.5557909 255 255 255
-2038.7458 -4557.6973 -12.953547 255 255 255
-685.56561 -2269.2109 -4.7768025 255 255 255
545.32556 795.79395 1.5970231 255 255 255
-362.58603 -320.86279 -1.4519948 255 255 255
3348.4768 2106.6206 4.585885 255 255 255
2969.8 1694.6305 4.4834199 255 255 255
6274.2593 2696.2615 7.2316275 255 255 255
-500.56195 -501.62183 -2.0498042 255 255 255
-4153.7871 -4736.2568 -10.575675 255 255 255
-1876.5256 -1846.8751 -4.9145832 255 255 255
4161.9336 2266.0669 5.3667927 255 255 255
168.39555 227.30829 0.67306763 255 255 255
16709.439 3209.2437 19.184546 255 255 255
-2079.1514 -2865.5408 -6.4553075 255 255 255
614.84204 812.47552 1.5547483 255 255 255
832.22009 1087.6272 2.0270872 255 255 255
6273.374 2351.4722 7.8988895 255 255 255
128.74524 275.30408 0.42224893 255 255 255
16720.625 3207.657 19.211515 255 255 255
15911.908 20840.549 45.801277 255 255 255
1710.3036 1855.8828 2.8795516 255 255 255
-351.58969 -710.74457 -2.7121382 255 255 255
3880.3596 1345.0911 4.2637801 255 255 255
4528.2314 1927.2173 6.3118391 255 255 255
-4439.2993 -6132.0386 -11.437296 255 255 255
977.97931 541.57318 2.3257301 255 255 255
811.5755 616.43811 1.9881507 255 255 255
5304.7588 2555.3235 6.3417578 255 255 255
