ply
format ascii 1.0
comment PCL generated
element vertex 1080
property float x
property float y
property float z
property uchar red
property uchar green
property uchar blue
element face 0
element camera 0
property float view_px
property float view_py
property float view_pz
property float x_axisx
property float x_axisy
property float x_axisz
property float y_axisx
property float y_axisy
property float y_axisz
property float z_axisx
property float z_axisy
property float z_axisz
property float focal
property float scalex
property float scaley
property float centerx
property float centery
property int viewportx
property int viewporty
property float k1
property float k2
end_header
1030.3997 136.42525 0.27601376 255 255 255
341.37311 459.09882 -0.10893928 255 255 255
300.68759 268.16653 -0.23369302 255 255 255
728.50098 597.09674 1.9490929 255 255 255
286.03281 168.83141 -0.28155267 255 255 255
323.42542 367.76044 0.14588103 255 255 255
162.4184 214.63884 -0.24033582 255 255 255
-249.22194 -239.21346 -1.6033525 255 255 255
752.56531 937.78735 0.56601459 255 255 255
433.20145 419.46655 -0.13375841 255 255 255
672.53784 244.73059 -0.10328966 255 255 255
536.70691 526.04187 0.77092731 255 255 255
217.80896 202.11168 -0.081537522 255 255 255
784.53259 369.92126 0.1486358 255 255 255
265.298 255.69746 -0.16373986 255 255 255
112.96702 155.95642 -0.043662589 255 255 255
639.50757 252.48355 -0.14661784 255 255 255
668.41748 245.68701 -0.10928728 255 255 255
-160.89493 -143.05002 -1.588546 255 255 255
399.75171 152.97801 0.46716878 255 255 255
183.21315 175.92622 0.027544841 255 255 255
720.70355 471.87024 0.0092926892 255 255 255
216.8636 282.51944 -0.28341585 255 255 255
857.22681 218.74089 0.0069274572 255 255 255
361.55692 187.92256 -0.18250391 255 255 255
152.86191 292.39575 -0.22402218 255 255 255
267.97617 509.88068 -0.16721247 255 255 255
-580.01233 -797.68536 -2.479094 255 255 255
207.39238 357.72388 -0.22300169 255 255 255
186.67767 195.26575 -0.10931987 255 255 255
1259.6598 110.81099 0.41425833 255 255 255
233.92975 266.4068 -0.21951188 255 255 255
286.86057 246.07747 -0.11773876 255 255 255
639.84698 238.55869 -0.2311158 255 255 255
242.85382 187.55531 0.037284054 255 255 255
75.401443 156.66084 -0.089557633 255 255 255
201.41797 181.62607 0.090826772 255 255 255
163.72577 123.20321 0.63254595 255 255 255
-265.21667 -185.37213 -1.3107563 255 255 255
-86.302849 -87.114792 -1.2028825 255 255 255
342.51025 477.11243 -0.052932579 255 255 255
277.47052 122.00148 0.33680996 255 255 255
420.75757 263.61722 -0.39395905 255 255 255
1608.0591 76.731491 0.82568645 255 255 255
679.78595 243.61028 -0.10406557 255 255 255
-890.09442 -1065.2642 -5.5696149 255 255 255
-181.71944 -124.02328 -1.2942177 255 255 255
350.49997 224.55951 0.01786219 255 255 255
244.87433 307.3598 0.020441705 255 255 255
-305.31628 -155.96117 -1.5458634 255 255 255
200.18245 174.33165 -0.057840914 255 255 255
-5022.7944 -1125.2892 -6.969933 255 255 255
605.30188 539.755 0.45640734 255 255 255
233.99994 173.50313 0.087820932 255 255 255
-91.522171 177.96144 -0.7136746 255 255 255
-60.722832 80.35614 -0.61821121 255 255 255
1340.199 632.27771 0.6799652 255 255 255
-1818.0428 -1221.2704 -6.8443928 255 255 255
646.47717 564.23236 -0.1311152 255 255 255
-828.79218 -754.81116 -3.6644928 255 255 255
458.99768 451.63815 0.26699805 255 255 255
842.5675 160.09065 0.1502194 255 255 255
-96.14949 200.24249 -0.55794227 255 255 255
176.82133 262.67972 -0.15310466 255 255 255
239.35754 125.56248 -0.1673045 255 255 255
264.85822 416.53595 -0.33789539 255 255 255
-134.66835 -233.36879 -1.4144144 255 255 255
470.10269 384.47787 0.36107951 255 255 255
-81.480644 128.32797 -0.75120354 255 255 255
246.63875 198.19823 -0.13514519 255 255 255
307.37454 417.68439 -0.2767565 255 255 255
863.33386 172.42094 0.50079453 255 255 255
-390.92532 -239.43106 -1.6191753 255 255 255
208.80971 190.12274 0.0095054815 255 255 255
852.72827 471.8895 0.091874525 255 255 255
643.7179 251.61728 -0.14942345 255 255 255
-500.4801 -581.81879 -2.997314 255 255 255
-551.09125 -297.65866 -2.316762 255 255 255
575.13696 525.56934 -0.26219377 255 255 255
-773.97528 -381.80649 -3.5439787 255 255 255
366.55133 232.78462 -0.036797591 255 255 255
-66.579979 -73.690056 -1.1263163 255 255 255
-250.74721 -131.63495 -1.2811371 255 255 255
235.43977 301.51065 -0.22768524 255 255 255
790.21741 138.91089 0.79660785 255 255 255
294.5029 308.19144 -0.15098751 255 255 255
-410.80322 -247.8382 -2.6284807 255 255 255
166.87798 200.36668 -0.083324932 255 255 255
287.51871 313.29886 0.40098155 255 255 255
-201.78244 -42.20858 -1.1665373 255 255 255
-1037.9589 -1121.3141 -3.8442526 255 255 255
183.59233 265.32861 -0.23037359 255 255 255
95.591698 6.9723182 0.046158873 255 255 255
162.88506 213.14015 -0.15843789 255 255 255
165.02203 10.350986 0.081351139 255 255 255
-1303.2123 -861.80493 -4.5180674 255 255 255
234.41075 265.45026 -0.21543677 255 255 255
285.65759 305.03372 0.83343226 255 255 255
185.04114 234.56842 -0.182927 255 255 255
501.54767 291.91663 -0.31807008 255 255 255
-508.7005 -145.68173 -1.4902383 255 255 255
-1081.3568 -1194.2336 -3.1177981 255 255 255
280.03644 153.60503 -0.21255174 255 255 255
1653.5051 67.645264 0.90421677 255 255 255
83.475929 5.4919152 0.044048999 255 255 255
295.0043 122.33801 -0.12361708 255 255 255
1269.9915 120.6082 0.43037167 255 255 255
276.98251 456.49756 1.9023538 255 255 255
1089.9871 170.7917 0.41664729 255 255 255
-245.73549 -195.44991 -1.3002723 255 255 255
702.27319 299.6738 0.40627265 255 255 255
664.34479 433.50552 -0.080124646 255 255 255
-525.52313 -493.22116 -2.653574 255 255 255
-500.6308 -292.35629 -2.2743969 255 255 255
87.289917 117.44176 0.4581418 255 255 255
-1417.9954 -2119.5593 -6.9796109 255 255 255
176.66682 262.32901 -0.15415509 255 255 255
983.24445 -21.822741 0.68518513 255 255 255
-43.487232 172.20697 -0.63296735 255 255 255
180.43169 357.05734 -0.28159955 255 255 255
-68.805092 -94.500778 -1.2616608 255 255 255
255.93288 255.26665 -0.12539141 255 255 255
-1673.5645 -690.91156 -3.3100002 255 255 255
196.88844 325.51169 -0.19766597 255 255 255
802.54437 958.92456 2.2501121 255 255 255
-296.72208 -30.71427 -1.2545503 255 255 255
326.228 292.58109 0.47970861 255 255 255
269.99023 292.51761 -0.11738346 255 255 255
216.3362 183.89627 0.034944929 255 255 255
-428.59903 -268.58856 -1.8583236 255 255 255
278.22305 264.422 -0.13685532 255 255 255
-819.6369 -552.08624 -2.8395023 255 255 255
-710.86493 -801.10706 -2.9318969 255 255 255
1516.2423 94.852493 0.72140861 255 255 255
-494.48135 -282.96292 -2.2393286 255 255 255
221.7467 150.91257 0.14682586 255 255 255
4638.6128 6396.8589 42.569164 255 255 255
193.06812 215.61964 -0.06054537 255 255 255
411.13412 278.29306 -0.24361333 255 255 255
131.59499 270.75089 -0.166701 255 255 255
322.7666 329.49759 -0.097857662 255 255 255
232.50563 380.38477 -0.33640677 255 255 255
198.08549 178.94164 -0.040138453 255 255 255
426.19116 245.10133 -0.35651031 255 255 255
-239.70602 -224.31673 -1.3243783 255 255 255
655.9455 251.32806 -0.15780777 255 255 255
-490.56525 -395.77618 -2.621402 255 255 255
210.31595 233.74867 -0.14407976 255 255 255
410.59293 278.70764 -0.2452105 255 255 255
246.34065 289.82394 -0.22342457 255 255 255
291.86029 268.14346 0.42815003 255 255 255
234.30467 174.12898 0.085981376 255 255 255
252.70129 381.89673 -0.29803041 255 255 255
780.24768 211.76053 -0.043530464 255 255 255
457.19989 550.91833 0.0044392762 255 255 255
8809.498 10377.44 30.755571 255 255 255
917.79889 315.68521 0.84818375 255 255 255
-4694.5894 -2010.3823 -6.8039656 255 255 255
-325.49326 -18.509678 -1.3683065 255 255 255
449.80594 352.37128 -0.26478812 255 255 255
178.06813 192.52191 -0.022900892 255 255 255
411.72937 223.15364 -0.2360706 255 255 255
176.84789 205.51118 -0.24516958 255 255 255
898.07483 211.85243 0.040934522 255 255 255
-219.08894 -229.3902 -1.9173143 255 255 255
-46.372425 71.517967 -0.63446909 255 255 255
5175.8369 3870.4038 19.281559 255 255 255
-678.67017 -764.65961 -2.3889465 255 255 255
-307.06531 -109.30437 -1.7768489 255 255 255
246.91597 262.09637 -0.07380531 255 255 255
660.24042 319.84064 0.053867329 255 255 255
192.6051 313.30093 -0.025852377 255 255 255
1071.136 166.73387 0.38938782 255 255 255
764.85321 1069.15 2.7863228 255 255 255
583.00275 458.32263 -0.29993045 255 255 255
-77.084435 -51.755745 -1.2357607 255 255 255
-114549.16 -104108.51 -447.12183 255 255 255
628.02191 451.0239 -0.2714898 255 255 255
-182.97261 -247.18744 -1.4398696 255 255 255
-91.585098 -131.89925 -1.2119861 255 255 255
-234.1006 -226.30171 -1.7604831 255 255 255
216.32027 206.58553 -0.039877053 255 255 255
213.61781 274.2774 0.021693312 255 255 255
908.6463 1304.5559 6.0543833 255 255 255
217.30112 186.80209 0.027200667 255 255 255
240.43118 189.43945 0.044499196 255 255 255
1582.6322 127.76208 0.64285249 255 255 255
-353.01605 -272.45209 -1.7334443 255 255 255
200.0343 358.2851 -0.12575546 255 255 255
193.32104 141.21577 0.13838615 255 255 255
7134.4971 6017.0371 31.41947 255 255 255
871.40668 220.02246 -0.027290238 255 255 255
928.46857 1106.2994 3.3727477 255 255 255
160.04662 177.30147 -0.17215843 255 255 255
-1037.3148 15.495984 -2.1058862 255 255 255
157.8678 194.8093 -0.12988421 255 255 255
257.92935 140.77139 -0.18503101 255 255 255
-973.44318 -1132.6312 -3.7432778 255 255 255
153.11369 277.65237 -0.27864081 255 255 255
-1933.3634 -875.19092 -3.3326423 255 255 255
-111.96556 -96.209114 -1.1478226 255 255 255
-163.04941 -214.21046 -1.9800862 255 255 255
62.402828 71.305298 -0.071805097 255 255 255
-646.02771 -247.36325 -2.399802 255 255 255
1268.9919 690.22223 0.72174418 255 255 255
-356.22351 -269.5593 -1.4112443 255 255 255
279.93298 206.34422 -0.34930784 255 255 255
249.36252 210.86047 -0.016993994 255 255 255
152.56224 224.99522 -0.17696497 255 255 255
-645.97296 -507.04041 -2.8725135 255 255 255
-1201.2335 -1705.99 -7.8162136 255 255 255
-841.48529 -1145.8148 -4.6344957 255 255 255
-1897.0619 -1145.9512 -7.9876785 255 255 255
-8242.6719 -5824.5835 -25.890404 255 255 255
-401.77237 -465.33664 -2.3479548 255 255 255
241.12465 409.17831 -0.35363561 255 255 255
1591.3842 88.077858 0.64565206 255 255 255
-393.36896 -195.31453 -1.9751478 255 255 255
185.52214 193.3752 -0.017847329 255 255 255
568.94226 234.64049 -0.13801788 255 255 255
-204.62329 -127.20881 -1.2284067 255 255 255
196.52904 233.5031 -0.1176998 255 255 255
69.801468 141.9814 -0.14277115 255 255 255
218.05956 149.50195 0.14713478 255 255 255
271.58936 251.7914 -0.14623594 255 255 255
168.56981 230.24245 -0.18650945 255 255 255
247.36404 262.64331 0.95880789 255 255 255
207.77454 191.81555 -0.10534283 255 255 255
221.21043 246.34775 -0.1118055 255 255 255
654.36914 249.15118 -0.13422629 255 255 255
644.98663 251.18782 -0.14782105 255 255 255
-263.8378 -257.19858 -1.4318336 255 255 255
-1168.1075 -532.52026 -2.9897704 255 255 255
172.6132 343.78564 -0.071580596 255 255 255
-174.87483 200.82838 -0.60148424 255 255 255
-175.70874 198.16524 -0.61468917 255 255 255
932.8324 129.63945 0.85411352 255 255 255
-280.68744 -165.14488 -1.5984197 255 255 255
738.43439 291.43582 -0.27600959 255 255 255
271.69312 250.9061 -0.14362866 255 255 255
235.92892 159.10742 0.13804644 255 255 255
867.54712 1167.1725 0.91053051 255 255 255
-679.08643 -706.10266 -2.8997116 255 255 255
219.34613 189.44907 0.022574272 255 255 255
-82.845078 129.94757 -0.76086736 255 255 255
-481.25208 -811.93433 -2.3296375 255 255 255
-155.22459 -118.78005 -1.2007142 255 255 255
168.34457 308.71191 -0.30359355 255 255 255
174.90433 245.04332 -0.064534038 255 255 255
2047.63 -71.004128 2.5538621 255 255 255
-2102.407 -2410.3267 -9.5104361 255 255 255
-311.52383 -323.2688 -1.6286362 255 255 255
254.76836 273.90689 -0.18139604 255 255 255
190.88853 149.09738 0.11145876 255 255 255
1660.1696 50.713654 1.1944585 255 255 255
812.24365 232.87456 -0.10412588 255 255 255
-354.72873 -267.14841 -1.4502245 255 255 255
229.55702 181.33467 0.057612669 255 255 255
298.15564 263.45355 -0.075098328 255 255 255
197.7807 192.99759 -0.0078542493 255 255 255
221.3873 195.59763 0.0056934562 255 255 255
288.18652 151.82677 -0.23956187 255 255 255
895.98138 209.38261 0.071425624 255 255 255
204.99504 182.17401 0.029558338 255 255 255
291.31192 387.15302 -0.36848876 255 255 255
-252.10072 -267.901 -1.4883829 255 255 255
133.411 186.53014 -0.14559005 255 255 255
1589.3606 88.562279 0.64298332 255 255 255
211.53287 175.8669 0.055072747 255 255 255
341.4686 213.15199 -0.30796042 255 255 255
1217.0262 151.66707 0.37932518 255 255 255
-266.05835 -254.44206 -1.4871578 255 255 255
190.26988 178.44142 0.027257802 255 255 255
224.47021 174.1377 0.074721374 255 255 255
198.55173 146.83942 0.12855767 255 255 255
-610.89362 -511.10678 -2.6511307 255 255 255
281.81552 431.39066 -0.29713178 255 255 255
170.35817 204.86223 -0.096217945 255 255 255
171.78368 241.99246 -0.16830587 255 255 255
269.06549 249.64041 -0.1381342 255 255 255
305.53226 292.8428 -0.080105625 255 255 255
485.02667 867.03381 3.050966 255 255 255
219.69687 130.22145 -0.1458521 255 255 255
1026.174 239.14192 0.052008942 255 255 255
-416.55142 -253.1785 -2.0882893 255 255 255
2055.4951 343.47037 1.8718623 255 255 255
270.85165 291.84204 -0.1850182 255 255 255
185.27998 129.41179 -0.02391112 255 255 255
686.31525 253.51079 -0.18978921 255 255 255
301.45349 494.16132 -0.077858031 255 255 255
190.86879 179.90836 0.023725545 255 255 255
188.3367 162.14401 -0.014977168 255 255 255
-68.139427 141.77731 -0.81375015 255 255 255
-137.79337 197.88786 -0.61083299 255 255 255
-406.42712 -248.15024 -1.5566416 255 255 255
1592.045 63.935165 1.1029443 255 255 255
107.79198 230.52846 -0.15373105 255 255 255
244.88867 299.72031 -0.066451713 255 255 255
150.68629 239.94669 -0.16807811 255 255 255
714.82092 632.39819 0.56326723 255 255 255
300.86517 315.19638 -0.089984059 255 255 255
-3975.9746 -2091.6226 -20.46472 255 255 255
344.33661 257.44452 -0.16160762 255 255 255
681.10571 796.02527 0.34621933 255 255 255
980.86206 213.69699 -0.017894713 255 255 255
-1525.5994 -386.26144 -2.7345364 255 255 255
283.32941 488.40469 -0.19292617 255 255 255
197.23911 203.44803 0.56456041 255 255 255
500.55124 241.00859 -0.36032289 255 255 255
375.02716 359.75479 -0.082188413 255 255 255
-2785.3054 -1488.9165 -8.087286 255 255 255
88.99395 148.96423 -0.0078504356 255 255 255
-1190.3892 -952.1283 -4.2752523 255 255 255
712.84064 739.09192 1.702131 255 255 255
287.51248 363.15952 0.028991597 255 255 255
201.9012 160.45845 0.0909051 255 255 255
-274.1416 -445.2973 -2.2225766 255 255 255
324.07086 225.60069 -0.032991994 255 255 255
172.43883 205.35397 -0.10753529 255 255 255
-217.36406 -134.3595 -1.5259618 255 255 255
136.49074 280.61829 -0.28996694 255 255 255
-2552.5273 -1819.7396 -4.1138058 255 255 255
308.78513 281.76385 0.33828813 255 255 255
971.14819 195.5755 0.14557131 255 255 255
276.4808 94.5047 -0.10079339 255 255 255
483.83624 113.17049 0.60966349 255 255 255
192.90733 183.05199 0.016702434 255 255 255
283.75159 375.19952 -0.19073336 255 255 255
-2253.2141 -1327.5056 -7.2094502 255 255 255
182.62709 184.8671 -0.077317253 255 255 255
-5465.5015 -788.87848 -7.259275 255 255 255
2016.079 -62.335457 2.4648654 255 255 255
1133.2816 606.78772 0.45109016 255 255 255
192.61591 233.86476 -0.0228472 255 255 255
99.647682 172.10909 -0.1973929 255 255 255
222.04439 181.65845 0.066641882 255 255 255
284.29407 252.84747 -0.14940773 255 255 255
203.07411 194.56461 -0.054648217 255 255 255
101.34873 206.43456 -0.1016328 255 255 255
1671.4373 6.8437014 1.861382 255 255 255
2073.2285 -75.651527 2.5897894 255 255 255
254.0573 265.41293 0.070821218 255 255 255
1007.6781 146.14043 0.11444473 255 255 255
295.17557 117.32349 -0.11020029 255 255 255
268.24637 332.61514 -0.36233985 255 255 255
496.50583 383.19382 -0.16644903 255 255 255
1097.8142 805.31885 0.28694451 255 255 255
566.58667 242.23601 -0.023033949 255 255 255
624.4375 513.10022 0.0068652565 255 255 255
184.36406 265.63409 -0.23133624 255 255 255
157.89113 204.03764 -0.13359718 255 255 255
281.95773 244.53238 -0.11182089 255 255 255
176.79924 207.95375 -0.026609836 255 255 255
278.24469 186.28426 0.45013112 255 255 255
1488.5332 2202.188 11.629885 255 255 255
367.32904 199.91672 -0.25184533 255 255 255
-124.53886 -140.60759 -1.4789129 255 255 255
150.73137 359.14703 -0.16843899 255 255 255
1976.3936 -53.885502 2.3836126 255 255 255
228.41072 322.02734 -0.1092719 255 255 255
671.14948 245.59079 -0.10625611 255 255 255
908.75568 198.82979 0.18179062 255 255 255
-146.66812 -66.269829 -1.191605 255 255 255
528.18024 816.63318 0.35405394 255 255 255
2105.4604 -23.336082 1.5592866 255 255 255
2743.7925 663.39349 2.259831 255 255 255
-476.0387 -147.7646 -2.6510618 255 255 255
-138.13271 230.11005 -0.70521784 255 255 255
204.20903 352.73874 -0.27878952 255 255 255
-616.29114 -1428.7826 -3.3017457 255 255 255
166.04329 187.40237 -0.020136233 255 255 255
297.49991 253.09514 -0.1443624 255 255 255
-98.861977 -53.872124 -1.1257118 255 255 255
272.15298 172.97267 0.20018569 255 255 255
407.91748 288.86227 0.054937188 255 255 255
1180.5109 158.82648 0.33880803 255 255 255
-2074.7583 -113.18666 -3.196914 255 255 255
2217.2849 -111.78596 2.9751792 255 255 255
-431.96808 -268.8519 -1.6316841 255 255 255
1822.0958 1279.7804 1.4372294 255 255 255
190.53001 198.0318 -0.0083244219 255 255 255
-4694.7075 -875.95459 -5.0383596 255 255 255
-323.19952 -278.55002 -2.4875567 255 255 255
399.64948 455.44846 2.2024064 255 255 255
1024.7838 563.82935 0.31364146 255 255 255
333.80621 214.45926 0.0012215517 255 255 255
210.81706 170.46288 0.036058422 255 255 255
916.1546 232.28651 -0.10803792 255 255 255
410.66614 222.11739 -0.23032697 255 255 255
165.80219 172.45207 -0.17254226 255 255 255
739.43781 480.33618 0.14254674 255 255 255
408.56863 277.18503 -0.23687419 255 255 255
-148.18735 226.37125 -0.70105624 255 255 255
83.444771 194.71297 -0.082981616 255 255 255
368.39655 600.29163 0.13587418 255 255 255
-355.4176 -69.746712 -1.3808013 255 255 255
562.25366 249.56786 -0.07896477 255 255 255
243.90652 408.63391 -0.34211981 255 255 255
327.03915 348.26468 0.38853854 255 255 255
771.56549 234.70186 -0.080040663 255 255 255
150.2471 278.96442 -0.28338158 255 255 255
282.8172 353.26849 -0.2707687 255 255 255
-343.42398 -84.17511 -1.409327 255 255 255
-100.50954 -87.986687 -1.3297436 255 255 255
160.07983 185.44455 -0.12772477 255 255 255
87.824539 138.96181 -0.056989342 255 255 255
230.84833 317.20154 -0.15424967 255 255 255
326.26147 226.8213 0.41275278 255 255 255
857.07471 243.16344 -0.14374852 255 255 255
628.93335 646.24622 3.6071825 255 255 255
185.30327 223.94708 -0.13384169 255 255 255
-568.25543 -399.39447 -2.6164818 255 255 255
746.85681 581.92432 -0.053355679 255 255 255
1106.8408 175.08337 0.25827691 255 255 255
-493.1232 -254.18193 -2.500525 255 255 255
-339.60129 -253.52164 -1.5865709 255 255 255
365.19757 196.78508 -0.31376356 255 255 255
-414.39944 -208.2435 -1.5984931 255 255 255
2047.7817 -71.229881 2.5554075 255 255 255
316.53204 124.56683 -0.13669319 255 255 255
-121.97698 204.35307 -0.65474385 255 255 255
223.10201 176.22562 0.065969691 255 255 255
-617.927 -605.62628 -2.3957264 255 255 255
88.782768 83.265564 -0.036435109 255 255 255
257.33014 309.93045 -0.18528959 255 255 255
-5801.2036 -4522.2183 -22.154772 255 255 255
1084.3942 1010.9797 4.1921473 255 255 255
259.6861 251.94386 -0.1383252 255 255 255
342.87256 350.65515 0.18568046 255 255 255
1672.2157 7.2485828 1.8619221 255 255 255
256.78909 432.04221 -0.30921549 255 255 255
-226.21631 -53.319443 -1.3042707 255 255 255
185.33345 193.37724 -0.018009095 255 255 255
672.3515 534.08899 -0.14280131 255 255 255
184.41754 265.69583 -0.23146002 255 255 255
241.05804 300.77408 -0.15133063 255 255 255
311.57266 81.432442 -0.031263053 255 255 255
205.16385 133.56085 0.17845543 255 255 255
225.42731 346.42642 -0.40688464 255 255 255
-422.39227 -232.92706 -1.4918637 255 255 255
876.60498 216.02263 0.01588805 255 255 255
2066.47 -74.547241 2.5800347 255 255 255
-351.1235 -174.86099 -1.3685371 255 255 255
-101.91439 -127.59172 -1.6326675 255 255 255
-313.35446 -324.89435 -1.6318958 255 255 255
268.70535 249.84334 -0.13888827 255 255 255
17484.354 -2780.4424 21.157801 255 255 255
-5766.2227 -1860.2178 -6.4756389 255 255 255
384.73923 173.80968 -0.22304966 255 255 255
727.95312 785.1087 0.67124623 255 255 255
-258.88373 -97.435455 -1.3087137 255 255 255
770.2392 551.90283 -0.057326056 255 255 255
822.17804 216.20665 0.073216379 255 255 255
506.35736 285.49759 -0.32116786 255 255 255
270.7518 249.32915 -0.13659067 255 255 255
-977.81183 -1645.0568 -4.8510766 255 255 255
241.28514 273.57635 -0.24517287 255 255 255
-725.56671 -681.59283 -2.2378109 255 255 255
175.00262 149.42929 0.089841917 255 255 255
1218.8894 151.35651 0.38149315 255 255 255
-782.62616 -1106.9294 -5.2101493 255 255 255
653.0918 249.32347 -0.13563186 255 255 255
-180.74538 -210.58798 -1.556937 255 255 255
277.73804 366.5838 -0.25558019 255 255 255
203.52451 221.28819 -0.11356052 255 255 255
-170.55313 -173.08447 -1.739521 255 255 255
-695.97046 -879.4873 -2.8036435 255 255 255
300.94751 124.69594 0.36327928 255 255 255
-458.23502 -377.14792 -2.437397 255 255 255
1057.6396 403.97302 6.3925343 255 255 255
-755.20392 -992.22705 -2.8792987 255 255 255
497.38474 753.31848 2.4686794 255 255 255
1765.955 47.740276 1.0084831 255 255 255
181.70331 210.30139 -0.03759899 255 255 255
207.92046 229.07675 -0.10010815 255 255 255
337.9743 129.392 -0.11290889 255 255 255
375.29633 206.4017 -0.28288159 255 255 255
117.66386 129.24889 0.69893909 255 255 255
305.74466 251.22107 0.26449969 255 255 255
-899.14441 -915.10022 -3.718966 255 255 255
219.04401 242.47664 -0.10916005 255 255 255
-354.79337 -253.48048 -1.7554674 255 255 255
2134.21 -85.116539 2.6652873 255 255 255
-710.11035 -644.56268 -2.8819282 255 255 255
-30.449465 47.218586 -0.89735359 255 255 255
197.84201 321.84061 -0.38943455 255 255 255
282.59579 118.11835 0.36120424 255 255 255
-4978.3848 -5709.2568 -17.648489 255 255 255
205.53436 158.86781 0.099798918 255 255 255
749.97754 562.37799 -0.14174841 255 255 255
211.37701 175.83961 0.055060748 255 255 255
2126.6997 -84.552429 2.6605105 255 255 255
-363.92673 -208.13521 -1.4137818 255 255 255
581.85992 232.8548 -0.22756375 255 255 255
534.60657 235.31581 -0.16896008 255 255 255
-316.20288 -77.711632 -1.3419316 255 255 255
241.68176 190.87256 0.041593812 255 255 255
-89.543411 -17.994785 -1.4105502 255 255 255
174.68695 201.01312 -0.11484427 255 255 255
251.84229 261.32074 -0.12222786 255 255 255
-1004.7142 -656.10687 -4.8199859 255 255 255
176.45961 155.8252 0.074804604 255 255 255
2186.5762 1093.4325 1.7823911 255 255 255
605.83557 313.80536 0.44137821 255 255 255
3333.8247 2266.4421 2.7933841 255 255 255
410.33633 278.69128 -0.24532536 255 255 255
600.37885 577.98505 0.13774133 255 255 255
812.06555 233.00615 -0.10400527 255 255 255
-745.7569 -213.57556 -1.8467747 255 255 255
-887.79089 -338.78772 -2.5269859 255 255 255
771.72473 234.75757 -0.079794399 255 255 255
162.27666 202.61382 -0.14560443 255 255 255
350.41006 224.47145 0.017577279 255 255 255
216.50432 183.87949 0.035508838 255 255 255
145.55301 196.57784 -0.0064837574 255 255 255
-137.3887 174.01591 -0.71729261 255 255 255
220.07849 189.7668 0.022938028 255 255 255
215.11156 197.8631 -0.10347097 255 255 255
424.97675 444.55267 -0.13186736 255 255 255
240.53659 189.58574 0.044697575 255 255 255
-350.40399 -338.79321 -1.7858516 255 255 255
452.79077 239.84874 -0.24330015 255 255 255
759.57916 499.04953 -0.040661138 255 255 255
359.93625 570.70422 0.1211622 255 255 255
410.7117 278.36676 -0.24395254 255 255 255
378.42804 139.6297 -0.16709344 255 255 255
540.06622 206.83734 -0.17477946 255 255 255
-208.42178 -244.49527 -1.6872659 255 255 255
642.36621 228.87863 -0.27302948 255 255 255
643.70526 251.30539 -0.14892057 255 255 255
-20.518814 70.688614 -0.26063427 255 255 255
256.99237 223.74722 0.061744772 255 255 255
419.23672 162.56488 -0.14538026 255 255 255
-5843.4644 -2954.6062 -8.3137207 255 255 255
207.13306 264.19016 -0.10395699 255 255 255
668.97345 523.15094 -0.015239836 255 255 255
-105.83549 -46.378086 -1.4043545 255 255 255
289.70129 103.72606 0.4364318 255 255 255
-148.36958 7.6070518 -1.1815207 255 255 255
-2253.9062 -1315.8772 -9.1520529 255 255 255
170.98834 196.45914 -0.14260732 255 255 255
298.98798 103.67046 -0.067491896 255 255 255
246.17107 245.8147 0.058700785 255 255 255
891.28174 816.0274 0.22323276 255 255 255
177.90091 192.34526 -0.023083415 255 255 255
1999.0966 1441.7341 6.6376491 255 255 255
176.06227 197.7932 -0.022864543 255 255 255
-472.9588 -479.69696 -3.0375772 255 255 255
-554.04962 -304.41727 -2.5268214 255 255 255
378.93814 200.339 0.25728202 255 255 255
153.03586 277.58325 -0.27853882 255 255 255
704.38684 450.8801 0.36859003 255 255 255
-523.32129 -476.19437 -1.8972288 255 255 255
-285.58981 -99.606667 -1.336346 255 255 255
53475.949 27720.949 194.64348 255 255 255
203.49377 234.08768 0.058491278 255 255 255
186.88493 204.69235 -0.08881288 255 255 255
281.08911 246.92661 -0.12341143 255 255 255
176.61996 219.03528 -0.14846653 255 255 255
1462.2327 115.21651 0.51587665 255 255 255
-199.56131 -20.504951 -1.6336817 255 255 255
-1081.1346 -810.44208 -3.2070847 255 255 255
-81.630966 122.2942 -0.75440186 255 255 255
496.56598 459.13306 -0.1566162 255 255 255
679.37885 243.72475 -0.10460091 255 255 255
1125.897 558.40149 0.43306062 255 255 255
1653.5862 67.578568 0.90480578 255 255 255
384.34293 210.31674 -0.2176137 255 255 255
-444.83508 -673.01392 -3.5209851 255 255 255
379.23633 395.65863 0.10711986 255 255 255
135.54666 273.5321 -0.27489161 255 255 255
979.07013 285.96057 0.018898917 255 255 255
-633.63776 -435.49075 -2.2858133 255 255 255
-82.624466 164.82979 -0.65803498 255 255 255
966.66913 733.99799 0.21924219 255 255 255
216.2001 168.51561 0.084142573 255 255 255
1900.1719 30.89373 0.99165422 255 255 255
578.89648 168.72131 0.28263259 255 255 255
333.98694 284.26364 -0.014738679 255 255 255
248.9007 398.00769 -0.32873648 255 255 255
-1656.7404 -310.45508 -5.7179251 255 255 255
-2855.9353 -2385.6509 -6.3114753 255 255 255
731.73212 857.89093 0.84112805 255 255 255
231.03281 187.82808 -0.072355233 255 255 255
289.60953 281.91306 -0.08770632 255 255 255
197.00539 162.47592 -0.033322096 255 255 255
-4651.9233 -8393.1875 -21.421194 255 255 255
656.2298 251.35341 -0.15762739 255 255 255
-1537.3884 -2360.5767 -6.5843749 255 255 255
-3564.4407 -2468.8677 -15.602904 255 255 255
234.32143 174.03857 0.085996777 255 255 255
105.69002 217.80402 -0.12665902 255 255 255
154.38286 127.03528 -0.022946937 255 255 255
388.10184 359.19803 0.21590669 255 255 255
-59.851994 103.08536 -0.87466347 255 255 255
2265.2527 3145.5015 11.866432 255 255 255
-869.32129 105.18314 -2.1203206 255 255 255
624.92932 753.90649 0.24846831 255 255 255
237.36966 240.09422 -0.2224579 255 255 255
-425.39359 -338.79117 -1.9582775 255 255 255
657.57843 253.3842 -0.16599119 255 255 255
2484.7747 -156.28909 3.2782052 255 255 255
-248.32205 -114.49887 -1.3500732 255 255 255
226.90611 175.14102 0.074261054 255 255 255
191.04134 282.94925 -0.21127155 255 255 255
1043.0919 261.02454 -0.0025610463 255 255 255
193.26782 202.86583 -0.085232668 255 255 255
270.30991 259.59155 -0.18317585 255 255 255
379.28448 342.43512 0.33716524 255 255 255
-279.19962 -97.77356 -1.3299359 255 255 255
190.9187 220.55797 -0.060772222 255 255 255
242.61737 154.2877 -0.18874888 255 255 255
1453.9536 100.33003 0.65896827 255 255 255
250.02466 166.41733 0.2751168 255 255 255
-988.67883 -586.56628 -3.7323327 255 255 255
4458.707 5989.2422 13.905053 255 255 255
715.03308 -6.9293289 0.55144137 255 255 255
-1933.2042 -1930.7402 -8.6123276 255 255 255
-91.60981 -54.90546 -1.1206683 255 255 255
-64.588028 63.123371 -0.91949469 255 255 255
-5653.7114 -3145.9036 -18.238314 255 255 255
1577.6744 89.798431 0.64480841 255 255 255
-323.8111 -343.84085 -1.7361357 255 255 255
650.03558 250.3228 -0.13134941 255 255 255
269.3158 255.539 -0.21919875 255 255 255
-89.859451 -30.318937 -1.1627536 255 255 255
1389.275 1220.7959 5.8806429 255 255 255
-6956.9971 -5551.334 -31.086649 255 255 255
-293.66199 -208.31795 -1.6776652 255 255 255
241.68608 217.25407 -0.17571317 255 255 255
188.09094 149.74573 0.10510356 255 255 255
-795.7016 -391.22797 -1.9461772 255 255 255
-879.4964 -956.61768 -3.6183736 255 255 255
408.47089 277.19162 -0.23695733 255 255 255
24642.898 21693.762 99.106224 255 255 255
-1856.3687 80.210793 -3.287385 255 255 255
184.00766 265.32642 -0.23007101 255 255 255
-2038.5739 -1931.5436 -4.8342447 255 255 255
234.53662 265.50757 -0.21543679 255 255 255
232.34752 111.16567 0.30116352 255 255 255
-149.7995 -161.61314 -1.372449 255 255 255
206.63318 153.37538 0.11923365 255 255 255
227.46948 220.18109 -0.16483337 255 255 255
3524.0461 4120.5117 6.4313917 255 255 255
-276.00186 -222.04166 -1.4985397 255 255 255
248.19519 354.86926 -0.30141714 255 255 255
499.45798 580.90369 0.39085582 255 255 255
1615.1943 1576.3317 6.6731782 255 255 255
-6829.0669 -7454.1436 -29.038509 255 255 255
1617.8704 1494.5657 2.3559911 255 255 255
716.37524 636.1214 1.1115835 255 255 255
198.83894 229.76007 -0.16694148 255 255 255
-9168.876 -11455.725 -42.315399 255 255 255
1570.269 1232.9624 5.6884708 255 255 255
1167.843 977.99518 0.94685525 255 255 255
-434.65762 -99.7034 -1.8152288 255 255 255
227.24738 358.74722 -0.33511016 255 255 255
-1033.6277 -1688.0236 -4.9784417 255 255 255
80.138741 156.45268 -0.0218313 255 255 255
144.94199 222.4751 -0.035209451 255 255 255
909.44916 135.83485 0.82209134 255 255 255
-100.87257 -221.41512 -1.5761828 255 255 255
190.33566 324.57797 0.067658663 255 255 255
869.72681 220.26064 -0.028653342 255 255 255
168.67184 270.12015 -0.23998764 255 255 255
-667.47919 -1052.7141 -3.1393738 255 255 255
261.96606 358.25912 -0.32235757 255 255 255
391.0383 355.14642 0.64524078 255 255 255
-1148.656 -794.24805 -4.5972376 255 255 255
-69.601555 107.08488 -0.30384129 255 255 255
2022.9711 -63.929863 2.4776037 255 255 255
-145.57935 -188.37953 -1.6921177 255 255 255
218.46576 149.65598 0.14839298 255 255 255
323.63525 110.68422 -0.076831028 255 255 255
-7626.4619 -3495.4504 -10.442712 255 255 255
286.11874 563.5672 -0.083499871 255 255 255
-388.58337 -290.26541 -2.1153669 255 255 255
-353.96616 -148.19365 -1.6287688 255 255 255
-1497.4155 -370.59827 -4.0163584 255 255 255
123.16946 249.10924 -0.20446919 255 255 255
139.81847 67.404053 0.61151391 255 255 255
233.31044 190.20949 0.034621347 255 255 255
278.44965 334.95306 1.6663013 255 255 255
-162.16554 -94.030891 -1.2142622 255 255 255
-380.44974 -447.15466 -2.9259567 255 255 255
-562.29462 -558.4646 -2.2984767 255 255 255
349.59262 419.34409 -0.18461901 255 255 255
1443.3297 669.71021 0.81692857 255 255 255
-187.90416 -61.464439 -1.2535893 255 255 255
404.02899 358.91345 0.026315261 255 255 255
943.13867 209.55753 0.058046669 255 255 255
-2468.5999 -2689.6948 -6.0485911 255 255 255
-187.60771 -302.98798 -1.6468424 255 255 255
157.50717 194.34235 0.35034829 255 255 255
-363.31995 -241.33244 -1.9678731 255 255 255
-631.11041 -397.58817 -2.6655931 255 255 255
271.81198 391.21591 -0.31041887 255 255 255
1241.0403 379.70828 1.9319117 255 255 255
265.34451 252.07498 -0.14923801 255 255 255
235.90546 159.14128 0.13805614 255 255 255
-564.60663 -405.92398 -2.7417486 255 255 255
174.42255 230.44582 -0.15085676 255 255 255
708.23218 44.694458 0.35003096 255 255 255
255.45474 276.25388 -0.14649923 255 255 255
132.80768 131.53661 -0.12227172 255 255 255
-326.34097 -194.98009 -2.4150524 255 255 255
115.01672 262.8775 -0.22942357 255 255 255
526.0191 248.9292 -0.06529019 255 255 255
-244.67238 -243.38994 -1.7445209 255 255 255
-169.62213 -201.1835 -1.3419358 255 255 255
-68.062187 -36.22897 -1.247641 255 255 255
190.40018 155.28481 0.093642995 255 255 255
116.26774 192.05463 -0.092380673 255 255 255
1679.7625 64.781776 0.9061082 255 255 255
255.86755 269.25922 -0.026479429 255 255 255
282.34576 384.05811 -0.29265791 255 255 255
-307.83185 -156.86943 -1.3224103 255 255 255
758.57758 192.78461 0.33743814 255 255 255
-58.456329 121.25 -0.85535252 255 255 255
307.70667 139.21523 -0.19397442 255 255 255
1157.5906 1060.1295 3.6655383 255 255 255
416.82184 446.36868 -0.22334367 255 255 255
1110.3674 743.65979 0.38687438 255 255 255
-481.37405 -525.55426 -2.4970016 255 255 255
-314.30731 -236.10796 -1.7427152 255 255 255
384.6763 195.71072 0.10199785 255 255 255
232.15947 283.61172 -0.14237118 255 255 255
223.84569 195.86792 0.0078225154 255 255 255
167.54935 287.62604 0.80735254 255 255 255
186.10919 192.57797 -0.015896367 255 255 255
185.94403 281.4483 -0.29057023 255 255 255
162.76038 197.40042 -0.14167966 255 255 255
32.980198 68.495148 -0.062432785 255 255 255
586.90137 677.33838 0.30581164 255 255 255
294.24829 383.18317 -0.082579829 255 255 255
-773.23853 -803.01599 -4.654171 255 255 255
-1064.0657 -1602.1692 -7.4536438 255 255 255
-291.02084 -428.54602 -1.900679 255 255 255
281.3096 425.31982 -0.351419 255 255 255
283.79849 268.17148 -0.12048721 255 255 255
-623.909 -399.3381 -2.7815206 255 255 255
293.95297 238.16496 -0.07799051 255 255 255
-461.6637 -455.37668 -2.0035884 255 255 255
761.55377 483.64853 0.0071489019 255 255 255
100.57374 146.7988 -0.14790292 255 255 255
228.29962 368.80414 -0.24476084 255 255 255
248.1552 146.94839 -0.15977243 255 255 255
3154.1653 2130.3311 2.4409177 255 255 255
967.70819 226.25366 -0.1087179 255 255 255
102.11456 113.86648 0.069109909 255 255 255
698.48834 314.80017 0.51344907 255 255 255
-48.828209 82.618256 -0.4701058 255 255 255
-517.53339 -514.57642 -2.0228641 255 255 255
-173.35609 -231.25653 -1.4277689 255 255 255
281.06653 361.22311 1.0256718 255 255 255
-467.15906 -360.33203 -2.5028694 255 255 255
-57.801876 98.39164 -0.87294573 255 255 255
-499.29855 -248.56534 -2.0094855 255 255 255
410.72809 278.6142 -0.24442333 255 255 255
-102.87376 -121.89813 -1.273133 255 255 255
-339.9267 -204.06961 -1.939332 255 255 255
385.03082 214.38507 -0.23458567 255 255 255
-268.77179 -328.72775 -1.8306855 255 255 255
-198.79837 -338.52118 -1.5180966 255 255 255
645.0564 251.19989 -0.14730711 255 255 255
-74.420021 119.43964 -0.70772988 255 255 255
-841.4353 -677.84998 -2.9255548 255 255 255
-225.39854 -84.922989 -1.2775645 255 255 255
-42475.875 -33130.574 -173.56377 255 255 255
-756.57739 -683.96655 -3.0615628 255 255 255
-442.79224 -649.28137 -2.1027586 255 255 255
644.29919 751.32129 2.4152622 255 255 255
209.85896 28.520088 0.058101028 255 255 255
-444.18805 -254.23976 -1.5672401 255 255 255
1129.7294 168.79808 0.27383125 255 255 255
-446.94482 -187.80429 -1.8061618 255 255 255
1225.0638 150.05603 0.38672978 255 255 255
44694.418 56957.199 193.08995 255 255 255
-977.33063 -926.41864 -3.4756238 255 255 255
305.53714 144.32719 -0.1956041 255 255 255
-360.69873 -333.0206 -1.7143087 255 255 255
97.287903 157.89235 -0.010613324 255 255 255
-926.60553 -312.8692 -1.9906423 255 255 255
-327.263 -170.07927 -1.6463258 255 255 255
-809.29962 -740.60205 -2.684411 255 255 255
396.00494 261.35913 -0.41793928 255 255 255
264.18832 306.20059 -0.22716224 255 255 255
623.95209 244.57022 -0.22697146 255 255 255
1893.0614 3334.1575 7.5062304 255 255 255
-277.66327 -246.80304 -1.39665 255 255 255
-1167.1101 -739.93317 -4.3322906 255 255 255
-600.4054 -611.52264 -3.7224131 255 255 255
-495.86456 -734.42035 -2.2034283 255 255 255
1590.9227 88.405548 0.64486027 255 255 255
-711.36145 56.473759 -1.6987464 255 255 255
204.87468 182.20041 0.029132308 255 255 255
-606.3988 -366.92929 -2.5503538 255 255 255
-756.685 -416.16168 -2.6674092 255 255 255
-299.7551 -343.21994 -1.8154938 255 255 255
-43993.043 -49416.211 -156.2345 255 255 255
1706.9563 59.269432 0.93796206 255 255 255
328.92163 411.43948 0.15754466 255 255 255
243.32558 394.97681 -0.33188093 255 255 255
-329.75909 -319.62787 -1.4693242 255 255 255
870.80518 220.1465 -0.027670788 255 255 255
822.52051 216.05188 0.073481128 255 255 255
110.75448 169.1062 -0.018134139 255 255 255
555.24127 119.50359 0.10972384 255 255 255
1282.473 889.50623 0.5655424 255 255 255
2276.6292 1678.6891 6.9391418 255 255 255
807.50226 233.42099 -0.10573339 255 255 255
-3947.6592 -4488.3716 -13.759398 255 255 255
253.67227 135.82549 0.24392705 255 255 255
156.99364 241.39964 -0.11058073 255 255 255
657.84454 253.36101 -0.16579801 255 255 255
244.07834 171.11684 0.10661617 255 255 255
294.32889 250.43428 -0.1356815 255 255 255
-189.30739 -203.4034 -1.5164738 255 255 255
-190.51256 -101.0522 -1.2757666 255 255 255
562.13116 254.66522 -0.039071366 255 255 255
-55.304459 93.591286 -0.82433277 255 255 255
-103.08028 -94.527138 -1.1619087 255 255 255
80.200127 156.45432 -0.021719167 255 255 255
215.88394 168.15851 0.084169112 255 255 255
-54.641918 131.27077 -0.36774668 255 255 255
-266.94611 -487.45001 -1.7867715 255 255 255
321.73819 255.2426 0.31287247 255 255 255
117.16183 222.45013 -0.21876293 255 255 255
210.57817 210.47179 -0.10847966 255 255 255
153.92451 191.79924 -0.15916766 255 255 255
160.25012 200.92677 -0.10856437 255 255 255
-1635.7091 -1975.3984 -9.5834618 255 255 255
209.94415 222.26891 -0.13809334 255 255 255
-1270.6779 -949.45929 -4.1932907 255 255 255
1248.9207 1440.4568 5.6467957 255 255 255
182.50952 351.60089 -0.28493294 255 255 255
-614.95605 -368.52011 -3.1068642 255 255 255
-254.94336 -407.15866 -1.7120494 255 255 255
216.45766 169.42456 0.080765583 255 255 255
226.21704 307.2868 -0.21896285 255 255 255
357.7699 492.97272 -0.16982183 255 255 255
1228.29 1100.3109 1.3784267 255 255 255
-623.3606 -840.30005 -2.6719728 255 255 255
536.41284 456.73935 -0.049647659 255 255 255
-1210.8745 -1278.53 -3.7624121 255 255 255
-51.424438 81.324989 -0.46891394 255 255 255
104.14381 176.31804 -0.043779209 255 255 255
1241.908 860.91553 4.1464171 255 255 255
-805.39172 -754.17847 -3.4994419 255 255 255
1133.452 167.92007 0.28106466 255 255 255
-382.97525 -620.16602 -2.6830101 255 255 255
634.04718 568.16193 0.53257227 255 255 255
525.70294 249.02156 -0.065922491 255 255 255
222.77625 306.44769 0.21839045 255 255 255
268.68646 249.64984 -0.13846745 255 255 255
291.94379 186.22517 -0.23103996 255 255 255
2054.1362 -71.864708 2.5650227 255 255 255
184.44095 265.63449 -0.23141377 255 255 255
-302.84943 -267.28152 -1.6301106 255 255 255
171.32642 223.41751 -0.12415431 255 255 255
24774.299 9799.0352 29.194796 255 255 255
877.07025 216.02005 0.016286016 255 255 255
2119.7583 -84.377686 2.6501656 255 255 255
2029.5767 -65.070488 2.4872525 255 255 255
139.00423 253.5887 -0.21285918 255 255 255
183.67378 78.195267 0.31542057 255 255 255
411.34122 324.75302 0.30972424 255 255 255
-68.05513 88.954666 -0.56280416 255 255 255
-449.00278 -38.154613 -1.5142518 255 255 255
277.81851 121.96282 0.33737034 255 255 255
-551.39294 -328.06763 -1.6476129 255 255 255
160.7166 177.54198 -0.16391627 255 255 255
989.32336 141.01297 0.75833058 255 255 255
5805.8633 3170.3789 24.115139 255 255 255
171.19905 191.32306 -0.09949021 255 255 255
-500.33844 -458.10629 -2.2325406 255 255 255
-55.868111 -55.318291 -1.1306455 255 255 255
192.64746 256.49429 0.03135002 255 255 255
1114.3682 157.95561 0.44870746 255 255 255
-745.80042 -536.86853 -3.7940557 255 255 255
244.52435 195.82144 0.026583783 255 255 255
488.68332 448.25433 -0.2419088 255 255 255
215.60455 202.86613 -0.16270091 255 255 255
-345.50955 -441.06766 -2.3013098 255 255 255
-195.09949 -6.8516665 -1.2179307 255 255 255
414.09995 406.82025 0.42878073 255 255 255
171.22014 103.4439 0.00186681 255 255 255
-212.29156 -73.097404 -1.3646768 255 255 255
125.89352 212.13567 -0.077537917 255 255 255
235.91809 462.88489 1.1815846 255 255 255
-2206.6504 -794.30713 -3.6764791 255 255 255
-87.314545 174.24937 -0.78094912 255 255 255
-7069.0591 -7656.0254 -33.68681 255 255 255
273.07266 247.91585 -0.12896845 255 255 255
-33.984028 50.24955 -0.4054189 255 255 255
-162.1326 -11.234455 -1.1716945 255 255 255
1578.2271 -90.206268 2.284339 255 255 255
410.59625 280.7384 -0.24748479 255 255 255
1681.0933 6.0779624 1.8756833 255 255 255
139.71494 268.90927 -0.25499621 255 255 255
494.60727 223.46535 -0.22863533 255 255 255
256.01898 264.87109 -0.01551534 255 255 255
1327.8429 52.01997 0.51059687 255 255 255
-1273.7916 -1426.384 -7.1208625 255 255 255
-229.662 -172.79837 -1.2502171 255 255 255
278.68607 447.84344 -0.041316859 255 255 255
324.1835 183.12189 0.016878804 255 255 255
232.65466 111.10214 0.30192769 255 255 255
426.48831 242.3159 -0.34653136 255 255 255
-610.52625 -591.48755 -4.2013464 255 255 255
463.86545 261.90924 -0.29453021 255 255 255
-428.07245 -174.48888 -1.57031 255 255 255
-163.12924 -64.342766 -1.5300999 255 255 255
-58.935596 -15.182837 -1.0679325 255 255 255
191.07295 229.0425 0.021896023 255 255 255
206.14159 226.05934 -0.15580346 255 255 255
658.01642 144.6378 0.69742626 255 255 255
257.95438 241.7876 -0.20450048 255 255 255
240.49876 189.41402 0.044985261 255 255 255
153.03394 216.19659 -0.17154685 255 255 255
2072.6235 -75.218918 2.5909855 255 255 255
223.16225 176.21576 0.066247702 255 255 255
190.00641 155.03368 0.09362524 255 255 255
182.62617 225.29865 -0.12833819 255 255 255
140.42131 145.827 -0.23223861 255 255 255
634.85553 741.59167 0.24049684 255 255 255
-474.13388 -446.37665 -2.2917256 255 255 255
707.80865 897.39288 3.9515398 255 255 255
327.58771 155.83777 0.015155335 255 255 255
310.79834 309.92554 -0.1486591 255 255 255
740.80792 165.73589 -0.060862798 255 255 255
171.39699 288.7731 -0.29339346 255 255 255
-801.70947 -495.84711 -3.3371663 255 255 255
679.48755 243.79745 -0.10471543 255 255 255
283.7446 369.38632 0.009586555 255 255 255
-236.39391 -63.806793 -1.2738676 255 255 255
1573.4603 90.843163 0.63959563 255 255 255
2215.9807 -112.91978 2.9755418 255 255 255
-456.30463 -373.44095 -2.2088697 255 255 255
-1339.2461 -1690.8762 -9.3584948 255 255 255
-103.13564 -38.189835 -1.1187279 255 255 255
168.57018 230.21159 -0.18656705 255 255 255
888.93701 216.82713 -0.015371996 255 255 255
1268.8469 121.30367 0.4279092 255 255 255
154.49055 185.50089 -0.096380264 255 255 255
214.07709 269.58133 -0.12918422 255 255 255
730.02429 291.86111 -0.27613193 255 255 255
726.1073 369.98688 0.030667059 255 255 255
2295.4834 2371.8838 6.4426179 255 255 255
1224.0955 150.31589 0.38762206 255 255 255
306.72903 290.35165 -0.20917763 255 255 255
187.32031 294.05652 -0.18840668 255 255 255
266.94513 385.54462 -0.34089079 255 255 255
101.40795 168.82523 -0.15402517 255 255 255
66.400536 136.58273 -0.12611723 255 255 255
1215.6401 152.09753 0.37709218 255 255 255
143.76054 184.81807 -0.14670378 255 255 255
206.45221 236.4994 -0.17199259 255 255 255
-178.40724 -175.55112 -1.5522305 255 255 255
197.5459 327.74072 -0.23472112 255 255 255
-1389.6748 -755.70001 -5.0328703 255 255 255
-296.99341 -236.61198 -2.2363727 255 255 255
245.92421 361.47461 -0.23254809 255 255 255
212.21472 234.57022 -0.085381404 255 255 255
-1034.8774 -449.54245 -4.8231096 255 255 255
1132.4509 1645.5726 5.8232622 255 255 255
250.44908 269.90121 -0.16026486 255 255 255
153.88268 223.54514 -0.11850321 255 255 255
212.25447 174.8093 0.0601294 255 255 255
-705.86609 -358.69592 -2.6278234 255 255 255
390.59641 203.66786 2.5174675 255 255 255
-66.237206 -55.109528 -1.2285795 255 255 255
1791.6897 2180.9871 9.6226311 255 255 255
-316.76859 -294.91385 -1.5298446 255 255 255
236.66118 277.26349 -0.2612533 255 255 255
-557.35706 -514.29736 -2.599875 255 255 255
179.46158 225.62059 -0.17804381 255 255 255
993.10297 319.34607 -0.019719128 255 255 255
-70.297295 -55.163795 -1.1216232 255 255 255
-203.65633 -10.274901 -1.2580243 255 255 255
223.83264 237.15463 -0.086221851 255 255 255
-1715.2233 -447.86804 -4.4118347 255 255 255
-68.578293 141.82367 -0.80818057 255 255 255
-83.747757 102.3506 -0.83348441 255 255 255
-272.27963 -352.22369 -1.8561381 255 255 255
191.1725 397.43265 -0.3251777 255 255 255
-103.25113 -170.62859 -1.2638012 255 255 255
-31.68471 52.527302 -0.93056399 255 255 255
1763.6532 1554.178 4.7512426 255 255 255
227.58688 109.26478 0.30041477 255 255 255
-602.0401 -351.43814 -4.2516918 255 255 255
-333.74979 -226.99384 -1.8758579 255 255 255
885.82001 277.96045 -0.13851656 255 255 255
231.51883 352.48514 -0.30389312 255 255 255
238.4025 275.96198 0.31692824 255 255 255
185.24265 193.32362 -0.017800782 255 255 255
1478.8765 98.372757 0.58222216 255 255 255
197.93367 212.6991 -0.11799192 255 255 255
-287.65094 -96.31395 -1.7379792 255 255 255
1829.1167 -25.689377 2.1457832 255 255 255
183.07829 170.95801 -0.098824836 255 255 255
208.98184 63.29789 -0.057045229 255 255 255
360.64777 388.43817 0.071586847 255 255 255
568.09833 242.62918 -0.022897743 255 255 255
1949.6873 -50.10873 2.3657453 255 255 255
235.81512 253.64232 -0.05534007 255 255 255
284.02444 247.64818 -0.12636192 255 255 255
272.70413 369.38876 0.2327603 255 255 255
275.40298 277.84402 -0.4353686 255 255 255
765.01746 592.86639 1.7870859 255 255 255
1382.2163 1501.6964 2.0415633 255 255 255
99.676437 205.58267 -0.10124195 255 255 255
954.78674 1181.1206 1.2755806 255 255 255
-1114.9019 -443.53354 -4.6596923 255 255 255
861.39166 723.33948 0.067816623 255 255 255
224.54292 168.29843 -0.24203707 255 255 255
1407.1238 462.76804 1.2221754 255 255 255
179.33923 219.22478 -0.10803466 255 255 255
-241.07903 -53.681595 -1.2858692 255 255 255
-57.179829 131.67493 -0.74864137 255 255 255
152.97763 277.5838 -0.27858457 255 255 255
173.17773 180.28514 0.18979327 255 255 255
423.84729 417.69308 -0.11925637 255 255 255
230.6472 268.34091 -0.2277533 255 255 255
227.39423 312.26849 -0.1270787 255 255 255
255.38409 242.45744 -0.10093945 255 255 255
1850.2136 -31.187197 2.2078927 255 255 255
-392.7045 -187.29955 -2.1415849 255 255 255
1548.458 1836.9681 2.0045314 255 255 255
-416.66556 -807.01929 -2.6082098 255 255 255
-619.8739 -871.6958 -2.7865758 255 255 255
1076.2638 322.74408 1.1236858 255 255 255
-360.45718 -133.9924 -1.8101166 255 255 255
1012.7781 118.52119 0.32105812 255 255 255
587.91028 305.57193 -0.16901408 255 255 255
-451.01828 -735.99738 -2.1555235 255 255 255
-819.74164 -341.94614 -2.0241702 255 255 255
855.64709 886.33142 2.0278792 255 255 255
-1886.4089 -2171.5007 -9.8898573 255 255 255
-291.37695 -151.49426 -1.3263669 255 255 255
-761.59955 -984.05499 -2.8857768 255 255 255
1007.4869 765.92755 0.26803741 255 255 255
1227.8041 150.04141 0.39030084 255 255 255
80.371323 159.14349 -0.027791813 255 255 255
-298.12463 -184.09126 -1.3490285 255 255 255
-369.59152 -400.26715 -1.7877785 255 255 255
-410.29178 -366.42783 -1.644376 255 255 255
-472.40262 -398.48874 -1.7682655 255 255 255
-526.82062 -292.78876 -2.2438381 255 255 255
-244.56508 -41.614185 -1.2849121 255 255 255
1121.197 1416.9775 1.3362857 255 255 255
-578.50751 -345.62823 -2.764401 255 255 255
-93.747772 -21.592308 -1.2738744 255 255 255
590.1947 261.95657 -0.28461513 255 255 255
162.83109 98.641029 -0.13909894 255 255 255
302.3295 116.83255 -0.1015664 255 255 255
-59.999958 -43.065453 -1.1344169 255 255 255
226.7366 231.38647 0.082391657 255 255 255
1060.1536 167.16277 0.40214863 255 255 255
-521.14917 -212.73073 -2.3459854 255 255 255
-276.84647 -99.60302 -1.382475 255 255 255
-406.65591 -328.56931 -1.6508343 255 255 255
590.36414 104.3844 0.17220208 255 255 255
569.37146 183.56462 0.54694724 255 255 255
1968.3191 851.68079 1.554883 255 255 255
385.28448 271.78061 -0.44794795 255 255 255
-562.58203 -753.55438 -2.4324856 255 255 255
-342.59122 -27.200207 -1.3668962 255 255 255
-1011.0344 -394.2905 -2.7127049 255 255 255
-1780.6514 -1964.2286 -7.3530173 255 255 255
-309.20428 -244.80136 -1.8755912 255 255 255
319.45645 322.99362 -0.18234666 255 255 255
-346.65536 -166.03358 -1.3890616 255 255 255
-307.91046 -160.73367 -1.6680332 255 255 255
554.24408 606.06824 0.17323607 255 255 255
1756.0502 580.14874 4.0453053 255 255 255
-293.51535 8.0715799 -1.2902938 255 255 255
-210.45013 -73.850342 -1.230131 255 255 255
286.0415 122.52259 -0.13062355 255 255 255
-175.59972 -95.11055 -1.4367605 255 255 255
