ply
format ascii 1.0
comment PCL generated
element vertex 1111
property float x
property float y
property float z
property uchar red
property uchar green
property uchar blue
element face 0
element camera 0
property float view_px
property float view_py
property float view_pz
property float x_axisx
property float x_axisy
property float x_axisz
property float y_axisx
property float y_axisy
property float y_axisz
property float z_axisx
property float z_axisy
property float z_axisz
property float focal
property float scalex
property float scaley
property float centerx
property float centery
property int viewportx
property int viewporty
property float k1
property float k2
end_header
-7078.7515 -7629.5757 -21.145885 255 255 255
1223.9153 752.99487 2.7539604 255 255 255
-2175.5808 -888.32446 -6.1287584 255 255 255
391.13123 593.93182 1.3229032 255 255 255
-4082.5049 -3285.0593 -9.8552694 255 255 255
947.18774 938.73749 2.1652703 255 255 255
2112.9646 1953.287 5.1215196 255 255 255
-1367.5605 -1001.0115 -2.8271754 255 255 255
-672.54248 -922.63892 -2.4865034 255 255 255
-755.54156 -1374.3213 -3.4346321 255 255 255
478.91229 539.90649 1.4442312 255 255 255
-1083.5029 -826.60175 -2.285352 255 255 255
1109.6906 1050.4087 2.3588088 255 255 255
1859.5111 1444.42 4.1952949 255 255 255
880.38617 902.99365 2.074661 255 255 255
1321.1113 732.11847 2.6188936 255 255 255
906.24847 1179.6719 2.0914087 255 255 255
312.12366 580.38281 1.2120771 255 255 255
411.26086 596.9646 1.3540261 255 255 255
16095.084 10533.191 38.183643 255 255 255
1365.47 1668.9486 4.0729713 255 255 255
407.99884 602.26831 1.3511697 255 255 255
-4802.0889 -6264.9243 -12.858167 255 255 255
-866.84119 -760.99402 -2.1594658 255 255 255
-3640.4944 -2459.4736 -10.556347 255 255 255
1252.8577 1107.1792 3.1936891 255 255 255
852.04089 863.935 2.0387094 255 255 255
1854.2179 1421.3186 4.2993464 255 255 255
1086.7985 698.13763 2.1294868 255 255 255
2419.7412 2315.26 5.7514458 255 255 255
-6502.6494 -8558.4014 -17.577612 255 255 255
-1995.0115 -764.19537 -6.0014343 255 255 255
3777.6851 2347.6895 9.6142435 255 255 255
-336.87427 -208.772 -1.5168585 255 255 255
1534.7916 1473.6431 3.919502 255 255 255
-864.01953 -478.47626 -2.4853444 255 255 255
-53.062313 -59.775928 -1.1176658 255 255 255
2023.4111 1120.9108 3.78601 255 255 255
866.06018 877.10938 2.0575337 255 255 255
72602.281 55809.734 212.9866 255 255 255
140.38412 287.03806 0.74637884 255 255 255
2362.4761 1627.3856 5.1739388 255 255 255
1299.8888 797.99377 2.6279259 255 255 255
1955.6943 1121.3851 3.6493256 255 255 255
831.85358 837.92767 2.0140085 255 255 255
858.56372 605.56042 1.6024244 255 255 255
3302.6851 3842.8398 9.1357641 255 255 255
-4664.9595 -2535.5544 -14.591448 255 255 255
2556.5557 1626.6997 5.7167478 255 255 255
2404.6428 1015.0964 4.6384649 255 255 255
-2418.3838 -1015.1295 -6.566309 255 255 255
768.68799 438.86966 1.1141747 255 255 255
8015.4971 3789.8069 20.035109 255 255 255
844.54675 878.39862 2.0213449 255 255 255
863.80762 868.22778 2.0539083 255 255 255
938.04474 1013.389 2.1396801 255 255 255
-5886.8765 -2196.8901 -13.02285 255 255 255
-458.6022 -175.38159 -1.5661254 255 255 255
2293.7876 2227.0547 5.4150834 255 255 255
-1202.2703 -1072.8429 -2.694468 255 255 255
-1095.9644 -763.02655 -2.6520545 255 255 255
104.05184 209.46663 0.59855181 255 255 255
823.11389 708.72681 2.5962832 255 255 255
1319.6545 727.41168 2.3362627 255 255 255
4750.4907 2838.4167 5.224689 255 255 255
1523.9623 1273.8442 2.8784702 255 255 255
6300.8955 4213.6533 7.6775761 255 255 255
-179.3318 -62.708813 -1.3394195 255 255 255
10399.317 7243.2417 26.661268 255 255 255
2845.7839 1372.5646 6.378231 255 255 255
978.10999 574.72845 1.5672729 255 255 255
1077.9138 735.13 2.1108956 255 255 255
-1143.8195 -748.95734 -2.3372324 255 255 255
-1002.3329 -725.9566 -3.3653288 255 255 255
1878.582 1238.4329 3.8467355 255 255 255
894.82013 946.31189 1.6668069 255 255 255
-1395.7103 -1258.507 -2.7112284 255 255 255
251.90109 405.36697 1.0164276 255 255 255
292.73593 512.50873 1.1444558 255 255 255
314.69839 585.48334 1.2196463 255 255 255
453.39807 782.47986 1.4877281 255 255 255
1988.2429 1366.9496 4.1409664 255 255 255
-7361.3735 -3400.0974 -18.866304 255 255 255
2313.1533 2832.8862 7.5727205 255 255 255
4895.6328 3818.3098 11.968888 255 255 255
1075.4001 809.34113 2.2448874 255 255 255
2094.3787 1772.6218 3.3051765 255 255 255
389.82303 585.25122 1.3190762 255 255 255
435.20779 599.85724 1.3886052 255 255 255
2447.2061 1607.6772 5.0059614 255 255 255
812.80103 937.5683 1.9740502 255 255 255
1944.6265 880.41376 3.9878085 255 255 255
382.93436 565.18726 1.2980906 255 255 255
-9361.5361 -6889.0112 -14.091033 255 255 255
-2526.1045 -2161.9485 -6.6403522 255 255 255
-1280.1891 -1073.9224 -2.6562793 255 255 255
13901.771 9839.7598 33.117882 255 255 255
168.30515 197.38223 0.42510605 255 255 255
976.99902 1019.114 2.1904991 255 255 255
3650.3347 2389.7268 8.6302338 255 255 255
-793.78748 -626.93909 -1.9341884 255 255 255
278.20135 493.19815 1.1139605 255 255 255
1392.4049 1297.2568 2.6850574 255 255 255
1643.0339 648.75452 3.1904025 255 255 255
251.28464 545.25287 1.1206362 255 255 255
13555.544 2800.0464 14.652044 255 255 255
-1848.0488 -2094.541 -4.6846905 255 255 255
1503.9536 700.14117 3.402076 255 255 255
1782.4106 1286.2146 3.1419117 255 255 255
1656.2026 1193.9313 3.1084263 255 255 255
719.42285 982.54633 1.8577824 255 255 255
-1464.9724 -1413.5007 -3.4710624 255 255 255
310.81113 666.27411 1.2669854 255 255 255
-806.90723 -688.46533 -1.9882063 255 255 255
553.87878 509.97711 1.1226242 255 255 255
-706.25421 -445.45456 -2.7125032 255 255 255
1997.7764 1740.2098 4.170773 255 255 255
358.93881 601.2204 1.28443 255 255 255
-1208.1862 -366.41592 -4.2406354 255 255 255
-6593.3442 -3064.825 -17.22629 255 255 255
820.63129 806.66345 1.9937617 255 255 255
293.35773 482.1225 1.1280485 255 255 255
1492.1361 821.16858 3.1869342 255 255 255
932.00079 533.51654 2.5707622 255 255 255
476.36005 544.03241 1.4390336 255 255 255
205.12842 316.38077 0.87424564 255 255 255
669.97662 442.83051 1.5292685 255 255 255
249.08763 549.78992 1.1210823 255 255 255
-3936.3169 -3144.6479 -5.3348317 255 255 255
8834.9717 2731.114 9.6652355 255 255 255
1368.7758 1264.3022 2.6581926 255 255 255
885.08533 783.55408 1.7123944 255 255 255
979.40607 872.10992 2.2340012 255 255 255
-4201.4683 -3346.4341 -8.0204687 255 255 255
1887.1089 1266.6917 4.1207223 255 255 255
2795.6091 2333.8445 6.1673231 255 255 255
251.64896 568.05164 1.1374081 255 255 255
-997.76697 -630.50146 -2.3201678 255 255 255
1555.296 1206.923 3.6099513 255 255 255
-822.7406 -635.50439 -2.1328709 255 255 255
-796.29041 -348.61835 -2.722914 255 255 255
-562.75366 -429.92453 -2.3942943 255 255 255
747.93903 382.02686 1.5340642 255 255 255
-729.83698 -341.83322 -2.7121398 255 255 255
4598.4243 3104.8008 10.405912 255 255 255
64351.492 63638.176 111.40372 255 255 255
2368.8054 1471.8774 5.1445584 255 255 255
-2001.5325 -916.68781 -3.855474 255 255 255
1347.2766 978.61218 2.8075886 255 255 255
754.72992 582.96973 1.2604847 255 255 255
-614.38239 -684.39752 -2.7699058 255 255 255
-675.7085 -396.11618 -1.7679517 255 255 255
731.87531 984.453 1.8723392 255 255 255
941.8783 946.40521 2.1533306 255 255 255
5502.1821 4281.6694 20.299276 255 255 255
5076.3291 2824.2056 5.5723238 255 255 255
2083.7444 1511.1163 4.694859 255 255 255
13655.517 15985.8 35.161713 255 255 255
291.99042 515.70709 1.1466718 255 255 255
900.08716 825.4317 2.1167502 255 255 255
-751.49194 -344.03275 -1.8384312 255 255 255
4119.6504 2930.2632 4.5701356 255 255 255
854.4408 1019.9675 2.0281394 255 255 255
2166.1477 2301.2798 6.4241138 255 255 255
923.82269 832.05066 1.9172037 255 255 255
10611.435 8315.1191 26.391899 255 255 255
885.22351 1043.1155 2.0653834 255 255 255
839.94287 851.78888 2.0224512 255 255 255
2645.6018 1693.0551 6.2057781 255 255 255
306.89496 533.28186 1.1769021 255 255 255
-1113.3749 -1329.6565 -4.3744388 255 255 255
2963.4517 2333.1912 7.6748452 255 255 255
-2841.9399 -3216.156 -6.0616131 255 255 255
-1037.8105 -838.14374 -2.6400852 255 255 255
5225.814 2797.5342 5.7428994 255 255 255
838.87518 954.67993 2.0106077 255 255 255
1325.7632 1197.3544 3.6241271 255 255 255
810.36823 863.06134 1.9747248 255 255 255
3742.5461 2816.9792 8.5779352 255 255 255
-1180.7415 -433.71252 -4.2132735 255 255 255
1669.0669 1201.4067 3.1259928 255 255 255
-821.67566 -587.26489 -3.3160079 255 255 255
-10191.013 -10639.312 -29.585539 255 255 255
980.51245 958.3363 2.2093663 255 255 255
396.80038 296.50195 0.57002658 255 255 255
1088.7419 1138.0071 2.3072615 255 255 255
-1051.8317 -1354.5164 -4.152338 255 255 255
4795.5498 539.90973 10.997162 255 255 255
819.1759 895.7337 1.9848229 255 255 255
-2463.271 -2950.8523 -8.9336109 255 255 255
3796.6248 2322.8833 4.7594757 255 255 255
1018.3859 760.98926 2.2360923 255 255 255
1694.5851 1090.01 3.6785259 255 255 255
844.60925 1094.2791 2.0172179 255 255 255
256.82629 817.35095 1.320694 255 255 255
947.54431 667.60736 1.5677356 255 255 255
1430.2596 1415.1774 3.1364062 255 255 255
-976.84393 -248.99467 -3.1732419 255 255 255
128.03618 392.00027 0.85058516 255 255 255
7975.9771 8711.7617 23.84622 255 255 255
-441.46286 -261.39279 -1.5649624 255 255 255
1260.8392 1129.5525 4.0784912 255 255 255
-1464.059 -2525.1597 -4.9819984 255 255 255
1950.7894 1715.8146 3.6151557 255 255 255
-1922.8104 -2377.1919 -4.5912485 255 255 255
-17552.137 -10880.382 -20.940144 255 255 255
2257.8037 1481.7428 8.5907888 255 255 255
-6639.707 -1051.2904 -8.7053032 255 255 255
1902.1208 495.82306 2.9109676 255 255 255
12265.38 14354.749 23.536577 255 255 255
2004.8848 863.17133 4.1462684 255 255 255
839.34833 854.06476 2.0211916 255 255 255
6944.1763 4317.9648 8.0273142 255 255 255
-40815.812 -36738.883 -118.93984 255 255 255
997.04895 1166.5496 2.1947954 255 255 255
857.75952 982.24164 2.0351655 255 255 255
277.12527 591.94025 1.1831551 255 255 255
327.65027 595.37683 1.2443001 255 255 255
9524.1641 4212.5566 10.877259 255 255 255
612.21143 612.80914 1.3474215 255 255 255
-2548.415 -1010.2369 -7.6409316 255 255 255
-4079.4729 -2023.9541 -10.865092 255 255 255
4823.8687 2832.1809 5.3037176 255 255 255
-1321.8428 -1434.4432 -3.4305356 255 255 255
945.13519 953.31647 2.1585407 255 255 255
1600.2758 816.29492 4.2118192 255 255 255
7897.7759 5042.8247 9.2178068 255 255 255
473.44403 194.96114 1.0691892 255 255 255
-1138.6561 -593.51648 -3.8613207 255 255 255
1806.3044 1160.9438 3.3786817 255 255 255
6395.6279 8218.0225 19.213343 255 255 255
3845.0605 2155.3372 4.9926853 255 255 255
730.72009 939.58295 1.8654877 255 255 255
19736.33 14607.017 24.08676 255 255 255
-2950.4727 -3371.7878 -7.6874852 255 255 255
-7097.5747 -7203.6787 -15.484118 255 255 255
303.62405 571.3822 1.198536 255 255 255
-1135.4536 -718.37994 -2.4817755 255 255 255
-903.65173 -542.06714 -2.9215512 255 255 255
4837.1987 2829.2454 5.3199496 255 255 255
2022.8719 1395.4592 4.3565588 255 255 255
-1377.9801 -1215.6239 -3.2414935 255 255 255
-2381.6257 -2936.5425 -6.6715298 255 255 255
-553.81152 -401.50888 -2.2451885 255 255 255
3814.3418 3834.9709 9.5397463 255 255 255
2048.1855 1487.0154 5.2521453 255 255 255
9764.7773 6053.6455 11.478998 255 255 255
-4439.6953 -5056.9536 -12.445561 255 255 255
-27394.426 -20408.295 -38.080662 255 255 255
828.20593 944.82959 1.9911132 255 255 255
351.52029 550.8244 1.2471331 255 255 255
41755.324 27031.535 69.55542 255 255 255
2620.6179 1320.7054 4.4755139 255 255 255
5836.0107 2771.4197 6.3867435 255 255 255
482.99524 1144.5354 1.6636481 255 255 255
1577.6423 1216.769 2.9787478 255 255 255
-3548.4148 -3058.4192 -10.084047 255 255 255
817.49481 358.28409 1.0032643 255 255 255
-463.11343 -451.37625 -1.7448548 255 255 255
-4446.4434 -4180.8296 -13.596656 255 255 255
5700.3428 2505.1675 6.6707602 255 255 255
-1420.822 -936.47156 -4.4050422 255 255 255
683.09869 937.71991 1.8057295 255 255 255
1472.8552 1146.4779 2.7678139 255 255 255
4634.4805 2535.1765 5.4379263 255 255 255
2813.5281 1989.7701 3.9874709 255 255 255
24656.99 14480.603 29.340364 255 255 255
1592.1366 1215.2227 3.0000122 255 255 255
-755.48083 -364.24561 -2.6921017 255 255 255
-1606.3617 -1263.3992 -3.5699141 255 255 255
5394.3013 4044.0671 11.434382 255 255 255
-3422.5403 -2162.6323 -9.3296824 255 255 255
-5157.9102 -5500.7769 -14.865149 255 255 255
2028.3143 794.01276 4.7481966 255 255 255
3979.1702 2881.8027 8.9059362 255 255 255
5033.8101 2816.7021 5.5370784 255 255 255
-5713.626 -6025.915 -13.516753 255 255 255
408.70813 308.34604 1.0738713 255 255 255
243.86179 498.54095 1.0744352 255 255 255
802.94989 603.58545 1.0213462 255 255 255
-2224.2185 -5213.2358 -10.018249 255 255 255
953.70117 954.01917 2.1669559 255 255 255
-3159.7207 -2948.1228 -9.4239817 255 255 255
-251.38989 -272.60037 -1.7110541 255 255 255
35412.809 24629.977 49.584885 255 255 255
4668.5659 2867.5962 5.1039429 255 255 255
-1274.4832 -958.70203 -3.9873178 255 255 255
-1232.3501 -2716.0581 -5.6446266 255 255 255
-1058.0747 -1796.8754 -5.1076417 255 255 255
-988.87842 -794.14294 -3.7678399 255 255 255
706.10382 714.94409 1.8212533 255 255 255
-2055.3223 -1056.0806 -6.2727761 255 255 255
-2393.0947 -3392.2065 -7.6739879 255 255 255
1230.1974 924.29504 2.6127803 255 255 255
964.1394 1174.4492 2.1584866 255 255 255
-111465.62 -112605.14 -259.72449 255 255 255
-3150.854 -2832.4045 -10.085505 255 255 255
-1721.8989 -686.15967 -4.6724896 255 255 255
3686.3179 632.32007 8.6948757 255 255 255
-686.70154 -572.55029 -1.9252092 255 255 255
1600.4628 1563.5277 2.8281257 255 255 255
1965.4517 1805.184 3.1373832 255 255 255
4590.9575 2875.1543 5.0219932 255 255 255
-2101.2136 -1712.604 -5.798326 255 255 255
581.95459 503.92697 1.6602261 255 255 255
778.18597 669.63068 1.6573086 255 255 255
-44.819454 -18.705742 -1.1182526 255 255 255
6060.8013 1935.1573 13.430295 255 255 255
1886.9718 1443.1187 3.3025093 255 255 255
-340.48434 -273.42413 -1.9039316 255 255 255
9247.585 9066.0215 21.128399 255 255 255
-12790.387 -8687.7217 -34.948727 255 255 255
1124.6471 804.8053 1.9503518 255 255 255
-332.98141 -402.80978 -1.7914617 255 255 255
-748.27557 -567.86932 -2.0361881 255 255 255
647.02026 950.9035 1.7647039 255 255 255
167.4791 223.20374 0.7245931 255 255 255
-973.17737 -1025.9158 -3.3166947 255 255 255
310.05286 262.09265 0.34288293 255 255 255
-6426.688 -1904.5452 -16.946705 255 255 255
4390.396 2859.6045 4.8595719 255 255 255
-5608.6733 -4209.1548 -14.881138 255 255 255
1462.1792 878.87836 3.1245244 255 255 255
-300.80325 -111.24614 -1.7201425 255 255 255
996.41241 776.07098 1.8341603 255 255 255
4438.3228 2854.0713 4.9081745 255 255 255
663.85229 808.15643 1.7648503 255 255 255
2231.4092 2099.8066 5.468142 255 255 255
1387.0101 1260.5372 2.6583648 255 255 255
1139.9078 1185.5316 2.3580337 255 255 255
-1167.316 -1022.6188 -3.5596137 255 255 255
2392.6238 2273.656 6.2075796 255 255 255
4237.6641 2883.2068 4.6974998 255 255 255
-1700.1611 -2301.3298 -5.359046 255 255 255
1101.4021 1327.6006 2.3058727 255 255 255
-557.823 -338.12259 -2.447098 255 255 255
862.71381 369.49536 0.92373437 255 255 255
-3757.3542 -2595.9829 -11.075318 255 255 255
1099.1581 1381.6342 2.2976241 255 255 255
2109.1738 3325.9363 6.2544565 255 255 255
1900.4426 1198.2432 3.5720155 255 255 255
1242.5737 789.64392 1.9995553 255 255 255
6469.3828 2728.2175 7.1360588 255 255 255
-280.64911 -122.78564 -1.2923709 255 255 255
-1736.5973 -1520.493 -3.463798 255 255 255
6743.5786 5124.4731 19.621655 255 255 255
-657.08539 -529.11792 -2.5792871 255 255 255
1547.7874 838.00781 3.289382 255 255 255
-482.62802 -245.65463 -2.2828403 255 255 255
922.03015 835.21686 2.1521177 255 255 255
1733.3557 705.09515 2.75805 255 255 255
13636.694 2796.7441 14.74929 255 255 255
-1552.5143 -952.78076 -3.5106544 255 255 255
278.21698 493.1138 1.1136605 255 255 255
1007.4161 746.95453 1.962414 255 255 255
251.44046 567.75549 1.1357464 255 255 255
883.44135 1041.9886 2.0628333 255 255 255
-1090.2262 -1541.9227 -3.1141448 255 255 255
-17428.832 -13883.339 -34.046848 255 255 255
1683.6013 1549.7523 3.5325046 255 255 255
2413.6345 1017.8294 4.6563053 255 255 255
-803.68738 -266.80203 -3.0669653 255 255 255
4754.0742 2840.6848 5.2312088 255 255 255
8700.0117 7131.2461 21.599455 255 255 255
865.56067 877.42255 2.0570178 255 255 255
1864.1854 1214.9526 3.9788945 255 255 255
-5726.25 -4559.5537 -11.250495 255 255 255
7518.4409 4029.2246 9.9768248 255 255 255
1198.8405 1391.6066 3.2148111 255 255 255
253.89055 546.45435 1.1225034 255 255 255
315.41422 586.89661 1.2222064 255 255 255
282.19009 494.18399 1.1176351 255 255 255
908.5238 440.49261 2.4774976 255 255 255
-1673.4767 -1185.3004 -4.6983962 255 255 255
296.8707 483.64966 1.133921 255 255 255
2781.5249 3503.5896 7.2916942 255 255 255
868.02301 934.36377 2.0504904 255 255 255
564.98944 679.05725 1.60559 255 255 255
-10310.334 -6910.0376 -23.730989 255 255 255
-165.01698 -83.583786 -1.3115447 255 255 255
314.79797 508.82935 1.1744492 255 255 255
879.86774 903.30731 2.074475 255 255 255
1816.7401 1227.3831 3.9793584 255 255 255
8558.1201 5936.3628 19.819822 255 255 255
2302.1538 1242.5186 4.3066006 255 255 255
1934.7526 875.06555 3.9692881 255 255 255
866.46735 830.53131 2.0704927 255 255 255
246.65656 411.34872 1.013953 255 255 255
23447.594 16584.877 62.402206 255 255 255
292.45862 513.05847 1.1458789 255 255 255
2018.6737 1304.8495 4.024188 255 255 255
1371.6207 935.34521 3.0154324 255 255 255
291.65472 515.25885 1.1463323 255 255 255
-1198.0247 -1189.8337 -3.9970605 255 255 255
-6391.9365 -6053.4819 -17.540356 255 255 255
-1104.6365 -1027.3566 -2.5481267 255 255 255
-14009.413 -20047.424 -43.82119 255 255 255
-17221.195 -8923.5361 -45.252178 255 255 255
823.15265 639.95831 1.2380255 255 255 255
3945.5371 2782.3101 8.7760534 255 255 255
310.35803 535.10339 1.1868446 255 255 255
1336.9723 882.33075 2.6176882 255 255 255
903.65192 418.3313 1.0176743 255 255 255
-999.72266 -218.29045 -2.1823168 255 255 255
909.73328 935.86084 2.1084721 255 255 255
2004.0961 1120.3175 3.7478638 255 255 255
-1563.7329 -795.64417 -4.9910431 255 255 255
2966.8223 2533.4729 6.6432261 255 255 255
408.72729 603.78265 1.3543376 255 255 255
2200.6023 1108.2294 5.0943375 255 255 255
229.30116 498.44354 1.0573287 255 255 255
4703.1807 2136.894 6.089694 255 255 255
1817.4849 1315.0409 3.5968268 255 255 255
826.81683 847.28864 2.0035267 255 255 255
-2851.7751 -3369.8357 -8.7479725 255 255 255
479.17862 540.66431 1.4444172 255 255 255
-1168.2742 -1293.8861 -3.3900766 255 255 255
1263.5811 1551.4227 3.0011342 255 255 255
1103.4148 879.31122 2.1679466 255 255 255
921.08496 834.36243 2.1503696 255 255 255
1607.6879 728.78186 3.5761883 255 255 255
293.48126 482.73654 1.1292589 255 255 255
252.31747 405.79584 1.0175774 255 255 255
1410.8533 1197.8135 2.7373748 255 255 255
-1095.2709 -1441.8992 -4.0491562 255 255 255
580.07159 223.26952 0.63729614 255 255 255
1007.9111 551.79657 1.6682613 255 255 255
956.47491 944.54767 2.1793463 255 255 255
4073.5667 5936.6235 9.3413239 255 255 255
463.45685 416.23642 1.1698098 255 255 255
-1033.5027 -783.43976 -3.5366371 255 255 255
326.01208 342.61166 0.92230618 255 255 255
358.59863 600.40881 1.2808911 255 255 255
1741.8536 1518.7207 3.9600816 255 255 255
-741.92657 -674.59503 -2.0704618 255 255 255
993.8775 968.44055 2.2290659 255 255 255
786.4411 964.12787 1.9392862 255 255 255
853.33575 1018.6608 2.0245047 255 255 255
-967.57092 -465.99158 -2.1622584 255 255 255
314.77582 674.28284 1.2787684 255 255 255
-657.72784 -1316.8911 -3.491529 255 255 255
1316.2192 1178.5605 2.5987425 255 255 255
809.45801 862.08911 1.9731919 255 255 255
2190.9729 1320.2129 4.7907124 255 255 255
336.7038 644.9975 1.2833629 255 255 255
911.55725 1184.4968 2.0967708 255 255 255
1270.0195 773.76947 2.5527561 255 255 255
2411.2812 1435.786 5.3716941 255 255 255
435.40146 564.38947 1.3772753 255 255 255
-3306.5073 -2320.772 -8.2479105 255 255 255
1718.0797 1079.7003 3.7047684 255 255 255
-6094.4502 -5580.2583 -18.048998 255 255 255
1520.1006 1263.9729 2.8704214 255 255 255
734.33496 863.76221 1.8631718 255 255 255
252.16136 566.20416 1.1352671 255 255 255
724.61456 755.90143 1.8513339 255 255 255
1490.4772 1244.9984 3.5676782 255 255 255
972.68988 1023.0033 2.1880355 255 255 255
-876.09375 -871.31274 -2.0838246 255 255 255
-121.02208 -122.31152 -1.3256081 255 255 255
-2369.9402 -1557.3947 -6.823761 255 255 255
6597.5518 4544.3237 15.590679 255 255 255
-5760.5796 -4087.1353 -16.470438 255 255 255
451.80658 781.27789 1.4842576 255 255 255
1579.1757 1366.099 3.8070455 255 255 255
2505.8674 1350.0341 4.2504659 255 255 255
1305.999 543.30597 3.1575763 255 255 255
27822.209 18217.402 60.133736 255 255 255
-801.92047 -756.29364 -2.1035631 255 255 255
-372.73199 -177.01204 -1.3967081 255 255 255
254.84352 820.04993 1.3206582 255 255 255
5481.4463 1525.1199 8.734127 255 255 255
2809.2031 1988.0743 3.9837232 255 255 255
204.96806 313.29883 0.87184316 255 255 255
-353.64493 -461.9039 -1.5866916 255 255 255
-4937.895 -3975.4653 -9.6483622 255 255 255
22681.924 21720.09 55.165417 255 255 255
-5981.7485 -3073.5029 -11.086815 255 255 255
206.039 317.86633 0.87798417 255 255 255
-2259.5466 -2658.4561 -6.5677509 255 255 255
1137.037 630.30554 2.2585444 255 255 255
848.81317 861.62323 2.0323224 255 255 255
718.25909 981.98047 1.8555596 255 255 255
1594.8385 1998.9327 3.8424609 255 255 255
886.20129 866.38965 2.0884733 255 255 255
853.54443 831.85229 2.0428367 255 255 255
813.96497 938.67255 1.9772165 255 255 255
-922.9635 -348.06674 -2.0425663 255 255 255
938.06219 682.31683 1.6980145 255 255 255
895.74091 855.8924 2.1085269 255 255 255
389.06793 583.96411 1.316604 255 255 255
-1675.6548 -1850.7861 -5.8911061 255 255 255
633.05566 582.87122 1.3279335 255 255 255
140.66087 287.37012 0.7469964 255 255 255
139.3685 284.77573 0.74025446 255 255 255
967.28137 942.31396 2.1969256 255 255 255
551.12323 569.76697 1.4036955 255 255 255
942.48737 703.91107 1.6302271 255 255 255
303.55222 574.42523 1.1999341 255 255 255
4313.3311 2573.2908 11.078048 255 255 255
1398.3265 849.22119 2.8504245 255 255 255
822.34863 707.73883 2.0237193 255 255 255
205.65147 130.85184 0.63444459 255 255 255
1328.0703 920.83185 2.4736395 255 255 255
435.45483 600.2774 1.3899294 255 255 255
939.43335 1015.4282 2.1436427 255 255 255
4820.1582 2832.511 5.3014655 255 255 255
1226.9139 1123.6483 2.3707092 255 255 255
-1060.0872 -1072.5837 -2.528074 255 255 255
-18459.855 -17851.809 -49.925552 255 255 255
382.33438 564.96796 1.2967565 255 255 255
477.11072 545.1358 1.4427758 255 255 255
1029.0649 799.58868 2.2068682 255 255 255
828.60205 834.58356 2.0058808 255 255 255
-1120.5444 -777.72327 -2.7464292 255 255 255
313.94778 583.06116 1.2179881 255 255 255
2341.9666 973.77747 4.5974226 255 255 255
245.35257 245.76355 0.49960077 255 255 255
1070.6014 629.11676 2.0390911 255 255 255
1143.5608 1071.5853 2.7433929 255 255 255
804.74481 714.76837 1.9237347 255 255 255
410.314 595.26526 1.35128 255 255 255
406.84958 594.29199 1.3476189 255 255 255
313.052 531.9516 1.1828662 255 255 255
958.67694 961.1546 2.1815348 255 255 255
-576.22528 -349.70746 -1.6669388 255 255 255
804.42999 852.16058 1.9666896 255 255 255
899.09143 1053.2898 2.0849128 255 255 255
2089.3518 1769.7701 3.2986093 255 255 255
830.8313 252.81903 0.89778626 255 255 255
-57.172749 -62.02779 -1.1684955 255 255 255
13569.17 2803.0393 14.675082 255 255 255
905.64661 1178.8016 2.0897753 255 255 255
2924.8484 1268.4216 5.0659642 255 255 255
303.0929 392.30042 1.0891999 255 255 255
1964.6842 729.00031 4.3868423 255 255 255
2764.7515 2237.1003 4.5523944 255 255 255
-2859.033 -2909.2476 -7.1329818 255 255 255
1721.099 1507.4099 4.0139227 255 255 255
865.13745 903.17444 2.0501823 255 255 255
658.19086 792.86774 1.755887 255 255 255
769.45135 866.14703 1.9168578 255 255 255
821.15778 898.79889 1.9914349 255 255 255
838.10443 759.79736 1.6968547 255 255 255
999.13434 1139.0251 2.2040243 255 255 255
-4046.0798 -2275.7864 -5.7406445 255 255 255
1439.2576 1119.4336 2.8299334 255 255 255
3352.5247 1977.2399 8.3663597 255 255 255
-2312.002 -1229.9729 -6.1667895 255 255 255
-675.23077 -282.75003 -2.5138493 255 255 255
2509.8691 2006.3856 5.5429726 255 255 255
-1389.6295 -1491.5079 -4.8933506 255 255 255
243.98357 498.42905 1.0747621 255 255 255
1401.1844 771.74731 1.9090523 255 255 255
-4344.9927 -2272.9463 -13.49332 255 255 255
-1752.8199 -1521.0377 -5.2758899 255 255 255
-472.21045 -288.73911 -1.5739015 255 255 255
-1564.978 -845.24268 -4.2591567 255 255 255
1413.4907 854.50854 3.3171165 255 255 255
959.46027 1005.7169 2.1698642 255 255 255
-3508.2339 -2136.3164 -8.853549 255 255 255
576.84137 298.21399 1.1993777 255 255 255
-556.67133 -545.17615 -2.4973054 255 255 255
1393.8158 1132.1467 2.7363882 255 255 255
-1149.0392 -985.21814 -2.4154611 255 255 255
-1226.9257 -722.16302 -3.9052634 255 255 255
40103.93 43623.684 121.84568 255 255 255
-23105.617 -9097.1924 -29.914246 255 255 255
4069.2554 4547.625 11.130356 255 255 255
929.93176 928.21588 2.1438773 255 255 255
10859.591 12523.793 26.072092 255 255 255
-23440.002 -11062.341 -58.259968 255 255 255
89702.773 48729.93 106.19364 255 255 255
315.875 550.7135 1.1989645 255 255 255
909.19824 809.66693 2.1420064 255 255 255
925.56476 984.94196 2.1281557 255 255 255
881.6908 838.46161 2.0905101 255 255 255
1919.8593 1179.8545 3.7372539 255 255 255
-379.5636 -600.18054 -1.6987239 255 255 255
853.78864 987.98773 2.0280199 255 255 255
480.35046 1166.0286 1.6700143 255 255 255
-1039.3789 -710.56866 -3.650955 255 255 255
128.5036 393.17822 0.85290045 255 255 255
1660.3185 1057.9712 3.3234513 255 255 255
-119737.82 -98687.109 -373.63937 255 255 255
3491.7058 2194.033 8.2046804 255 255 255
-5212.689 -4819.5435 -14.744221 255 255 255
-943.1358 -627.94788 -2.2542551 255 255 255
3655.4229 2619.5559 8.4586668 255 255 255
-352.31235 -210.21632 -1.4184318 255 255 255
-352.82733 -418.23676 -1.5653934 255 255 255
-1881.9484 -1671.3501 -3.3933575 255 255 255
700.28046 843.28485 1.8228074 255 255 255
904.25189 575.38721 2.2664452 255 255 255
8821.5127 2247.2822 11.00637 255 255 255
3381.822 2318.9919 8.1347122 255 255 255
-403.7345 -397.21237 -1.9554477 255 255 255
-1679.6444 -1585.4396 -3.8988953 255 255 255
320.2579 592.88708 1.2317624 255 255 255
-2466.7993 -2987.7224 -5.5427313 255 255 255
6430.2349 3099.9136 6.5433888 255 255 255
10373.327 2307.895 12.939409 255 255 255
2027.76 1359.5302 4.2729068 255 255 255
2038.7806 841.70874 4.2534494 255 255 255
-3420.9385 -2183.2756 -9.6612892 255 255 255
-423.25967 -99.697548 -1.9988152 255 255 255
1262.3402 1042.2679 2.9775546 255 255 255
878.09167 1058.1394 2.056143 255 255 255
3516.1543 1807.845 4.13411 255 255 255
-942.83936 -555.20514 -3.1582198 255 255 255
826.54102 1248.2107 2.7061703 255 255 255
963.31506 859.87842 2.0347202 255 255 255
1262.051 1282.4581 2.1514952 255 255 255
4502.6084 2850.8083 4.965488 255 255 255
156.44539 283.93967 0.76698917 255 255 255
-34278.859 -26486.416 -89.502831 255 255 255
-990.38208 -642.34485 -3.2983532 255 255 255
1597.4697 1560.9198 2.8241007 255 255 255
836.10339 1194.6387 2.0126007 255 255 255
-346.9538 -558.66479 -1.6475422 255 255 255
1632.3959 1210.9287 3.0672128 255 255 255
6793.2788 6339.1274 19.349474 255 255 255
2155.5667 1745.4336 3.3881071 255 255 255
2583.0234 1042.2531 4.9313755 255 255 255
991.58362 1048.6426 2.2004037 255 255 255
2325.9302 823.9314 4.9130912 255 255 255
-775.49841 -1380.0531 -3.0951369 255 255 255
1721.203 943.7514 4.0265646 255 255 255
14727.604 14854.473 22.337749 255 255 255
5705.7334 4393.1089 7.7089124 255 255 255
-348.68442 -576.74652 -1.6560068 255 255 255
844.9162 684.72949 2.3390534 255 255 255
1210.7808 1392.8297 3.6106961 255 255 255
-2447.311 -1392.3245 -7.0274448 255 255 255
818.23914 1105.2197 2.0160844 255 255 255
1789.6866 1417.6333 4.0279393 255 255 255
-513.83618 -611.19543 -2.5287409 255 255 255
-2448.5867 -3128.9607 -6.0904803 255 255 255
-1607.6058 -592.02545 -5.2061329 255 255 255
-887.73114 -916.466 -2.1690593 255 255 255
2128.9761 1289.5068 5.4063096 255 255 255
2333.0039 1428.2782 5.051331 255 255 255
414.97037 597.87445 1.3596561 255 255 255
-416.59885 -409.59802 -1.9124812 255 255 255
975.05078 918.51196 1.4793971 255 255 255
-929.67371 -550.76044 -3.5701101 255 255 255
-15765.852 -14192.956 -44.509205 255 255 255
1035.3445 975.37048 2.2836142 255 255 255
-172.43658 -57.859211 -1.520692 255 255 255
-845.30603 -1174.1329 -3.5326338 255 255 255
5957.772 6021.4741 13.402253 255 255 255
3384.0337 2877.9556 5.7043719 255 255 255
250.38713 193.63272 0.72065586 255 255 255
682.69122 938.07758 1.8051786 255 255 255
4590.9263 2877.1343 5.0224419 255 255 255
3326.5308 2589.4272 3.6534104 255 255 255
-2681.1536 -2435.0894 -7.6337919 255 255 255
6867.1294 4365.0889 10.541248 255 255 255
914.11877 1194.8209 2.0979056 255 255 255
976.56964 1084.6511 2.4683876 255 255 255
401.25485 571.89764 1.3276078 255 255 255
-45651.605 -26404.395 -101.61929 255 255 255
416.29294 1192.7382 1.6377765 255 255 255
836.79456 949.99683 2.0038781 255 255 255
4050.1716 3103.3071 5.4403067 255 255 255
828.60309 945.51813 1.9928991 255 255 255
805.086 422.36798 2.1924131 255 255 255
1963.6586 1804.4884 3.1357176 255 255 255
-595.51642 -966.5813 -2.4833155 255 255 255
2095.353 2015.5901 5.5145826 255 255 255
-468.98993 -610.88922 -1.6921031 255 255 255
4639.9058 2829.9111 5.1285591 255 255 255
805.91461 934.23456 1.9663416 255 255 255
-1673.0465 -1439.7347 -5.223114 255 255 255
1858.1177 1566.7473 3.9607673 255 255 255
15754.475 6215.272 17.387629 255 255 255
-2564.2876 -1265.9268 -6.7215104 255 255 255
-722.94397 -892.88641 -2.0332451 255 255 255
2637.0164 2139.3765 7.2757773 255 255 255
-806.59656 -683.91486 -2.0232368 255 255 255
1412.0647 1127.7891 3.0547371 255 255 255
1168.2041 310.53122 1.8471302 255 255 255
34.796406 347.93732 0.73434293 255 255 255
1347.9961 1601.4685 3.1267955 255 255 255
-97.377365 -110.29176 -1.151382 255 255 255
1055.4846 779.56555 1.9287771 255 255 255
5834.6953 4478.7822 13.928627 255 255 255
887.6521 844.56885 2.0983832 255 255 255
-193.29747 -123.05793 -1.2107598 255 255 255
1271.3926 965.84656 2.5970056 255 255 255
5690.5537 2501.468 6.6612258 255 255 255
-2554.8872 -1915.2157 -7.4391456 255 255 255
1008.0897 873.66754 2.2830343 255 255 255
-1233.6528 -1577.3348 -3.8168809 255 255 255
-3672.1694 -2302.2615 -10.462852 255 255 255
962.32208 1167.1754 2.1580043 255 255 255
7119.1782 4166.437 19.290739 255 255 255
-135590.89 -161442.84 -345.99402 255 255 255
1431.4069 1794.3378 3.5342059 255 255 255
1835.5593 2014.3306 4.743875 255 255 255
2617.8477 1318.7228 4.4718266 255 255 255
1668.6698 1201.5558 3.1264372 255 255 255
2991.729 1116.5911 6.1801777 255 255 255
3377.8467 2762.1897 7.770504 255 255 255
-722.67352 -899.54791 -2.4174538 255 255 255
849.41217 948.60925 2.0234427 255 255 255
687.8548 888.98706 1.8042607 255 255 255
1414.0133 1006.4021 2.8445156 255 255 255
2016.0515 1116.1562 3.7713413 255 255 255
856.04315 987.02911 2.0310104 255 255 255
469.15091 668.20789 1.4626241 255 255 255
8737.4609 3496.6145 9.832675 255 255 255
1299.0873 702.40143 2.5699561 255 255 255
-639436 -664356.38 -1597.1482 255 255 255
-2264.6733 -1986.3235 -6.2355261 255 255 255
844.28632 500.04916 1.3885115 255 255 255
-935.88965 -1320.3251 -3.0325377 255 255 255
6028.375 4574.3477 7.0712395 255 255 255
-128.6429 -152.20334 -1.2420847 255 255 255
4107.6938 2559.9487 4.8496585 255 255 255
-269.89841 -749.09369 -2.2525194 255 255 255
-3101.3481 -1341.7429 -8.5596609 255 255 255
-801.7309 -597.75226 -2.6838734 255 255 255
5068.4165 2820.1333 5.5644908 255 255 255
807.23468 830.50439 1.9741303 255 255 255
-990.90137 -1376.9772 -3.3030307 255 255 255
1793.0912 1231.4268 3.7501335 255 255 255
-506.43439 -517.99219 -1.7407844 255 255 255
1031.5394 721.63031 2.0637763 255 255 255
-2761.8613 -2318.7446 -8.0860291 255 255 255
1162.3674 951.91669 2.3943136 255 255 255
-1181.762 -1282.2736 -4.2191963 255 255 255
561.18762 507.40228 1.2128295 255 255 255
979.45074 1002.111 2.1991146 255 255 255
722.06274 750.25653 1.8424808 255 255 255
1436.4133 916.22717 2.672096 255 255 255
1072.0731 861.63263 1.7312671 255 255 255
-103.71279 -42.628067 -1.2420007 255 255 255
-2896.834 -3025.364 -8.2636452 255 255 255
1096.1152 413.85593 1.2146326 255 255 255
827.96198 870.83417 1.9975771 255 255 255
13575.727 2801.6816 14.682112 255 255 255
-2914.55 -3026.241 -7.2690983 255 255 255
-5807.7324 -2910.1375 -8.1866121 255 255 255
6697.5415 2499.9719 7.8338223 255 255 255
585.92035 219.17804 0.87116015 255 255 255
435.40399 600.237 1.3903139 255 255 255
908.09454 809.2522 2.14083 255 255 255
6674.7441 2494.0591 7.8197203 255 255 255
205.8875 317.19998 0.87627584 255 255 255
938.85693 757.44635 2.315016 255 255 255
1355.8926 1230.9614 3.4393966 255 255 255
881.32666 1040.8787 2.0603819 255 255 255
8414.1777 2193.374 10.643164 255 255 255
-176.27437 -66.496567 -1.3618088 255 255 255
818.51776 896.91327 1.9839383 255 255 255
3023.9509 2318.4832 6.7878079 255 255 255
1570.9679 1356.4275 3.7834394 255 255 255
320.89523 594.15479 1.2350581 255 255 255
1009.5715 937.77441 2.5358577 255 255 255
2339.9343 971.98315 4.5941763 255 255 255
-1023.8487 -822.22913 -2.4294529 255 255 255
471.90314 667.40741 1.4655867 255 255 255
-1658.7711 -637.11322 -2.9884887 255 255 255
876.50659 843.49976 2.0751522 255 255 255
854.92944 786.16235 2.0723536 255 255 255
453.68683 536.52991 1.4003053 255 255 255
159.71359 467.65045 0.9601534 255 255 255
-2615.9585 -2007.0533 -8.9105492 255 255 255
1500.5391 912.29956 3.0825076 255 255 255
1814.7375 1314.8754 3.8794158 255 255 255
1048.7559 521.42358 1.9673361 255 255 255
6485.3223 6095.8086 16.866415 255 255 255
337.75009 284.27087 0.80959702 255 255 255
3141.1987 1333.3236 5.7212729 255 255 255
1161.6549 1144.868 2.8460691 255 255 255
-1232.126 -480.81827 -4.0220838 255 255 255
955.0733 934.04297 2.1781514 255 255 255
1265.6069 561.68011 2.4966078 255 255 255
933.52814 853.1264 2.1642604 255 255 255
-1999.8215 -1128.8564 -5.5508175 255 255 255
-49.776741 -50.352802 -1.128373 255 255 255
-4563.6245 -4604.9526 -8.2721987 255 255 255
962.10352 1166.9738 2.1578689 255 255 255
876.47888 857.17126 2.0762143 255 255 255
805.72839 854.08203 1.9714639 255 255 255
-1092.8328 -809.83398 -2.6300883 255 255 255
13600.833 9741.9141 39.513237 255 255 255
-13132.887 -9059.4043 -36.950005 255 255 255
1476.8873 944.27142 3.33462 255 255 255
834.89551 693.16632 1.6505388 255 255 255
1140.2969 994.08069 2.2443557 255 255 255
1193.0004 746.58533 2.3467505 255 255 255
-1817.63 -1343.6492 -4.0021315 255 255 255
3667.6238 2993.1892 8.7383089 255 255 255
1465.8301 1368.9274 3.5577221 255 255 255
251.87004 816.28003 1.3148581 255 255 255
10218.856 5097.811 24.499144 255 255 255
1047.7488 744.05786 2.0850558 255 255 255
829.09875 945.74005 1.9938731 255 255 255
1965.6255 729.19287 4.387157 255 255 255
293.71277 516.56287 1.1526161 255 255 255
-702.75696 -388.52631 -1.9094797 255 255 255
921.0014 834.52777 2.1501777 255 255 255
402.82278 603.31012 1.3457466 255 255 255
2985.5872 2122.8127 3.4405329 255 255 255
1293.5787 963.25836 2.8411355 255 255 255
836.46942 949.7677 2.0037482 255 255 255
314.23221 507.92407 1.1727242 255 255 255
-385.72858 -315.46457 -2.0930672 255 255 255
-517.97162 -277.09045 -1.6386429 255 255 255
-7168.7793 -5023.6772 -16.849836 255 255 255
3243.3948 1891.4044 7.0942464 255 255 255
5797.3931 2673.1296 6.5659995 255 255 255
-964.49353 -1446.7611 -4.3433208 255 255 255
851.14099 895.78448 2.0338273 255 255 255
717.75989 981.78491 1.8553581 255 255 255
872.50574 826.40222 2.0743842 255 255 255
662.052 885.68573 1.7668898 255 255 255
-168.59027 -38.925926 -1.4097334 255 255 255
-1046.1791 -790.75653 -3.6104848 255 255 255
1658.7882 1133.7789 3.1430705 255 255 255
1055.1082 886.86884 1.935712 255 255 255
785.72131 923.13831 1.9354018 255 255 255
359.29202 615.39703 1.2942469 255 255 255
150.198 282.25797 0.74157572 255 255 255
-767.0896 -239.13052 -2.9105248 255 255 255
2108.4568 1768.8722 4.5191798 255 255 255
-5283.6235 -4643.0806 -15.23394 255 255 255
475.03995 542.65552 1.4375311 255 255 255
1289.2833 1160.7078 2.5786579 255 255 255
-3504.9727 -2444.3635 -9.8056192 255 255 255
1147.7866 684.0611 2.2635152 255 255 255
-653.15521 -660.70038 -2.6682253 255 255 255
1536.6711 970.88147 3.0938401 255 255 255
-2956.8772 -2523.0603 -7.77701 255 255 255
1969.993 1812.2128 3.1376004 255 255 255
2951.9363 1963.7443 4.1875687 255 255 255
274.95786 260.77472 0.98608166 255 255 255
-1100.0098 -602.75232 -2.355022 255 255 255
-864.73804 -738.40338 -2.2254193 255 255 255
251.89825 404.88605 1.0154028 255 255 255
251.79124 568.54803 1.137261 255 255 255
-456.36716 -650.49573 -2.3963559 255 255 255
863.70508 876.21796 2.0527914 255 255 255
1219.8342 751.83984 2.7423806 255 255 255
-652.1485 -502.03333 -1.7588109 255 255 255
946.10724 964.70679 2.1555204 255 255 255
-1565.6342 -928.60907 -4.7009907 255 255 255
9680.0957 8028.8281 25.856764 255 255 255
-1944.7993 -796.4314 -5.4862199 255 255 255
-626.72473 -373.12506 -1.700091 255 255 255
2177.3098 2428.7769 6.4717512 255 255 255
423.54843 1105.6906 1.6030972 255 255 255
-1305.1223 -1165.5902 -2.6391084 255 255 255
-1252.1965 -691.0661 -3.5783761 255 255 255
-1087.4568 -1265.9521 -3.0725095 255 255 255
4123.8232 2568.123 4.860466 255 255 255
1376.0988 1172.6407 2.6923053 255 255 255
-1628.712 -1012.8366 -4.6943803 255 255 255
93.47197 165.85599 0.518085 255 255 255
567.89886 280.47369 1.404514 255 255 255
2803.1838 1983.2196 3.9817121 255 255 255
436.53705 563.66315 1.3784207 255 255 255
-1689.576 -2224.1479 -6.276752 255 255 255
2165.0037 1740.0413 3.4014604 255 255 255
-16833.521 -6968.2466 -51.092838 255 255 255
-541.88635 -598.73309 -2.0923815 255 255 255
4910.5498 3681.949 11.294892 255 255 255
1870.1302 1550.3417 3.8756874 255 255 255
-2672.8745 -2257.9729 -6.3193712 255 255 255
2158.0413 1746.5809 3.3902881 255 255 255
969.91675 1020.5729 2.1799109 255 255 255
2008.1998 1966.859 4.8546443 255 255 255
3123.7131 1931.7827 4.4059472 255 255 255
1425.0309 1131.7036 3.5789981 255 255 255
229.01291 497.84659 1.0567356 255 255 255
979.43542 871.34033 2.2348654 255 255 255
849.54968 861.33868 2.0338869 255 255 255
1507.0349 1264.2252 3.2671053 255 255 255
836.44751 609.00256 1.656743 255 255 255
4013.4272 1658.1132 6.043932 255 255 255
232.24765 492.61862 1.0554794 255 255 255
-997.98279 -965.72046 -2.6930048 255 255 255
736.80811 531.23303 0.81492805 255 255 255
5697.4009 2502.2422 6.6685948 255 255 255
110164.13 53925.094 272.59268 255 255 255
335.86194 417.02698 0.80768764 255 255 255
-4545.6138 -3588.417 -7.5063429 255 255 255
3033.958 4777.98 10.491113 255 255 255
-1112.0896 -1389.0291 -4.2504702 255 255 255
410.1416 595.02301 1.3512598 255 255 255
737.54944 497.70746 1.1900554 255 255 255
992.92224 1050.666 2.2063794 255 255 255
851.25824 1030.2843 2.0236902 255 255 255
6064.4385 2647.2402 5.7327442 255 255 255
1813.2322 1567.5015 4.7797027 255 255 255
5676.9678 2494.3064 6.6569395 255 255 255
882.84521 1007.817 2.0636878 255 255 255
-22021.844 -15152.034 -61.18618 255 255 255
-964.91028 -806.49457 -2.3394339 255 255 255
830.93433 837.09863 2.0122566 255 255 255
1909.1783 1124.088 3.577611 255 255 255
282.12555 494.53763 1.1191643 255 255 255
5910.8345 3764.7065 12.940173 255 255 255
310.35925 541.41742 1.187624 255 255 255
399.05014 430.40106 1.1350571 255 255 255
607.08826 361.28012 0.65760893 255 255 255
2088.9285 1770.3234 3.2976496 255 255 255
296.45251 529.664 1.1657789 255 255 255
-723.42206 -723.29834 -2.2860863 255 255 255
310.7775 532.87323 1.1827091 255 255 255
913.97968 814.51837 1.5456337 255 255 255
61336.5 23330.988 145.4303 255 255 255
407.44482 602.23328 1.3505892 255 255 255
-712.86786 -607.62476 -2.7125525 255 255 255
314.52338 506.24399 1.1738298 255 255 255
1547.585 1283.0946 2.8965724 255 255 255
3411.2832 2276.2441 7.9320297 255 255 255
868.3056 935.18439 2.0517361 255 255 255
4582.7305 1867.7697 6.4196353 255 255 255
1477.1021 793.28619 3.6495762 255 255 255
-2605.0764 -484.37042 -9.7362795 255 255 255
3055.3828 2217.0195 4.0511098 255 255 255
829.47668 842.5069 2.00915 255 255 255
982.4928 1037.3738 2.1916518 255 255 255
1591.9905 1579.1704 3.8961878 255 255 255
-8697.4023 -5219.2925 -21.597799 255 255 255
901.49939 863.3457 2.1106875 255 255 255
-9693.2725 -8452.4844 -20.734058 255 255 255
-26124.35 -14823.334 -68.030914 255 255 255
7806.6289 3866.9834 17.20155 255 255 255
3075.1257 2595.604 5.1535797 255 255 255
610.03979 681.48492 1.6502036 255 255 255
6825.6484 5211.333 8.0791874 255 255 255
-984.8479 -874.93274 -2.215848 255 255 255
-1391.4165 -1239.3821 -3.5876224 255 255 255
8760.5664 4321.6816 22.589338 255 255 255
-4034.4695 -3052.6526 -7.8635936 255 255 255
-873.64587 -616.7309 -2.0452216 255 255 255
1667.4219 1157.4967 2.7438347 255 255 255
253.46364 545.82281 1.1212047 255 255 255
-6526.4448 -3940.2781 -16.266502 255 255 255
9351.1572 3698.7119 22.006941 255 255 255
-11231.871 -8266.002 -26.871931 255 255 255
2092.7793 1565.9546 5.053699 255 255 255
563.74841 677.36884 1.6022891 255 255 255
5479.9731 1523.2191 8.7279644 255 255 255
2140.3428 2099.3564 6.0785713 255 255 255
-1052.8661 -1368.0742 -4.3063412 255 255 255
396.14511 411.95303 1.066641 255 255 255
1838.8252 1178.6434 4.0425181 255 255 255
1534.3363 1350.0724 3.1772759 255 255 255
820.56158 894.6181 1.9897527 255 255 255
1057.2747 906.32355 2.3493145 255 255 255
914.40784 939.547 2.1171334 255 255 255
1079.4272 908.82837 2.5528893 255 255 255
-4570.1479 -2633.688 -11.65558 255 255 255
786.39807 920.6123 1.9382713 255 255 255
314.18069 582.54944 1.2178888 255 255 255
690.33813 295.71829 0.84677917 255 255 255
-1897.3674 -1587.0087 -4.7299552 255 255 255
2655.5266 2652.1562 6.9278245 255 255 255
312.98257 569.4494 1.2055568 255 255 255
81.43441 193.87668 0.54235846 255 255 255
360.08487 602.25739 1.2869464 255 255 255
477.19489 541.83118 1.4410814 255 255 255
1423.4208 704.79572 2.6025114 255 255 255
819.54688 864.75415 1.9900259 255 255 255
824.91931 941.84735 1.9904141 255 255 255
1187.1409 734.30194 2.6639357 255 255 255
3346.4431 2950.1797 8.1908436 255 255 255
18547.48 23467.621 61.520695 255 255 255
65201.648 35210.277 158.54698 255 255 255
1821.989 1102.2551 3.4998043 255 255 255
805.27374 933.62335 1.9638839 255 255 255
2634.9817 1149.5664 4.7855759 255 255 255
-176.1134 -232.13467 -1.9523203 255 255 255
-162600.25 -118573.24 -428.22928 255 255 255
1339.5593 1265.7101 2.6720488 255 255 255
883.64191 832.00861 2.090682 255 255 255
657.21332 301.94147 0.85338861 255 255 255
-1593.2119 -1661.8398 -7.7358422 255 255 255
1132.5939 620.75464 2.3386292 255 255 255
8382.3496 2151.8628 10.936773 255 255 255
1942.6798 2121.4763 4.9546962 255 255 255
660.13055 222.89075 0.72131389 255 255 255
-1073.9202 -1014.6698 -2.5846462 255 255 255
1408.1462 768.25592 2.7793956 255 255 255
4061.6184 1924.6332 8.4087601 255 255 255
6259.7378 2269.356 7.781496 255 255 255
501.8616 466.6658 1.2523642 255 255 255
911.29968 1183.5265 2.0959527 255 255 255
1657.0494 1194.5367 3.1110637 255 255 255
2745.7158 1900.0356 6.6086283 255 255 255
276.84381 591.24182 1.1827635 255 255 255
314.32092 672.60352 1.2763604 255 255 255
267.24475 504.61447 1.1066072 255 255 255
2671.2014 2248.7571 6.2176709 255 255 255
-920.08282 -596.27673 -2.0775776 255 255 255
2039.5874 1134.1937 3.793993 255 255 255
911.55023 942.95996 2.1149762 255 255 255
13813.507 6374.6646 15.39238 255 255 255
-172.96275 -42.147327 -1.4411988 255 255 255
5089.2734 5431.6655 13.478552 255 255 255
6471.7129 3088.4316 6.5839157 255 255 255
-974.25604 -742.59058 -2.3045509 255 255 255
300.0889 335.12973 0.76466465 255 255 255
-500.52893 -540.79193 -1.771813 255 255 255
757.26178 439.36923 1.2353944 255 255 255
591.46716 305.22122 0.58379096 255 255 255
415.61273 595.87152 1.3602108 255 255 255
-1052.7327 -1261.4928 -3.4667542 255 255 255
4128.6841 1913.2811 10.90291 255 255 255
882.56732 751.98309 2.3211446 255 255 255
1018.5984 1288.7499 2.2158024 255 255 255
857.62006 926.85175 2.0371177 255 255 255
1282.1722 1211.3433 2.5477295 255 255 255
-546.05957 -808.46362 -2.0628629 255 255 255
-745.43842 -700.62653 -2.2896912 255 255 255
4109.4053 2558.1035 4.8487582 255 255 255
6434.2642 3099.4727 6.5480161 255 255 255
4624.2686 2530.8091 5.4274545 255 255 255
419.38992 538.01465 1.3434386 255 255 255
850.42969 949.29602 2.0249786 255 255 255
3957.7615 2788.3245 8.8045893 255 255 255
928.90778 928.13983 2.1433086 255 255 255
-1074.8872 -2017.1414 -4.4689775 255 255 255
-1793.4166 -1915.1621 -6.9610062 255 255 255
854.94409 833.18726 2.0475366 255 255 255
-85.61763 -94.473656 -1.2765952 255 255 255
927.60663 1504.5541 2.1235375 255 255 255
721.11005 891.73688 1.8537554 255 255 255
-1229.4618 -1388.65 -4.252562 255 255 255
4235.2944 2882.5486 4.696764 255 255 255
3359.5029 2757.531 8.4117422 255 255 255
1439.0406 1135.9486 2.7964892 255 255 255
480.98965 1166.665 1.6723877 255 255 255
1311.0889 2140.0886 4.222281 255 255 255
1051.5537 795.57257 2.1092284 255 255 255
1715.5979 1227.8766 2.0963604 255 255 255
4646.1699 2834.7402 5.1359968 255 255 255
587.24152 792.69934 1.4827743 255 255 255
4633.8091 2826.8647 5.1217766 255 255 255
-1005.7988 -155.26128 -2.1834075 255 255 255
1370.5726 1027.4664 2.7520189 255 255 255
1593.0038 1222.1532 3.0049295 255 255 255
-17758.393 -12817.681 -32.45956 255 255 255
972.34491 1023.8182 2.1867642 255 255 255
-1677.8763 -755.65259 -5.2713633 255 255 255
13868.187 2769.6541 15.033345 255 255 255
787.10059 923.43695 1.9381942 255 255 255
-432.33936 -586.2121 -1.8555428 255 255 255
-980.47021 -589.0094 -3.1952338 255 255 255
1277.6802 1311.2201 3.0047879 255 255 255
829.31909 945.75183 1.9943498 255 255 255
6982.2896 6694.9492 20.267746 255 255 255
347.00522 419.67484 1.1787177 255 255 255
1739.8981 1624.7473 4.7128215 255 255 255
1460.3204 990.67999 2.9718361 255 255 255
2877.0505 2276.0591 3.8081193 255 255 255
1987.1935 1807.1121 3.1658251 255 255 255
1305.1069 1218.0269 2.7704644 255 255 255
327.89954 555.9516 1.2175438 255 255 255
-1573.119 -905.93597 -2.7856781 255 255 255
1293.7014 1203.2792 3.4480886 255 255 255
318.62494 224.87843 1.100371 255 255 255
1064.0168 993.74298 2.1321561 255 255 255
2827.231 1061.6377 6.4832149 255 255 255
7402.6318 3387.1379 8.6765919 255 255 255
-105.24566 -46.587074 -1.2704307 255 255 255
6442.7437 1911.5168 9.0345201 255 255 255
4386.5068 2853.5974 4.8438601 255 255 255
998.32959 1044.8842 2.2154405 255 255 255
-839.65753 -382.65665 -2.0560224 255 255 255
2326.4561 824.80255 4.9186959 255 255 255
-1823.3828 -3376.8528 -6.1961746 255 255 255
-2146.8113 -2595.3857 -5.8985848 255 255 255
5266.1792 3150.8818 5.385623 255 255 255
5368.8384 4772.0664 15.031638 255 255 255
2235.1152 2143.5745 3.2587869 255 255 255
-27166.852 -17347.633 -62.989616 255 255 255
5693.3647 2497.7554 6.6642323 255 255 255
990.16376 1048.6683 2.2038195 255 255 255
984.78143 1039.4003 2.1978686 255 255 255
343.01169 410.09229 0.79120594 255 255 255
634.68292 231.88928 0.67550772 255 255 255
-1989.2388 -1760.8887 -6.7322283 255 255 255
-463496.94 -219298.92 -1131.2078 255 255 255
1104.8158 1127.7753 2.6749063 255 255 255
-55.860729 -49.066425 -1.1572144 255 255 255
-3151.9368 -1468.0425 -7.6080651 255 255 255
2532.8054 1633.0321 5.9331851 255 255 255
-7056.9375 -8210.1553 -22.519196 255 255 255
1163.7267 572.68567 1.4622785 255 255 255
7183.6733 3292.48 8.4090557 255 255 255
462.92859 424.0965 1.4290549 255 255 255
2924.481 3916.2681 14.913762 255 255 255
-1760.5728 -2361.0405 -5.1592045 255 255 255
6247.4033 2277.4639 7.7851243 255 255 255
-1582.3732 -1454.4143 -3.6329997 255 255 255
-1480.6746 -1346.9734 -4.7699337 255 255 255
866.52081 1027.6801 2.0446546 255 255 255
983.48944 1146.5861 2.1848979 255 255 255
808.99799 831.80627 1.9775767 255 255 255
-758.34924 -871.13483 -2.0920992 255 255 255
1540.1624 1374.9622 3.1626942 255 255 255
352.91739 596.61554 1.2753171 255 255 255
829.50348 842.96765 2.0106394 255 255 255
1359.7686 910.41016 2.8160958 255 255 255
2111.1296 1904.313 4.9541225 255 255 255
