ply
format ascii 1.0
comment PCL generated
element vertex 1082
property float x
property float y
property float z
property uchar red
property uchar green
property uchar blue
element face 0
element camera 0
property float view_px
property float view_py
property float view_pz
property float x_axisx
property float x_axisy
property float x_axisz
property float y_axisx
property float y_axisy
property float y_axisz
property float z_axisx
property float z_axisy
property float z_axisz
property float focal
property float scalex
property float scaley
property float centerx
property float centery
property int viewportx
property int viewporty
property float k1
property float k2
end_header
150.73763 79.851753 -0.70071703 255 255 255
91.307137 35.297729 -0.61561245 255 255 255
221.8324 137.5322 -0.58898902 255 255 255
439.49902 380.78568 0.084644668 255 255 255
114.72857 40.937271 -0.78355026 255 255 255
309.62704 269.93335 -0.38286775 255 255 255
112.35691 47.924839 -0.72006118 255 255 255
625.73871 554.84424 0.2727626 255 255 255
418.30261 407.18872 0.4625966 255 255 255
204.99046 181.2415 -0.50626963 255 255 255
107.87145 39.322334 -0.70173949 255 255 255
13291.921 12966.41 25.707266 255 255 255
25282.713 26582.379 68.860367 255 255 255
158.21501 82.934647 -0.71729398 255 255 255
456.0705 387.69556 0.021819321 255 255 255
191.1001 134.66237 -0.53123367 255 255 255
1426.4758 1317.3467 1.610325 255 255 255
412.43652 331.18829 -0.14193135 255 255 255
302.94516 246.66078 -0.37837332 255 255 255
185.63943 114.36365 -0.65244734 255 255 255
-547.94421 -680.95758 -2.2925208 255 255 255
-617.71393 -688.33929 -2.6080649 255 255 255
170.45804 102.08514 -0.70992917 255 255 255
170.97878 110.95111 -0.52270663 255 255 255
195.97549 108.92458 -0.62912405 255 255 255
180.12257 86.760704 -0.77661622 255 255 255
378.52057 348.15683 -0.043729372 255 255 255
186.66644 111.04953 -0.61229938 255 255 255
-1304.3942 -1242.856 -3.2850804 255 255 255
2545.7205 3028.9792 12.939571 255 255 255
-326.41702 -449.76343 -2.3023019 255 255 255
127.935 53.475555 -0.74873418 255 255 255
435.58151 389.30786 -0.12169547 255 255 255
219.59291 127.53866 -0.6784786 255 255 255
153.2308 76.809135 -0.71345103 255 255 255
200.88821 110.77407 -0.65125239 255 255 255
123.50186 53.688259 -0.76455551 255 255 255
308.96237 250.31357 -0.22585298 255 255 255
111.05331 34.963284 -0.82255715 255 255 255
294.71005 195.12239 -0.44643429 255 255 255
190.69991 110.14527 -0.57951564 255 255 255
208.82133 126.1198 -0.64926946 255 255 255
114.40629 46.492249 -0.70091194 255 255 255
86.643105 25.001608 -0.75898206 255 255 255
534.83527 428.48071 -0.14230268 255 255 255
195.79564 107.21559 -0.65157443 255 255 255
161.04173 89.208389 -0.70254481 255 255 255
103.89082 45.909565 -0.59336734 255 255 255
85.219185 16.495045 -0.81338519 255 255 255
143.5564 67.133926 -0.69997317 255 255 255
185.13927 108.64872 -0.64745814 255 255 255
-149.89874 -206.01331 -1.3136363 255 255 255
91.132225 24.489941 -0.81044441 255 255 255
1294.3644 1184.981 0.94451839 255 255 255
167.81152 89.397667 -0.69669682 255 255 255
-175.34178 -235.37752 -1.3811193 255 255 255
-296.09369 -373.04584 -1.7330627 255 255 255
290.83249 207.26091 -0.4737092 255 255 255
95.278954 25.378771 -0.80870229 255 255 255
171.51724 107.35877 -0.792602 255 255 255
-105.79211 -190.77065 -1.2849791 255 255 255
178.00865 101.16406 -0.66478324 255 255 255
-703.97205 -810.40967 -2.5926723 255 255 255
-445.90366 -514.45355 -1.9013944 255 255 255
1073.0641 1111.2968 1.2905087 255 255 255
728.11096 784.34967 0.33877644 255 255 255
100.0741 24.112526 -0.86630684 255 255 255
3441.3606 3896.8547 10.600116 255 255 255
114.76627 49.213108 -0.71431518 255 255 255
-1433.0323 -1510.0806 -4.5913563 255 255 255
119.24361 72.209389 -0.66801769 255 255 255
198.67065 109.03226 -0.65384889 255 255 255
111.69921 35.376633 -0.82280248 255 255 255
167.4601 104.92439 -0.47723612 255 255 255
-2309.5747 -2543.7437 -5.3544278 255 255 255
118.08725 45.993446 -0.75738049 255 255 255
-367.56662 -451.49792 -2.0200586 255 255 255
134.2587 59.07415 -0.72095883 255 255 255
-153.75146 -219.27116 -1.3788642 255 255 255
-172.87531 -253.27541 -1.4170192 255 255 255
136.88179 79.523712 -0.56690317 255 255 255
181.33514 96.818436 -0.65656435 255 255 255
182.03406 97.282372 -0.65687543 255 255 255
150.35309 107.50613 -0.70209521 255 255 255
-4950.3608 -4917.2749 -11.174606 255 255 255
156.6748 81.990799 -0.6911602 255 255 255
832.44348 787.26227 0.46802929 255 255 255
991.15948 940.31427 1.259632 255 255 255
306.37045 210.69894 -0.55874139 255 255 255
212.3192 170.41936 -0.40931973 255 255 255
732.56964 789.99109 0.71951139 255 255 255
205.58223 118.51781 -0.58397835 255 255 255
148.45155 84.789421 -0.57670623 255 255 255
417.9166 320.29062 -0.30405036 255 255 255
407.96741 332.53339 -0.20986725 255 255 255
131.48026 72.140465 -0.75658292 255 255 255
120.48287 69.935959 -0.61856097 255 255 255
131.0387 67.043076 -0.66977334 255 255 255
164.10909 88.529716 -0.69431233 255 255 255
62.36071 38.423328 -0.33974102 255 255 255
682.64093 684.96887 1.1441816 255 255 255
-146.97569 -219.15956 -1.3379928 255 255 255
198.40796 143.63647 -0.46689066 255 255 255
-539.79272 -588.44952 -2.0004246 255 255 255
441.10703 330.27936 -0.10568445 255 255 255
149.67931 87.041824 -0.52793449 255 255 255
1590.0464 1651.9778 2.1754498 255 255 255
208.68912 121.37046 -0.51444358 255 255 255
122.86449 58.94381 -0.6811887 255 255 255
728.3338 620.42242 0.26925105 255 255 255
181.86858 113.53797 -0.70947456 255 255 255
134.44705 60.563377 -0.72185445 255 255 255
166.90698 91.175514 -0.69413698 255 255 255
8323.7549 8034.2944 16.209478 255 255 255
-258.22549 -311.99234 -1.5357152 255 255 255
190.05339 158.39229 -0.59851593 255 255 255
144.34473 67.669067 -0.70065141 255 255 255
1140.3013 1002.4412 0.92134607 255 255 255
331.91641 247.62195 -0.37198463 255 255 255
1263.6481 1153.9626 1.9096421 255 255 255
-1418.4135 -1889.9497 -5.6472645 255 255 255
242.88882 180.81636 -0.21469258 255 255 255
385.73715 326.35983 -0.4362298 255 255 255
111.7578 45.747223 -0.6845665 255 255 255
214.07535 113.65727 -0.72553766 255 255 255
123.89077 58.111713 -0.64888656 255 255 255
286.84702 221.98056 -0.40285134 255 255 255
270.81125 223.03937 -0.34552836 255 255 255
264.0704 150.92558 -0.69131315 255 255 255
197.82967 117.69547 -0.61793411 255 255 255
258.03397 223.02271 -0.48506624 255 255 255
-164.95276 -210.70622 -1.2720963 255 255 255
266.45151 185.20631 -0.47195035 255 255 255
119.32439 48.864952 -0.76625931 255 255 255
348.99771 255.99608 -0.4299418 255 255 255
256.3909 197.90701 -0.40581051 255 255 255
158.32082 78.97123 -0.68043643 255 255 255
132.62874 58.117081 -0.71784914 255 255 255
424.54471 348.96317 -0.056060642 255 255 255
120.56407 49.525002 -0.73594636 255 255 255
281.19095 208.61977 -0.51095414 255 255 255
99.371437 31.81917 -0.73243171 255 255 255
224.41946 123.09989 -0.69857585 255 255 255
222.10146 144.45065 -0.61639065 255 255 255
337.42017 261.04874 -0.24758418 255 255 255
143.33597 70.880173 -0.70591182 255 255 255
264.59329 199.70734 -0.29601198 255 255 255
5200.6201 5613.8999 16.857149 255 255 255
341.62558 263.7431 -0.23401536 255 255 255
-139.29576 -219.5517 -1.4313028 255 255 255
1231.5356 1124.6707 1.4989034 255 255 255
400.77164 332.2876 -0.16753222 255 255 255
244.13261 168.87509 -0.68410152 255 255 255
-520.6676 -698.83807 -2.1558423 255 255 255
-741.80981 -807.2467 -3.1845703 255 255 255
636.23627 664.40021 0.72552842 255 255 255
1031.3132 897.03754 0.65652847 255 255 255
307.90762 229.28937 -0.36446598 255 255 255
1075.7056 999.72479 1.4613554 255 255 255
146.22276 64.755569 -0.72856098 255 255 255
-219.42528 -285.86887 -1.495091 255 255 255
-2738.584 -2909.3262 -7.4026403 255 255 255
193.79291 164.31282 -0.23901597 255 255 255
105.61414 49.650764 -0.55246621 255 255 255
-1074.4371 -1130.4261 -3.3152609 255 255 255
669.40607 570.4856 0.33581328 255 255 255
212.24675 133.5352 -0.607207 255 255 255
-1246.2578 -1372.1793 -4.2588587 255 255 255
214.91072 216.81476 0.12258188 255 255 255
109.30603 44.565197 -0.67590326 255 255 255
-2361.5764 -2782.7305 -6.3954687 255 255 255
2532.3635 2717.2769 7.670136 255 255 255
-676.75372 -736.83923 -2.3507016 255 255 255
186.02496 115.16295 -0.61065674 255 255 255
113.08649 48.896183 -0.65081525 255 255 255
-490.81644 -602.19183 -2.774219 255 255 255
111.18056 45.727646 -0.67082435 255 255 255
455.08624 372.33655 -0.34190074 255 255 255
130.7345 58.723835 -0.63305384 255 255 255
-616.67035 -673.42456 -2.3364711 255 255 255
8111.2979 7304.9268 14.518123 255 255 255
105.90763 32.739601 -0.82365119 255 255 255
909.65253 822.20728 0.97180486 255 255 255
214.2885 152.57367 -0.34730586 255 255 255
320.7876 255.36032 -0.18292417 255 255 255
184.07599 115.95804 -0.74347723 255 255 255
87.518036 27.287474 -0.70145774 255 255 255
107.40747 32.387463 -0.82986069 255 255 255
91.716469 19.39687 -0.82804853 255 255 255
134.7482 59.318283 -0.75182569 255 255 255
3742.6328 3818.2053 8.7186747 255 255 255
125.56139 45.371571 -0.7652263 255 255 255
341.95953 265.82233 -0.19147581 255 255 255
196.81354 107.62859 -0.65539461 255 255 255
252.11137 197.31882 -0.46489775 255 255 255
147.80838 78.847961 -0.64330202 255 255 255
2187.3018 2170.9417 4.4615397 255 255 255
123.99086 42.520027 -0.80796796 255 255 255
-2560.2051 -2476.7778 -5.3044248 255 255 255
225.1301 148.03284 -0.56946564 255 255 255
134.06516 70.649841 -0.59254104 255 255 255
148.0955 84.371063 -0.6845969 255 255 255
-484.98013 -614.96008 -2.2474957 255 255 255
315.78415 257.90799 -0.19661047 255 255 255
3119.905 3094.1133 6.7855282 255 255 255
183.35017 98.452393 -0.65302169 255 255 255
130.13283 75.509163 -0.59686512 255 255 255
-1103.5052 -1187.0245 -3.1366596 255 255 255
-34368.211 -33899.418 -69.757164 255 255 255
160.28616 84.840141 -0.64803004 255 255 255
197.147 125.5661 -0.5587253 255 255 255
197.20078 119.86188 -0.61850649 255 255 255
231.1021 128.50658 -0.68916285 255 255 255
191.50545 103.46532 -0.65200341 255 255 255
157.32632 101.58863 -0.56539857 255 255 255
198.35982 119.91763 -0.6146335 255 255 255
1018.2651 911.52209 0.88740265 255 255 255
208.2184 127.71201 -0.62808663 255 255 255
91.606567 19.600183 -0.84658957 255 255 255
155.09293 83.967285 -0.81974143 255 255 255
-1519.9453 -1750.2507 -4.6364226 255 255 255
144.57216 86.084808 -0.72362971 255 255 255
186.77829 100.94548 -0.65211207 255 255 255
235.12984 153.95993 -0.56042558 255 255 255
1792.5023 1611.5566 2.0774648 255 255 255
123.37176 51.932274 -0.78594583 255 255 255
-134.10672 -208.33757 -1.3749495 255 255 255
118.99717 45.348 -0.77473909 255 255 255
108.03056 45.402611 -0.879538 255 255 255
471.26184 373.72818 -0.021741927 255 255 255
115.36253 47.120487 -0.70157647 255 255 255
88.336815 22.351753 -0.83292329 255 255 255
564.59888 644.53571 0.67623049 255 255 255
114.29757 37.09726 -0.76669186 255 255 255
-124.22443 -200.62259 -1.3270001 255 255 255
94.364555 37.726177 -0.79188448 255 255 255
-123.67298 -191.007 -1.2538577 255 255 255
966.94958 995.65112 0.53916818 255 255 255
-707.01672 -780.71375 -2.5639434 255 255 255
-168.10985 -233.50735 -1.3537472 255 255 255
195.51437 106.45917 -0.65890735 255 255 255
188.61559 129.93233 -0.43856829 255 255 255
247.8559 214.71469 -0.35740349 255 255 255
191.53728 155.34157 -0.31841192 255 255 255
-63.555988 -137.92825 -1.2291962 255 255 255
727.89185 634.99988 0.27301165 255 255 255
111.66769 44.113476 -0.70724732 255 255 255
-3278.9238 -3242.7832 -7.6412163 255 255 255
293.02667 216.72693 -0.34748444 255 255 255
107.97382 43.531082 -0.67700768 255 255 255
325.83224 276.9776 -0.20103921 255 255 255
-1799.8269 -1796.2615 -5.8213058 255 255 255
117.01704 48.602707 -0.69704276 255 255 255
330.73474 253.50182 -0.30297813 255 255 255
545.07214 478.57071 0.22732908 255 255 255
181.35797 110.42748 -0.78843033 255 255 255
113.88335 44.558533 -0.72221369 255 255 255
141.80119 65.592216 -0.70464116 255 255 255
213.38435 132.50116 -0.61245728 255 255 255
9330.665 8944.4863 15.150827 255 255 255
181.64827 100.5639 -0.75202721 255 255 255
215.48996 115.25456 -0.71851975 255 255 255
259.72064 192.18501 -0.34590805 255 255 255
103.34045 47.69408 -0.8101545 255 255 255
238.39906 195.62305 -0.34297961 255 255 255
402.62775 374.69336 -0.27115351 255 255 255
480.80414 401.48572 0.28420028 255 255 255
145.51695 75.344635 -0.79078311 255 255 255
173.30701 89.317818 -0.68085873 255 255 255
291.1416 218.44701 -0.3790395 255 255 255
536.49829 393.00311 -0.24762237 255 255 255
470.66751 495.92383 0.17490345 255 255 255
171.27879 88.309685 -0.67544603 255 255 255
121.40869 46.790089 -0.76971924 255 255 255
187.20326 101.5556 -0.66308504 255 255 255
-274.20407 -351.46335 -1.6629032 255 255 255
261.07962 148.38754 -0.69681424 255 255 255
154.38266 72.394608 -0.74731505 255 255 255
162.53114 81.208183 -0.68881261 255 255 255
540.01251 427.04108 -0.18345565 255 255 255
796.92145 704.95374 0.52909386 255 255 255
718.19409 729.09924 0.83656341 255 255 255
-374.66812 -503.91498 -1.9925343 255 255 255
236.58505 152.26311 -0.67720544 255 255 255
246.19702 153.53699 -0.55892694 255 255 255
353.86328 268.5708 -0.17254832 255 255 255
1532.4092 1333.525 1.9882039 255 255 255
-4950.4395 -5098.8887 -13.41535 255 255 255
-648.37152 -758.49658 -2.2595203 255 255 255
116.81894 44.387505 -0.75474834 255 255 255
127.35297 55.409924 -0.71999192 255 255 255
155.86302 75.359047 -0.70437121 255 255 255
-390.42044 -435.23364 -1.7786932 255 255 255
734.95477 685.42572 0.87267572 255 255 255
-392.46121 -431.34396 -1.8974706 255 255 255
919.21649 834.22827 0.74791616 255 255 255
-251.58591 -361.86914 -1.9258084 255 255 255
129.75581 61.26392 -0.73403239 255 255 255
1494.5964 1411.4395 2.6649778 255 255 255
-461.77411 -485.31088 -1.8775672 255 255 255
-663.29767 -791.41052 -2.3774395 255 255 255
155.54016 85.637428 -0.72016102 255 255 255
-319.95593 -381.02609 -1.6920948 255 255 255
159.91748 80.55809 -0.77845097 255 255 255
113.47879 47.182297 -0.68128741 255 255 255
-205.49738 -283.00735 -1.4952346 255 255 255
273.62161 216.20238 -0.26265609 255 255 255
138.43175 61.047112 -0.75759625 255 255 255
232.13995 129.32274 -0.68800676 255 255 255
991.61597 864.55652 1.507978 255 255 255
113.20454 47.059704 -0.68036509 255 255 255
316.0275 268.54816 -0.23554452 255 255 255
419.07846 362.84204 0.05386214 255 255 255
216.73544 150.2834 -0.26176277 255 255 255
467.99091 363.1925 -0.18297414 255 255 255
213.19237 120.04121 -0.64209276 255 255 255
-219.30708 -328.28302 -1.5784494 255 255 255
204.41843 142.56638 -0.55608463 255 255 255
342.60449 248.3999 -0.3183358 255 255 255
-126.6441 -207.12251 -1.3321766 255 255 255
147.47639 84.448799 -0.65539366 255 255 255
-3466.0198 -3411.4229 -10.185892 255 255 255
1082.024 935.35211 1.364854 255 255 255
105.68853 27.428795 -0.8839224 255 255 255
179.26544 104.55193 -0.53005391 255 255 255
2583.9971 2410.6904 3.664825 255 255 255
199.18649 105.45463 -0.72040045 255 255 255
155.72949 75.585876 -0.70041263 255 255 255
1044.142 898.34113 0.90635026 255 255 255
155.65796 75.426735 -0.70180857 255 255 255
296.76913 257.07327 -0.35440701 255 255 255
156.55833 77.862755 -0.67740637 255 255 255
-319.34528 -401.46884 -1.8798113 255 255 255
175.94193 96.70533 -0.7299127 255 255 255
108.15381 55.482243 -0.67097086 255 255 255
163.73357 82.74086 -0.67960018 255 255 255
-131.28683 -210.98485 -1.3704832 255 255 255
190.79814 115.6244 -0.63140213 255 255 255
126.02302 60.565617 -0.58958763 255 255 255
177.33835 101.53971 -0.67439348 255 255 255
152.84502 88.417351 -0.54683524 255 255 255
-2290.8469 -2713.1882 -7.7356515 255 255 255
244.23575 185.22328 -0.1437111 255 255 255
325.86124 262.77222 -0.22231963 255 255 255
-272.81076 -354.73181 -1.8681293 255 255 255
844.2774 677.97754 0.40887618 255 255 255
109.89394 31.168236 -0.81800681 255 255 255
-322.79385 -430.59241 -2.0528662 255 255 255
54.444118 35.73455 -0.18218695 255 255 255
2876.6511 3221.0408 4.9355745 255 255 255
471.04059 381.75128 0.18303454 255 255 255
146.78336 62.123943 -0.76699728 255 255 255
133.85258 61.885151 -0.82879543 255 255 255
94.348495 26.067774 -0.78442776 255 255 255
118.90733 56.630352 -0.65567082 255 255 255
269.91919 201.26761 -0.43436399 255 255 255
163.16904 108.12469 -0.44741589 255 255 255
-1028.4329 -1095.3584 -3.2784147 255 255 255
221.50404 165.15645 -0.44078556 255 255 255
112.04467 41.459332 -0.73874646 255 255 255
295.29742 259.0784 -0.32050249 255 255 255
259.2746 215.82568 -0.067145184 255 255 255
-147.10454 -218.50818 -1.3817543 255 255 255
234.28209 167.20255 -0.37279829 255 255 255
621.24347 469.10858 -0.080096938 255 255 255
128.78439 56.364243 -0.75783354 255 255 255
296.42258 235.64951 -0.34957036 255 255 255
97.095482 32.620178 -0.74612063 255 255 255
672.57574 764.90186 1.8672601 255 255 255
264.79507 191.11182 -0.60364354 255 255 255
116.65562 47.655117 -0.7800234 255 255 255
346.69742 299.77475 0.051037814 255 255 255
1478.9614 1543.2434 1.5639892 255 255 255
182.18761 104.09767 -0.67193878 255 255 255
135.46205 69.920036 -0.60473275 255 255 255
114.32441 44.299297 -0.66053653 255 255 255
504.59894 417.63892 0.10536974 255 255 255
254.66309 170.51518 -0.53104597 255 255 255
-89.561996 -179.69467 -1.4031811 255 255 255
135.14748 65.890358 -0.6417771 255 255 255
96.125214 28.604342 -0.73787397 255 255 255
203.8033 114.0518 -0.64048976 255 255 255
-230.47447 -322.23218 -1.9062767 255 255 255
90.716606 25.308403 -0.7299158 255 255 255
173.3797 89.714272 -0.6763007 255 255 255
-182.28845 -253.04045 -1.4819909 255 255 255
287.61887 219.00801 -0.52766526 255 255 255
-209.17552 -295.83743 -1.6095386 255 255 255
296.62961 240.80243 -0.5086087 255 255 255
-1674.8087 -1644.8506 -4.8284321 255 255 255
1240.6676 1167.4434 1.9048055 255 255 255
203.98807 120.97718 -0.7179625 255 255 255
631.76068 571.33795 0.0098492717 255 255 255
246.00684 160.91228 -0.55178136 255 255 255
244.69997 172.32245 -0.4763965 255 255 255
337.34506 275.28842 -0.19116622 255 255 255
140.20689 68.589561 -0.67906916 255 255 255
-136.30943 -205.7265 -1.3715974 255 255 255
-581.36761 -625.39404 -2.2367613 255 255 255
198.79749 124.38556 -0.62180144 255 255 255
100.95734 27.908426 -0.83360291 255 255 255
172.48238 88.507301 -0.68394482 255 255 255
-293.07642 -411.95517 -2.1298904 255 255 255
-430.57391 -444.63379 -1.7140017 255 255 255
107.0317 29.759323 -0.82369751 255 255 255
233.05167 205.38945 0.12955639 255 255 255
173.68062 103.66295 -0.66517705 255 255 255
133.54395 96.985748 -0.24878395 255 255 255
-1581.6912 -2440.96 -17.926264 255 255 255
115.56322 48.326092 -0.68632203 255 255 255
142.43782 76.869171 -0.61282545 255 255 255
145.7614 71.364571 -0.717915 255 255 255
272.72998 295.42941 -0.17989081 255 255 255
-707.45575 -714.80725 -2.5114923 255 255 255
152.83553 80.221176 -0.60756373 255 255 255
226.82301 170.81313 -0.51983654 255 255 255
123.15461 53.68729 -0.68628317 255 255 255
-153.12939 -235.65207 -1.5478361 255 255 255
145.3053 67.225121 -0.71458793 255 255 255
95.155472 28.398535 -0.75300449 255 255 255
-154.98402 -246.90758 -1.5052688 255 255 255
204.42055 119.21622 -0.62361896 255 255 255
97.099258 29.826561 -0.8017478 255 255 255
322.15366 330.04544 -0.32359526 255 255 255
83.792473 32.198311 -0.52584684 255 255 255
300.70557 193.20256 -0.57663429 255 255 255
-8369.6758 -8870.3262 -17.581739 255 255 255
106.38642 36.266045 -0.69117683 255 255 255
168.47765 111.25294 -0.66992199 255 255 255
212.75299 129.4684 -0.5154599 255 255 255
330.93414 328.30615 -0.3640486 255 255 255
152.14368 98.197716 -0.40838018 255 255 255
198.05545 173.408 -0.48030573 255 255 255
919.40686 859.80316 0.90148461 255 255 255
616.37518 502.13672 -0.051294304 255 255 255
151.77695 75.25145 -0.73019528 255 255 255
181.37843 96.895477 -0.65597355 255 255 255
-1066.4944 -1091.3016 -3.5584466 255 255 255
113.15907 45.22945 -0.76711869 255 255 255
152.02849 89.385384 -0.54916716 255 255 255
96.11969 38.293472 -0.62883973 255 255 255
152.16492 80.786819 -0.55286437 255 255 255
101.24548 38.599762 -0.73831046 255 255 255
324.53873 252.46425 -0.22683884 255 255 255
156.20767 100.92767 -0.59584475 255 255 255
-2830.5786 -2764.4202 -6.7161894 255 255 255
162.68898 82.468285 -0.67384422 255 255 255
300.76392 224.40382 -0.45665681 255 255 255
-1735.73 -1713.1416 -4.0428662 255 255 255
168.16566 92.141136 -0.70450705 255 255 255
156.08458 92.180367 -0.5919466 255 255 255
-157.64719 -231.96391 -1.3699301 255 255 255
95.567558 34.840153 -0.75656748 255 255 255
205.56343 136.38725 -0.47316232 255 255 255
118.10111 48.501774 -0.70963436 255 255 255
199.80537 122.95222 -0.59658623 255 255 255
495.20215 505.98328 0.32947904 255 255 255
368.94394 328.61581 -0.39836165 255 255 255
151.34299 76.000504 -0.71591526 255 255 255
91.934151 29.463451 -0.70854259 255 255 255
201.15532 110.87064 -0.65256 255 255 255
172.03554 88.825653 -0.67572325 255 255 255
78.76133 20.987528 -0.82095516 255 255 255
-195.97275 -292.75897 -1.4469082 255 255 255
173.89641 90.216972 -0.6743387 255 255 255
348.27307 276.89041 -0.16330065 255 255 255
44.723831 18.206181 -0.38921562 255 255 255
-568.31702 -680.16028 -2.1847532 255 255 255
777.84058 647.49176 0.41977504 255 255 255
1609.201 1900.8499 2.2713995 255 255 255
1217.1742 1346.1681 1.5296646 255 255 255
350.96365 290.86728 -0.23793115 255 255 255
186.31017 100.57323 -0.65276271 255 255 255
159.63844 79.450752 -0.68536001 255 255 255
797.19861 689.61798 0.44696364 255 255 255
-120.3636 -200.03769 -1.3493108 255 255 255
-230.02042 -288.97189 -1.4778501 255 255 255
-3524.0757 -3708.8552 -11.770578 255 255 255
271.32697 214.11891 -0.28835005 255 255 255
104.02639 48.615341 -0.55090475 255 255 255
264.49017 193.84174 -0.32038996 255 255 255
162.51558 81.196449 -0.68879831 255 255 255
-305.11584 -397.46432 -2.107657 255 255 255
134.81117 73.64138 -0.64468163 255 255 255
264.36499 209.52975 -0.48606116 255 255 255
583.94147 482.83475 0.10893784 255 255 255
1972.7373 1916.6078 4.2197542 255 255 255
729.43835 618.65631 0.60727596 255 255 255
192.4537 98.644958 -0.73778164 255 255 255
408.10861 410.33963 -0.054438833 255 255 255
-1982.8839 -1950.4937 -6.016644 255 255 255
134.38766 57.323273 -0.78280127 255 255 255
259.22354 185.0544 -0.40202603 255 255 255
194.02666 165.74094 -0.56461078 255 255 255
252.46797 159.46448 -0.54790765 255 255 255
173.77055 105.47446 -0.70767283 255 255 255
-132.14014 -249.03191 -1.4383327 255 255 255
454.61224 366.69308 -0.31643471 255 255 255
94.884544 29.295057 -0.79676753 255 255 255
550.04462 473.31097 0.10982755 255 255 255
347.36481 247.2612 -0.58518815 255 255 255
196.69969 107.78485 -0.65249169 255 255 255
128.87279 54.108559 -0.76191419 255 255 255
118.14305 57.322643 -0.86904687 255 255 255
185.64204 91.550606 -0.78693813 255 255 255
5460.0952 4769.5225 7.5040002 255 255 255
89.054634 38.009563 -0.75662374 255 255 255
-295.24118 -400.03094 -1.8003693 255 255 255
468.37411 397.25592 0.040991861 255 255 255
-108.4731 -182.06783 -1.2799525 255 255 255
135.87744 74.423233 -0.61597925 255 255 255
439.40182 417.66092 -0.091534205 255 255 255
178.54926 120.58354 -0.55757487 255 255 255
143.7444 90.166359 -0.67215574 255 255 255
-8084.7334 -9646.293 -24.95307 255 255 255
172.25638 99.5205 -0.63051754 255 255 255
190.50047 158.89726 -0.59734863 255 255 255
210.18626 112.79436 -0.70493025 255 255 255
277.33926 161.47736 -0.67516637 255 255 255
104.17937 30.985014 -0.80359542 255 255 255
-3896.0876 -3538.9668 -7.108727 255 255 255
-1131.0416 -1126.2107 -2.8061545 255 255 255
118.38506 47.268345 -0.79530269 255 255 255
228.347 157.18633 -0.52783358 255 255 255
199.15514 109.53486 -0.65186328 255 255 255
-269.16849 -362.03479 -2.1318944 255 255 255
-95.478172 -197.59793 -1.4545603 255 255 255
90.456108 18.489023 -0.84843647 255 255 255
-230.66429 -309.62845 -1.4915235 255 255 255
376.83401 347.46841 -0.27592915 255 255 255
204.61076 132.62109 -0.60257524 255 255 255
147.76022 90.180275 -0.63276857 255 255 255
-76.446762 -147.82797 -1.2481935 255 255 255
-716.28723 -791.52606 -2.6510475 255 255 255
831.2262 721.09259 0.63548785 255 255 255
844.34082 800.69653 0.58574563 255 255 255
85.503326 21.469074 -0.7169466 255 255 255
158.26164 78.830612 -0.68153125 255 255 255
-5893.8555 -6840.3286 -14.738849 255 255 255
-158.4381 -280.23248 -1.4651332 255 255 255
-127757.88 -127780.37 -269.29684 255 255 255
88.544563 30.568621 -0.72505248 255 255 255
118.71835 51.180542 -0.69083375 255 255 255
-61.811893 -141.00658 -1.2205991 255 255 255
-617.45483 -721.74036 -2.8604465 255 255 255
93.91378 31.466623 -0.70581555 255 255 255
-435.36499 -499.29822 -1.7767656 255 255 255
-319.43185 -401.54605 -1.8801697 255 255 255
156.06137 86.177773 -0.55494153 255 255 255
197.20915 137.17719 -0.54127365 255 255 255
110.39249 44.195351 -0.80805349 255 255 255
109.33133 69.7556 -0.40152737 255 255 255
-408.47629 -440.22992 -1.7984383 255 255 255
244.73296 206.81937 -0.55172133 255 255 255
163.54324 81.858124 -0.78875232 255 255 255
629.39734 558.09167 0.29462713 255 255 255
79.444603 24.673794 -0.82201666 255 255 255
-146.75316 -210.84305 -1.327332 255 255 255
233.21672 155.69519 -0.55167961 255 255 255
152.59703 76.627396 -0.71549886 255 255 255
-937.27002 -1198.9281 -3.898561 255 255 255
358.22711 284.23959 -0.35794851 255 255 255
357.18542 320.12903 -0.23002595 255 255 255
209.86897 112.5314 -0.70523506 255 255 255
388.815 336.30014 -0.17398904 255 255 255
395.62805 357.46594 -0.12507081 255 255 255
124.71299 52.424747 -0.71890092 255 255 255
303.93878 254.60806 -0.10784932 255 255 255
152.0813 88.585846 -0.53447157 255 255 255
513.03363 396.61826 -0.042574272 255 255 255
186.93448 91.743217 -0.78509247 255 255 255
202.8744 126.57391 -0.60796374 255 255 255
330.90112 337.85211 -0.41612992 255 255 255
160.20247 83.915703 -0.71111506 255 255 255
155.43143 75.335953 -0.70084435 255 255 255
193.85524 136.91379 -0.58149308 255 255 255
-86.840065 -164.91747 -1.2547597 255 255 255
1584.0593 1411.7725 1.9260429 255 255 255
-378.16455 -441.31488 -1.7958125 255 255 255
143.80795 76.164299 -0.63599545 255 255 255
5429.3809 5477.6313 13.73045 255 255 255
-10143.151 -11501.068 -27.968386 255 255 255
3157.3875 2899.0186 3.841048 255 255 255
-690.58337 -768.42279 -2.7824445 255 255 255
-998.39026 -1029.1249 -2.7484908 255 255 255
211.21675 145.11746 -0.38772786 255 255 255
-1036.6714 -1194.1769 -3.2993503 255 255 255
229.03523 155.04034 -0.5474776 255 255 255
191.41823 126.56771 -0.64041197 255 255 255
-352.92883 -452.48096 -1.6895016 255 255 255
1057.4584 1094.666 1.2563765 255 255 255
140.9678 85.756897 -0.50939029 255 255 255
119.56085 48.096062 -0.7281723 255 255 255
666.56152 658.03027 1.528783 255 255 255
365.99576 311.96155 -0.27154538 255 255 255
-1359.4208 -1399.9849 -3.7845676 255 255 255
138.26662 63.693985 -0.73920238 255 255 255
499.49582 412.68265 -0.20383604 255 255 255
-527.3233 -637.05524 -2.0437849 255 255 255
186.89842 115.47963 -0.58472121 255 255 255
125.6478 54.032532 -0.7168383 255 255 255
1244.3438 1166.5046 1.6006386 255 255 255
426.53275 344.6897 -0.10972753 255 255 255
-3225.9836 -3147.6338 -9.7337847 255 255 255
-198.93605 -262.43448 -1.4118137 255 255 255
93.319016 21.09201 -0.82600915 255 255 255
347.74084 320.39362 -0.039928798 255 255 255
109.24676 44.512459 -0.67596918 255 255 255
371.03812 300.50076 -0.096128851 255 255 255
105.26402 38.38414 -0.72779185 255 255 255
230.11195 142.00937 -0.58709472 255 255 255
113.95252 44.352879 -0.72569019 255 255 255
165.65454 88.741737 -0.71742702 255 255 255
126.77439 59.72596 -0.68968195 255 255 255
164.03142 83.000732 -0.67911625 255 255 255
198.7323 108.95212 -0.65553087 255 255 255
203.28189 150.43802 -0.54906571 255 255 255
146.89102 69.49128 -0.7002582 255 255 255
-1204.5079 -1284.6962 -3.5332804 255 255 255
832.53827 778.01483 1.1394634 255 255 255
187.09203 132.02316 -0.45244437 255 255 255
-756.32513 -997.27832 -3.2133605 255 255 255
-52.700245 -120.9336 -1.187301 255 255 255
-492.88284 -765.45398 -2.5658882 255 255 255
115.69814 68.924042 -0.7600497 255 255 255
114.22535 45.945301 -0.70718497 255 255 255
234.36267 201.45821 -0.25230822 255 255 255
162.12125 94.756538 -0.59158701 255 255 255
89.679436 18.346407 -0.77028954 255 255 255
401.32034 338.04465 -0.066682845 255 255 255
162.28128 81.596428 -0.6813336 255 255 255
149.22159 85.572342 -0.66148061 255 255 255
179.31682 104.58169 -0.53017187 255 255 255
172.00751 88.727127 -0.67658544 255 255 255
210.88942 158.67648 -0.25624159 255 255 255
113.88744 44.559502 -0.72232276 255 255 255
144.16605 63.267647 -0.8230055 255 255 255
685.83173 572.99219 0.21587606 255 255 255
-154.1927 -228.6788 -1.4092759 255 255 255
235.50601 209.14958 -0.54891795 255 255 255
215.37611 145.7607 -0.48582679 255 255 255
141.72406 81.889359 -0.74013901 255 255 255
124.40328 68.451996 -0.59599811 255 255 255
-435.30377 -540.79333 -2.3698251 255 255 255
100.51262 34.97723 -0.74702495 255 255 255
305.21011 227.58031 -0.51368827 255 255 255
119.12947 54.744751 -0.6281417 255 255 255
-181.91805 -245.61284 -1.4543885 255 255 255
2063.5691 2156.5188 2.9544301 255 255 255
-116.07031 -204.40704 -1.3638932 255 255 255
284.58063 264.22577 -0.45172209 255 255 255
118.79482 82.582504 -0.33696398 255 255 255
170.28398 96.744751 -0.54964393 255 255 255
111.08894 43.760796 -0.70671874 255 255 255
123.47855 41.88834 -0.80279547 255 255 255
1323.4817 1211.0848 1.521868 255 255 255
127.14849 57.021145 -0.7232815 255 255 255
1821.6661 1603.6171 1.9773673 255 255 255
87.601311 21.279177 -0.76772219 255 255 255
112.80829 43.638405 -0.72439289 255 255 255
2512.8132 2397.2295 4.1549463 255 255 255
219.04272 126.55363 -0.67738444 255 255 255
-3224.0247 -3473.5542 -9.2285271 255 255 255
3532.4265 3095.0581 4.8943763 255 255 255
-117.97029 -198.11476 -1.4681221 255 255 255
-1446.6368 -1415.8173 -3.697072 255 255 255
-610.44098 -720.86798 -2.2254369 255 255 255
-2723.0764 -2991.1768 -8.897048 255 255 255
150.86107 81.284714 -0.70233309 255 255 255
295.63235 212.7598 -0.19874157 255 255 255
312.37561 207.49272 -0.47402924 255 255 255
-685.19806 -769.81049 -3.0046141 255 255 255
106.1963 41.367905 -0.73132068 255 255 255
111.55334 44.006069 -0.70756769 255 255 255
2019.97 1832.0819 2.5888128 255 255 255
-1725.3297 -2070.7727 -4.5456262 255 255 255
264.05475 150.9136 -0.69133079 255 255 255
524.87769 458.00839 0.18074998 255 255 255
-469.59763 -503.81973 -1.8615613 255 255 255
-235.23775 -272.75018 -1.456571 255 255 255
276.64474 217.23357 -0.35657734 255 255 255
-319.15836 -376.19849 -1.6431123 255 255 255
279.60052 195.3602 -0.61959249 255 255 255
371.11703 293.01733 -0.41743204 255 255 255
150.18279 85.282722 -0.69500327 255 255 255
115.27089 42.239822 -0.7790755 255 255 255
-1628.9866 -2198.2324 -10.578764 255 255 255
6426.3252 7249.0557 17.942476 255 255 255
154.97826 87.123314 -0.73788935 255 255 255
190.09732 122.10799 -0.37502506 255 255 255
-753.4046 -839.65283 -3.2650125 255 255 255
-1099.1085 -1097.7156 -2.9096446 255 255 255
-118.89845 -221.85806 -1.6064398 255 255 255
111.09921 43.755646 -0.70659566 255 255 255
-1254.6447 -1271.4124 -3.1819394 255 255 255
-155.98627 -235.69601 -1.5258092 255 255 255
133.94357 58.75383 -0.72226524 255 255 255
-381.45941 -518.73242 -2.0210366 255 255 255
187.24876 126.08376 -0.41349652 255 255 255
158.26442 78.9235 -0.68049651 255 255 255
-182.67368 -259.12881 -1.7125387 255 255 255
265.68271 152.2325 -0.68912995 255 255 255
1219.7271 1101.259 1.3453033 255 255 255
154.64091 83.923668 -0.63775033 255 255 255
-143.00389 -221.87926 -1.4625711 255 255 255
319.17761 258.09631 -0.24261893 255 255 255
371.28046 263.22357 -0.34025547 255 255 255
137.84915 63.210873 -0.72009975 255 255 255
-428.69275 -509.22726 -2.0334198 255 255 255
599.28058 601.65466 0.57374537 255 255 255
-2026.3986 -2009.6248 -4.5653892 255 255 255
132.73878 60.010502 -0.7266956 255 255 255
118.6236 61.997807 -0.61799967 255 255 255
167.23531 82.941124 -0.68183219 255 255 255
-313.83792 -383.05161 -1.6578726 255 255 255
-396.91156 -524.81396 -1.9925399 255 255 255
826.83826 764.83698 1.2869745 255 255 255
5992.9966 6495.3589 15.280014 255 255 255
-382.63089 -471.10522 -2.0969498 255 255 255
117.71341 54.901882 -0.86755848 255 255 255
1121.6539 1281.7335 3.0018194 255 255 255
510.24982 370.2811 -0.28556812 255 255 255
109.22408 44.46545 -0.67643118 255 255 255
-865.54169 -936.09784 -2.5678992 255 255 255
166.53365 88.726364 -0.71817261 255 255 255
756.87933 838.14899 0.55320847 255 255 255
172.17665 88.81179 -0.67713821 255 255 255
173.80463 131.64558 -0.69877005 255 255 255
317.38654 219.20384 -0.59745646 255 255 255
299.43182 205.5928 -0.56369787 255 255 255
150.10385 62.382603 -0.80438167 255 255 255
-945.12805 -1059.452 -3.7060597 255 255 255
118.74997 63.287983 -0.64175975 255 255 255
16832.934 19796.938 69.167801 255 255 255
-538.37439 -632.31201 -2.5698667 255 255 255
118.89274 58.405113 -0.58482105 255 255 255
96.906357 44.968113 -0.74735522 255 255 255
-1043.2878 -1158.0471 -3.9805486 255 255 255
1396.6108 1295.6764 1.3635553 255 255 255
-217.77081 -309.73251 -1.8203838 255 255 255
147.95938 77.534538 -0.70310634 255 255 255
271.14508 188.68559 -0.4754926 255 255 255
-92.474243 -200.94269 -1.4785168 255 255 255
-801.81824 -821.21722 -3.2147336 255 255 255
239.92197 135.39473 -0.67960358 255 255 255
335.94818 258.61371 -0.30597964 255 255 255
267.04333 198.72563 -0.4831306 255 255 255
-218.91348 -283.27255 -1.4799515 255 255 255
-191.98428 -266.14078 -1.6366454 255 255 255
99.640228 31.003395 -0.68021458 255 255 255
101.87759 34.428799 -0.76993024 255 255 255
230.85275 128.315 -0.68937331 255 255 255
221.93526 132.15845 -0.69886839 255 255 255
166.89798 85.681992 -0.67053986 255 255 255
-681.78699 -804.15088 -3.0784681 255 255 255
208.02487 129.27628 -0.54889184 255 255 255
212.44073 128.65799 -0.52341843 255 255 255
96.990471 36.804447 -0.69738412 255 255 255
219.46616 187.04309 0.089138553 255 255 255
197.50774 145.10921 -0.71604729 255 255 255
293.54633 187.02864 -0.61271834 255 255 255
-44.540112 -129.30121 -1.1899625 255 255 255
120.20674 44.949539 -0.72807729 255 255 255
255.4939 213.12131 -0.51416057 255 255 255
290.56757 260.52811 -0.25926834 255 255 255
159.11086 78.923912 -0.68754256 255 255 255
-257.58658 -334.86166 -1.5364681 255 255 255
114.60577 50.318855 -0.64599496 255 255 255
316.86157 229.86371 -0.36005837 255 255 255
136.6123 58.623501 -0.76156443 255 255 255
-1542.5273 -1705.1016 -5.3784404 255 255 255
103.8717 30.955757 -0.78837931 255 255 255
-665.2099 -716.76422 -2.2028012 255 255 255
-54.635323 -129.60579 -1.2125051 255 255 255
1570.4132 1479.3175 2.6870103 255 255 255
-153.05415 -228.60147 -1.3994718 255 255 255
1213.0338 1099.2777 2.1019182 255 255 255
109.13626 44.462917 -0.67553127 255 255 255
173.09145 97.806038 -0.65206683 255 255 255
206.88963 127.4217 -0.6079905 255 255 255
162.76762 82.538902 -0.67371345 255 255 255
-249.98109 -316.23041 -1.4982755 255 255 255
-261.54816 -322.74304 -1.5297412 255 255 255
280.0311 179.09323 -0.63781047 255 255 255
101.00735 25.467993 -0.79553092 255 255 255
-826.2052 -922.57086 -3.5283833 255 255 255
887.99963 858.0365 0.76288396 255 255 255
213.76117 171.34532 0.065351091 255 255 255
200.83611 110.72564 -0.65136534 255 255 255
225.21399 127.71413 -0.65050793 255 255 255
-130.07315 -208.05154 -1.3728224 255 255 255
212.75626 129.47931 -0.51543671 255 255 255
-542.80353 -595.7373 -2.1635985 255 255 255
112.28218 45.929279 -0.67284095 255 255 255
-1279.2966 -1407.5315 -5.1883554 255 255 255
557.14386 447.86575 0.18971738 255 255 255
143.97447 72.212349 -0.74956638 255 255 255
192.95859 158.07832 -0.48056912 255 255 255
124.06374 69.599113 -0.47759986 255 255 255
123.72557 64.792252 -0.6616627 255 255 255
95.974815 25.452635 -0.89581317 255 255 255
1063.3416 856.0683 0.53233057 255 255 255
122.57601 51.525063 -0.7102555 255 255 255
128.68274 51.488953 -0.78964299 255 255 255
114.36578 45.992348 -0.70797414 255 255 255
830.99774 849.1842 0.44944924 255 255 255
127.27242 50.66222 -0.79010719 255 255 255
122.02473 43.986908 -0.76533538 255 255 255
148.01158 76.31871 -0.71570402 255 255 255
90.145554 24.173698 -0.69562519 255 255 255
-605.83899 -825.84167 -3.0124176 255 255 255
537.09741 416.3638 -0.21451785 255 255 255
123.23016 53.764591 -0.68605328 255 255 255
186.6198 100.813 -0.65231729 255 255 255
156.54115 77.846481 -0.67741466 255 255 255
50.471298 13.299381 -0.41867933 255 255 255
95.872147 31.999352 -0.74098074 255 255 255
126.32748 53.068642 -0.72539747 255 255 255
476.09866 374.69318 -0.29585633 255 255 255
398.18903 331.55923 0.047214534 255 255 255
208.27727 116.624 -0.65493983 255 255 255
1311.4259 1489.0541 2.2994413 255 255 255
220.1396 136.56413 -0.57424307 255 255 255
666.65479 568.04407 0.65326816 255 255 255
-276.11481 -356.95026 -1.882524 255 255 255
141.1778 65.131096 -0.7046544 255 255 255
-272.35229 -392.31989 -1.6302136 255 255 255
132.11842 56.966625 -0.72898602 255 255 255
140.0843 64.565681 -0.70165789 255 255 255
523.7403 480.28391 0.39525652 255 255 255
380.55081 281.53073 -0.20058222 255 255 255
201.88991 131.40097 -0.60359156 255 255 255
158.69501 68.720833 -0.82011908 255 255 255
274.2735 181.8913 -0.62384802 255 255 255
654.68146 577.39301 0.10885205 255 255 255
291.13858 233.93069 -0.45645362 255 255 255
119.01994 49.29948 -0.64547747 255 255 255
174.81435 120.17693 -0.64992553 255 255 255
108.23338 32.608047 -0.76615739 255 255 255
115.46697 53.395432 -0.58902532 255 255 255
188.86133 128.07457 -0.64144409 255 255 255
313.30707 250.20137 -0.11849745 255 255 255
202.37764 123.42673 -0.64182812 255 255 255
-180.58659 -290.79773 -1.5198997 255 255 255
622.87958 562.2804 0.48633215 255 255 255
157.71313 97.205635 -0.48171487 255 255 255
182.45279 105.82518 -0.63431644 255 255 255
28194.963 28945.531 64.899597 255 255 255
1514.8833 1438.4209 1.8265374 255 255 255
157.33698 83.2108 -0.61639321 255 255 255
426.63831 327.99951 -0.2701219 255 255 255
132.21472 59.137779 -0.74135274 255 255 255
219.17137 119.32339 -0.70014811 255 255 255
144.83298 70.435417 -0.73529708 255 255 255
110.39035 44.30212 -0.70977843 255 255 255
-535.68481 -657.18054 -2.7732811 255 255 255
-760.05029 -921.65118 -3.3850873 255 255 255
271.46524 200.7858 -0.47203508 255 255 255
604.65247 545.7301 0.59261864 255 255 255
-107.08536 -208.3148 -1.3642946 255 255 255
290.46744 222.52069 -0.36738682 255 255 255
175.71471 93.373123 -0.64865327 255 255 255
786.00085 662.55249 0.23363265 255 255 255
324.65939 362.84851 0.014634069 255 255 255
93.79538 26.202152 -0.79115969 255 255 255
157.09744 80.494156 -0.64578599 255 255 255
303.63028 290.11066 -0.25790027 255 255 255
-1025.1021 -1163.4753 -3.1548092 255 255 255
-307.48849 -415.93246 -1.8411705 255 255 255
1568.6893 1542.8843 2.6481149 255 255 255
478.61636 388.19662 0.20617244 255 255 255
179.53554 104.81371 -0.52915442 255 255 255
166.93854 128.13503 -0.53556585 255 255 255
255.79079 240.91838 -0.5613302 255 255 255
123.67626 52.258068 -0.71091467 255 255 255
-67.825356 -150.0672 -1.2488387 255 255 255
-258.02075 -353.10486 -1.8728824 255 255 255
484.97791 424.64828 0.19255845 255 255 255
2681.7776 2669.9119 4.6204925 255 255 255
94.472496 29.517996 -0.69263422 255 255 255
113.87966 44.293915 -0.72583276 255 255 255
176.15067 122.43889 -0.67144412 255 255 255
190.27252 110.07626 -0.56060463 255 255 255
-239.82877 -326.54999 -1.9169693 255 255 255
140.69292 64.683632 -0.70616007 255 255 255
206.99472 107.63808 -0.73481113 255 255 255
121.7924 48.333344 -0.77398121 255 255 255
135.90044 64.437172 -0.72303891 255 255 255
107.99672 35.456203 -0.79587388 255 255 255
-97.734146 -186.39052 -1.3175029 255 255 255
360.37686 271.8089 -0.40407827 255 255 255
624.00464 565.33203 0.089238413 255 255 255
180.5722 123.62331 -0.38661799 255 255 255
153.53261 75.222893 -0.68542445 255 255 255
289.73129 258.78427 -0.48176014 255 255 255
472.28983 490.23962 0.8745575 255 255 255
122.93391 43.452644 -0.76227272 255 255 255
288.25311 211.6067 -0.54491174 255 255 255
2120.1436 2062.0491 4.0342479 255 255 255
-1229.2765 -1377.6747 -4.4342904 255 255 255
170.06581 96.53878 -0.55020678 255 255 255
-279.81335 -350.24231 -1.5575649 255 255 255
-758.26166 -800.84589 -2.3579235 255 255 255
108.46837 43.588383 -0.68128502 255 255 255
-2559.866 -2635.2239 -6.3290949 255 255 255
196.3622 134.74091 -0.43536481 255 255 255
108.47984 41.426361 -0.71338242 255 255 255
107.51244 41.385937 -0.72881335 255 255 255
1441.4282 1274.2184 2.1697319 255 255 255
322.0777 267.03278 -0.086919576 255 255 255
107.76822 43.978619 -0.66789889 255 255 255
172.82288 94.727676 -0.71010041 255 255 255
-210.86426 -316.38376 -1.7281618 255 255 255
129.711 56.409107 -0.74447465 255 255 255
-228.22038 -323.76306 -1.5300444 255 255 255
1103.3363 960.48041 1.6612493 255 255 255
267.1615 174.80963 -0.65020025 255 255 255
89.753204 26.183334 -0.75034344 255 255 255
-160.6757 -223.405 -1.3476028 255 255 255
350.38007 250.77664 -0.51253891 255 255 255
-251.13922 -349.59558 -1.7092634 255 255 255
377.85526 298.43912 -0.10382089 255 255 255
108.38845 43.688087 -0.67916566 255 255 255
124.66866 52.39035 -0.71891731 255 255 255
100.77261 39.538334 -0.70904386 255 255 255
159.42064 96.609444 -0.55836308 255 255 255
201.0435 110.76303 -0.65277594 255 255 255
-15397.934 -16084.217 -47.119427 255 255 255
-10498.559 -9558.54 -18.373199 255 255 255
-423.0643 -489.28448 -1.8167206 255 255 255
464.01489 421.80701 0.0080877161 255 255 255
564.61725 431.03168 -0.15032116 255 255 255
264.1355 150.98755 -0.69115543 255 255 255
-170.98804 -340.08173 -2.6934462 255 255 255
288.5137 223.06152 -0.30764595 255 255 255
155.50494 75.428917 -0.70050061 255 255 255
108.14285 43.722408 -0.67600238 255 255 255
180.87486 121.76587 -0.64338082 255 255 255
91.414902 29.465218 -0.71005684 255 255 255
182.94756 98.067757 -0.65473652 255 255 255
173.8282 98.897926 -0.62787867 255 255 255
1408.8051 1410.353 2.849299 255 255 255
432.30807 342.53455 0.062984861 255 255 255
105.26422 44.981358 -0.76646644 255 255 255
108.7372 44.791931 -0.66621822 255 255 255
87.022163 34.496525 -0.76342446 255 255 255
-121.92178 -200.76888 -1.3398404 255 255 255
132.9568 61.103828 -0.72318929 255 255 255
-14490.166 -13994.78 -31.066135 255 255 255
163.96361 82.933426 -0.67934626 255 255 255
486.87946 443.9353 0.36999488 255 255 255
158.66438 79.162277 -0.68079245 255 255 255
-537.10901 -568.18408 -1.9829828 255 255 255
-911.68585 -944.44482 -2.7721891 255 255 255
92.350037 30.433416 -0.70485449 255 255 255
147.62624 64.475983 -0.73776382 255 255 255
385.11975 342.05334 0.11837818 255 255 255
184.69313 110.9277 -0.75028086 255 255 255
443.6557 410.91861 0.092706986 255 255 255
180.91187 118.87067 -0.60322082 255 255 255
113.43809 47.114491 -0.68182588 255 255 255
221.19531 171.72565 -0.22256248 255 255 255
278.80484 164.01439 -0.65806705 255 255 255
154.53114 96.487778 -0.71414578 255 255 255
-313.83121 -387.34631 -1.7331455 255 255 255
190.23753 112.82137 -0.65113384 255 255 255
146.30646 70.835556 -0.72269499 255 255 255
199.02531 109.44022 -0.65177834 255 255 255
215.05937 114.90003 -0.71899617 255 255 255
102.5556 37.077518 -0.70910591 255 255 255
117.4423 47.877834 -0.77500182 255 255 255
147.20164 87.72258 -0.56475264 255 255 255
302.94708 276.89081 -0.43157232 255 255 255
212.51823 157.48131 -0.29131657 255 255 255
1333.3623 1177.1254 2.0853424 255 255 255
153.67659 116.84625 -0.57095766 255 255 255
94.989502 24.911343 -0.78915966 255 255 255
1096.4652 1708.5685 11.405115 255 255 255
-599.46222 -717.84406 -2.8199728 255 255 255
217.58707 143.36343 -0.56957436 255 255 255
238.20641 132.01173 -0.70486009 255 255 255
237.50133 131.48729 -0.70526558 255 255 255
144.53618 67.83387 -0.70034009 255 255 255
144.61446 93.902336 -0.79480809 255 255 255
166.62793 91.658134 -0.58441013 255 255 255
162.43752 81.129753 -0.68896312 255 255 255
118.2836 53.740715 -0.75831598 255 255 255
87.972191 26.808481 -0.86821604 255 255 255
158.99956 78.83123 -0.68774444 255 255 255
428.85367 351.806 -0.00079525233 255 255 255
157.53276 73.174973 -0.81984431 255 255 255
-234.6154 -311.48541 -1.5901601 255 255 255
249.01115 168.69923 -0.65660065 255 255 255
88.416771 36.400635 -0.83016837 255 255 255
391.2652 320.84781 -0.12702148 255 255 255
-65.901627 -151.73737 -1.2533904 255 255 255
135.9305 82.075554 -0.59144789 255 255 255
132.02188 56.898014 -0.72899002 255 255 255
171.93501 88.727249 -0.67600125 255 255 255
900.82275 845.07269 1.0125166 255 255 255
122.99653 65.453629 -0.74298072 255 255 255
-108.01459 -201.52484 -1.3184727 255 255 255
226.79146 173.40988 -0.20988642 255 255 255
234.59578 167.43384 -0.58485615 255 255 255
146.35519 70.103638 -0.73666734 255 255 255
158.13855 78.826111 -0.68056208 255 255 255
103.60296 40.983185 -0.76227683 255 255 255
141.05594 65.081169 -0.7041499 255 255 255
160.86423 98.229584 -0.49882284 255 255 255
201.42058 143.55519 -0.58875597 255 255 255
162.80513 82.429878 -0.67576462 255 255 255
498.01376 359.68863 -0.30344802 255 255 255
130.78773 53.936707 -0.76132298 255 255 255
-3178.6731 -2896.4404 -6.3267727 255 255 255
683.40527 564.13092 -0.020723987 255 255 255
183.4364 98.505035 -0.6533646 255 255 255
113.24012 48.585339 -0.65701497 255 255 255
325.11554 252.3532 -0.36928219 255 255 255
-633.83575 -700.26447 -2.6023078 255 255 255
838.06171 671.2149 0.28790358 255 255 255
153.19322 74.036598 -0.69722992 255 255 255
110.80817 46.151749 -0.66786593 255 255 255
139.7263 82.008789 -0.60400254 255 255 255
101.51052 31.937283 -0.7584635 255 255 255
605.89423 545.02228 0.55785668 255 255 255
162.73112 82.495384 -0.67391551 255 255 255
111.66936 44.19696 -0.70575202 255 255 255
327.32794 237.9843 -0.47388092 255 255 255
11143.517 10801.222 18.749537 255 255 255
156.19963 86.292038 -0.55472893 255 255 255
270.88306 219.11873 -0.37242159 255 255 255
-63.581398 -145.28903 -1.2716272 255 255 255
323.99384 241.37378 -0.30193278 255 255 255
-83.993805 -162.24167 -1.2838707 255 255 255
1576.3241 1535.9707 3.2445641 255 255 255
363.8963 287.10114 -0.16008465 255 255 255
126.01276 62.733669 -0.72186035 255 255 255
262.69879 200.55025 -0.33151114 255 255 255
302.81287 233.24432 -0.3648513 255 255 255
209.48639 112.19854 -0.70585781 255 255 255
196.74612 107.82926 -0.65236855 255 255 255
261.245 148.56653 -0.69605452 255 255 255
189.13084 126.15276 -0.49984178 255 255 255
99.676605 26.152872 -0.81399345 255 255 255
977.56213 802.93646 0.57097417 255 255 255
-555.91199 -640.30353 -2.7939744 255 255 255
-72.16806 -156.05544 -1.2472197 255 255 255
441.16925 391.99506 0.35194868 255 255 255
96.17878 26.101894 -0.81888998 255 255 255
116.30811 44.342136 -0.76368868 255 255 255
183.38274 98.481277 -0.6530143 255 255 255
-537.40198 -615.56482 -2.2691774 255 255 255
121.57607 69.060486 -0.60082376 255 255 255
114.54353 46.538502 -0.70181412 255 255 255
427.76434 425.85007 -0.041658197 255 255 255
-101.0416 -170.52979 -1.3525898 255 255 255
376.30197 299.74847 -0.25911906 255 255 255
222.66455 153.17944 -0.43212152 255 255 255
274.29291 297.40775 -0.17501964 255 255 255
523.81281 489.57443 0.26780102 255 255 255
309.66537 232.21344 -0.34930116 255 255 255
135.146 60.271248 -0.71275467 255 255 255
129.71049 72.928391 -0.60034543 255 255 255
499.13791 373.68069 -0.23123752 255 255 255
112.21036 44.797485 -0.8058365 255 255 255
440.10193 345.41754 -0.36823663 255 255 255
1708.926 1646.0729 2.8624518 255 255 255
579.19519 543.28638 0.57132787 255 255 255
-780.25085 -909.20239 -3.3605618 255 255 255
219.69958 141.15417 -0.56642312 255 255 255
2951.4426 3043.2239 5.3620691 255 255 255
260.55768 172.75397 -0.60043114 255 255 255
138.08229 50.249031 -0.84016609 255 255 255
101.70777 44.021893 -0.74944335 255 255 255
206.92505 139.04158 -0.59571993 255 255 255
406.7706 323.63266 -0.38525033 255 255 255
181.31143 96.82682 -0.65614462 255 255 255
150.45349 88.991936 -0.52589732 255 255 255
176.89632 99.122147 -0.67845803 255 255 255
232.70593 190.34618 -0.254143 255 255 255
1064.1344 856.6723 0.53298736 255 255 255
-86.341629 -210.49313 -1.7891471 255 255 255
