ply
format ascii 1.0
comment PCL generated
element vertex 1104
property float x
property float y
property float z
property uchar red
property uchar green
property uchar blue
element face 0
element camera 0
property float view_px
property float view_py
property float view_pz
property float x_axisx
property float x_axisy
property float x_axisz
property float y_axisx
property float y_axisy
property float y_axisz
property float z_axisx
property float z_axisy
property float z_axisz
property float focal
property float scalex
property float scaley
property float centerx
property float centery
property int viewportx
property int viewporty
property float k1
property float k2
end_header
4215.5806 6119.5503 13.884065 255 255 255
-1366.3566 -752.29236 -3.0712016 255 255 255
300.87622 766.3103 0.80491215 255 255 255
261.24243 103.44798 0.82534367 255 255 255
641.15125 748.58862 1.0567147 255 255 255
-36928.488 -46885.473 -122.00123 255 255 255
255.56459 275.99319 0.84102911 255 255 255
246.18668 675.40057 0.91344583 255 255 255
93.966789 54.040211 0.24873054 255 255 255
69.04319 65.634941 0.18179505 255 255 255
311.39288 838.50702 0.7938779 255 255 255
1572.4531 1299.2446 2.0232751 255 255 255
-4477.8257 -4553.394 -6.7017655 255 255 255
560.56702 591.5058 0.72029382 255 255 255
62.359001 103.44352 0.11139281 255 255 255
631.73383 617.2522 0.71956253 255 255 255
593.5097 558.18823 0.67583275 255 255 255
-1287.1788 -1487.7986 -3.7659299 255 255 255
-940.37152 -953.30927 -2.3105497 255 255 255
53.95372 75.766319 0.1358413 255 255 255
400.43591 1007.8548 1.1328886 255 255 255
4086.3967 3216.6123 10.241589 255 255 255
554.58301 802.50134 0.99179256 255 255 255
3111.6958 1918.2427 3.2708538 255 255 255
-847.63849 -989.40924 -2.7959287 255 255 255
-2794.6189 -4475.4897 -11.521114 255 255 255
1908.9773 2793.3879 5.6585631 255 255 255
5748.7949 2580.8533 6.2294583 255 255 255
-1504.2054 -2470.9104 -3.7902513 255 255 255
398.9162 839.12665 1.0448532 255 255 255
698.35931 616.10364 1.4175347 255 255 255
357.24521 120.92902 0.40927562 255 255 255
-744.80023 -954.57574 -3.4133368 255 255 255
70.913589 94.060745 0.28086218 255 255 255
-1127.554 -1848.1525 -3.8833759 255 255 255
-837.9278 -596.65112 -2.705112 255 255 255
5823.8403 2770.0813 5.7823339 255 255 255
-381.58014 -1121.2234 -3.0606403 255 255 255
-623.58197 -350.55789 -1.7043865 255 255 255
643.30872 914.97046 0.67079437 255 255 255
513.67407 194.25627 0.62576783 255 255 255
5893.9331 8562.6953 10.047272 255 255 255
-812.82672 -1457.4459 -3.7811174 255 255 255
-178.96779 -123.63179 -1.231777 255 255 255
-956.97296 -596.24719 -2.2013767 255 255 255
8840.001 3368.8145 9.701828 255 255 255
-4755.1113 -11930.193 -21.019426 255 255 255
842.35516 818.8374 2.4673119 255 255 255
2580.5088 1863.1541 2.5265515 255 255 255
137.99545 973.21002 0.84006304 255 255 255
1709.0565 1364.5966 3.9928637 255 255 255
1108.3879 1765.8981 2.1584096 255 255 255
76174.375 38017.527 113.30301 255 255 255
-561.62408 -392.58792 -1.7114649 255 255 255
220.88828 1083.0494 0.97008783 255 255 255
-3135.5422 -5178.2827 -18.831141 255 255 255
685.80469 975.61346 1.142608 255 255 255
682.64563 1502.7211 2.6256211 255 255 255
2473.6482 3474.8074 5.5083361 255 255 255
-437.01697 -614.37482 -1.8661242 255 255 255
700.78351 1466.1539 2.2295156 255 255 255
-3147.0188 -2531.0828 -7.0265317 255 255 255
-553.95105 -2748.4314 -7.6348825 255 255 255
716.17767 505.22974 1.5389184 255 255 255
439.2399 805.19781 0.45137888 255 255 255
225.44095 4444.1855 5.6037483 255 255 255
7585.79 6623.23 21.924082 255 255 255
-356.17636 -1183.8287 -3.3312924 255 255 255
2629.228 1683.63 3.0056245 255 255 255
419.90582 1475.3198 1.3189071 255 255 255
303.20096 362.93124 0.96301907 255 255 255
749.7627 2322.4934 5.5289402 255 255 255
-10714.41 -8125.2402 -13.996388 255 255 255
662.63837 531.81201 1.4118949 255 255 255
3847.8506 1582.9921 4.6069274 255 255 255
253.65651 220.17249 0.27284372 255 255 255
93.866791 42.78896 0.10648752 255 255 255
2036.8386 1647.3208 2.1229804 255 255 255
421.31232 177.12077 0.50254911 255 255 255
1560.9182 1293.7008 2.0141397 255 255 255
-504.25861 -306.66364 -1.6011279 255 255 255
360.54132 1762.5369 2.433332 255 255 255
6525.7617 2910.5684 6.6698461 255 255 255
-459.23883 -904.50507 -3.0106897 255 255 255
-491.67401 -574.9118 -1.7691063 255 255 255
-15622.169 -16871.533 -26.389866 255 255 255
9311.8613 4887.7695 9.9342356 255 255 255
15129.24 12613.863 43.443928 255 255 255
1557.8561 1231.767 4.3100595 255 255 255
2061.2942 1268.0455 2.9006686 255 255 255
1576.7479 1090.5146 3.0821753 255 255 255
1478.3279 1845.0149 4.0922141 255 255 255
1414.0797 1370.8868 1.6694466 255 255 255
437.07169 992.04803 1.4743862 255 255 255
70.261536 100.43642 0.12268191 255 255 255
-585.72186 -682.79395 -2.2800756 255 255 255
206.01132 381.16251 0.21568367 255 255 255
-2840.0945 -1554.3531 -4.7812681 255 255 255
5407.6802 2577.1855 5.728435 255 255 255
554.04175 554.44293 0.57821083 255 255 255
2648.0693 1867.4445 2.6243119 255 255 255
-199.66621 -706.42786 -2.3955166 255 255 255
505.5209 816.06921 0.50358671 255 255 255
-1666.5094 -2316.6331 -3.5458412 255 255 255
1204.5844 716.69049 2.256114 255 255 255
2632.5315 2597.5591 6.6473737 255 255 255
18789.52 25680.432 43.86124 255 255 255
-978.15308 -429.48608 -2.2918463 255 255 255
43.341087 91.810074 0.11749598 255 255 255
55.354603 1217.3892 1.5179183 255 255 255
184.72679 121.3415 0.4372775 255 255 255
1187.9235 804.25055 3.4484632 255 255 255
1966.506 2519.8232 5.8171306 255 255 255
-3469.5088 -2061.2317 -6.3340421 255 255 255
165.88123 159.326 0.3104375 255 255 255
362.5181 892.52759 0.82583362 255 255 255
39594.672 10836.271 45.883377 255 255 255
-3880.439 -5859.5659 -14.022192 255 255 255
2046.3092 1384.0906 2.2125213 255 255 255
-336.67139 -330.54144 -1.4692949 255 255 255
33280.938 56793.926 116.86015 255 255 255
-763.54962 -416.46744 -1.9649384 255 255 255
501.91708 1251.6763 1.7748361 255 255 255
456.80472 422.1181 1.7587016 255 255 255
66.310982 27.268587 0.072929703 255 255 255
383.40182 567.6167 0.68155545 255 255 255
5036.0469 2264.1777 5.8303814 255 255 255
576.04974 673.01788 1.2438743 255 255 255
532.37268 584.81207 1.4815968 255 255 255
3065.5723 4466.3013 10.030998 255 255 255
2806.3376 1885.3984 2.8422194 255 255 255
329.18567 1001.9017 1.0534827 255 255 255
1342.9744 624.85431 3.6914628 255 255 255
-449.1619 -1112.8357 -2.7386897 255 255 255
-1288.2404 -926.03387 -2.7897718 255 255 255
-7314.9497 -9331.1182 -12.821221 255 255 255
117.84106 57.142712 0.12632689 255 255 255
6809.1489 2449.5137 8.8453474 255 255 255
2920.1775 1908.5585 2.9751022 255 255 255
79.746582 50.060162 0.091887742 255 255 255
-6103.4248 -4280.7725 -14.577631 255 255 255
3605.4219 8932.2646 13.100892 255 255 255
680.16266 874.44379 0.77870095 255 255 255
-1102.8359 -731.85577 -2.5579071 255 255 255
4897.5659 2231.7244 5.6658463 255 255 255
2005.2823 2672.793 5.6786437 255 255 255
607.04437 1215.9891 1.8160344 255 255 255
3473.7847 2079.5786 3.5015848 255 255 255
443.72021 803.36273 0.4529002 255 255 255
2022.5132 1310.2733 2.7458324 255 255 255
1865.5227 1252.1504 2.5946169 255 255 255
1383.8348 1301.2145 1.4999671 255 255 255
991.03241 999.96869 1.5439316 255 255 255
1281.0726 1981.3341 3.7556753 255 255 255
1501.3224 2324.0166 5.1749587 255 255 255
4106.2041 1725.274 4.9935322 255 255 255
511.48523 758.29346 0.86676669 255 255 255
-961.27252 -882.74457 -2.3682616 255 255 255
425.76443 188.18753 0.47405526 255 255 255
-1514.9724 -2371.5703 -5.064126 255 255 255
112.25045 1126.1459 1.1574465 255 255 255
-2171.0532 -3084.8611 -4.6231656 255 255 255
-3541.8496 -7146.042 -13.791407 255 255 255
-2138.9465 -5126.7754 -9.2615499 255 255 255
724.92908 284.55029 1.2698427 255 255 255
-1020.6184 -970.1731 -2.5234368 255 255 255
568.60284 731.22284 0.88508558 255 255 255
765.90015 627.60034 1.2383597 255 255 255
-1876.2634 -2186.9436 -7.0571609 255 255 255
171.19028 815.78046 0.94560653 255 255 255
443.19357 2295.4016 2.4950676 255 255 255
-8618.7969 -4261.3652 -10.524697 255 255 255
605.92419 502.26849 1.3302987 255 255 255
-872.67914 -670.80963 -2.1622365 255 255 255
4725.0352 7381.106 8.246892 255 255 255
81.54306 89.564629 0.28031081 255 255 255
1230.0807 1087.7971 3.6152873 255 255 255
4371.4082 4070.9387 11.56853 255 255 255
-765.88361 -753.78699 -2.4083574 255 255 255
1096.9786 1523.6249 3.088635 255 255 255
-314.36255 -292.00604 -1.6724809 255 255 255
3342.5259 1968.084 3.5494714 255 255 255
629.27527 1277.2986 2.3899457 255 255 255
600.31543 417.66895 1.3821428 255 255 255
91.379387 81.46067 0.28523842 255 255 255
-298.94037 -123.5981 -1.3478098 255 255 255
-602.43756 -425.2106 -1.7232059 255 255 255
618.06079 431.30148 1.4070089 255 255 255
743.70862 903.86505 1.2768675 255 255 255
-719.75378 -334.06192 -1.8712643 255 255 255
2934.6155 1797.3571 3.436568 255 255 255
663.84412 480.92303 1.5386671 255 255 255
2549.9023 4653.979 4.7915087 255 255 255
-1103.4141 -775.92639 -2.509944 255 255 255
676.04449 515.96613 1.4510581 255 255 255
4783.5771 2041.2935 6.051847 255 255 255
-1522.9781 -2969.427 -7.7680807 255 255 255
1985.078 2069.5696 6.5215745 255 255 255
-876.77094 -893.26721 -2.6938736 255 255 255
3566.4343 1818.3021 4.3517179 255 255 255
-696.09381 -572.22925 -1.9918245 255 255 255
-589.58289 -518.57343 -1.7665223 255 255 255
62.046978 93.332817 0.12436118 255 255 255
6900.0879 2461.7715 8.978447 255 255 255
-1050.7593 -535.64307 -2.257376 255 255 255
94.80957 41.374596 0.25734645 255 255 255
-971.69995 -3286.0669 -6.7344432 255 255 255
182.70894 732.07739 0.71538222 255 255 255
355.36703 959.39258 1.029443 255 255 255
71.312119 58.206589 0.20507608 255 255 255
6446.2466 4905.2612 10.074854 255 255 255
-1319.774 -2782.0312 -7.0947037 255 255 255
-950.95667 -766.22009 -2.246769 255 255 255
-2174.3962 -1569.1702 -7.3512206 255 255 255
-3772.9292 -8284.3281 -21.795063 255 255 255
-662.09192 -562.18805 -1.8491801 255 255 255
30358.529 8545.0137 35.222481 255 255 255
-4127.6172 -2436.0249 -6.5972328 255 255 255
4806.2041 2414.207 4.9612036 255 255 255
-2832.1472 -3694.0176 -5.1308408 255 255 255
611.18329 512.47632 1.3332974 255 255 255
41.201351 48.904152 0.073221371 255 255 255
16120.455 4370.8687 21.597239 255 255 255
5314.8252 2137.3242 6.8330297 255 255 255
423.14871 356.2034 1.3388962 255 255 255
2502.4824 2119.1526 3.11695 255 255 255
-904.79474 -2422.5444 -6.1972375 255 255 255
561.97253 757.86926 0.90469897 255 255 255
124659.6 31585.086 145.77492 255 255 255
843.20367 841.65948 1.9846733 255 255 255
2664.7834 5676.5801 6.4475036 255 255 255
1351.1661 1237.2856 1.5530337 255 255 255
211.9778 88.582314 0.64439279 255 255 255
73.294823 126.04457 0.16033532 255 255 255
674.44025 990.0246 1.1147401 255 255 255
19863.865 5658.7886 24.248453 255 255 255
345.10519 951.98413 0.97304779 255 255 255
616.90784 435.4357 1.4029676 255 255 255
1426.6494 1474.2365 4.5916929 255 255 255
698.0567 498.82242 1.5068809 255 255 255
131.19562 141.24817 0.48870745 255 255 255
68.331886 557.01617 0.62789088 255 255 255
-1003.2992 -777.08398 -2.3087151 255 255 255
1863.35 1294.6129 2.5056069 255 255 255
-2474.9199 -3923.6887 -8.162324 255 255 255
-571.43488 -736.02728 -2.0834816 255 255 255
107863.58 115598.91 370.76187 255 255 255
4866.5962 2425.9258 5.3934731 255 255 255
-1258.7466 -5573.9819 -15.36887 255 255 255
1261.4308 959.76746 3.1714735 255 255 255
180.31866 393.90091 0.66062498 255 255 255
-1071.6151 -732.82965 -2.4005883 255 255 255
-2931.45 -1738.2075 -6.3057671 255 255 255
-1862.2542 -2486.5144 -4.3591866 255 255 255
171.78984 669.59973 0.7066772 255 255 255
-8447.5303 -2913.4858 -13.185328 255 255 255
-2521.2065 -3026.8135 -5.0659647 255 255 255
-1009.4412 -1970.1498 -5.4470129 255 255 255
-1764.8872 -3752.2109 -8.1433277 255 255 255
2449.4653 2676.9968 3.8133297 255 255 255
739.24451 411.47421 1.6965894 255 255 255
-3676.2654 -1805.3807 -5.6526604 255 255 255
-231271.98 -55593.27 -269.9418 255 255 255
-2627.5859 -3683.3853 -5.1457253 255 255 255
-741.20593 -4260.4365 -9.2653122 255 255 255
1987.0188 3495.1917 3.7245955 255 255 255
-4823.4448 -2329.0833 -7.7196841 255 255 255
-10170.209 -15594.454 -39.641666 255 255 255
-1872.5231 -2456.5588 -3.7913718 255 255 255
3655.9084 4787.9639 11.126479 255 255 255
784.04279 579.70074 0.90900534 255 255 255
393.85516 840.1637 0.84801829 255 255 255
741.31665 634.51837 0.81928825 255 255 255
11481.354 3990.5881 12.867123 255 255 255
1480.2522 498.61655 1.5542405 255 255 255
296.10349 300.07489 0.90198386 255 255 255
11090.868 3901.7393 12.384448 255 255 255
934.82532 333.91748 4.1331444 255 255 255
-396.29413 -469.1853 -1.6203433 255 255 255
719.40552 424.32492 1.6373397 255 255 255
357.95413 75.248428 1.3826774 255 255 255
185.66479 69.681595 0.20774457 255 255 255
-1660.7502 -1845.9231 -4.136817 255 255 255
671.90869 511.94516 0.75992829 255 255 255
682.33881 2084.2397 2.5606699 255 255 255
4235.9385 9396.5889 16.252728 255 255 255
-2040.4207 -5066.5815 -11.118505 255 255 255
345.82822 270.60403 1.0411518 255 255 255
393.1626 434.45926 0.55876863 255 255 255
415.33029 872.4574 0.86324292 255 255 255
-606.21515 -428.12079 -1.7547358 255 255 255
186.08725 484.81766 0.69197834 255 255 255
3606.1218 1822.8799 4.4126139 255 255 255
276.94962 335.60168 0.78365558 255 255 255
-1582.3097 -4486.752 -9.5837898 255 255 255
-828.67841 -636.18066 -2.0801578 255 255 255
1208.4247 922.71625 3.3661311 255 255 255
615.18634 584.99695 1.00782 255 255 255
-10911.928 -4538.6909 -13.218258 255 255 255
2427.8586 1662.5083 2.7129114 255 255 255
42.216492 61.866035 0.19174148 255 255 255
-529.25 -700.3172 -2.0991085 255 255 255
-440.68289 -146.82533 -1.636641 255 255 255
66701.242 16210.316 83.5812 255 255 255
2000.0919 1980.4076 5.3699131 255 255 255
1869.9366 1600.3397 2.0249267 255 255 255
4148.3257 2584.5483 4.0728116 255 255 255
263.95798 908.51776 0.81083006 255 255 255
2276.8545 2201.8 2.9865386 255 255 255
-4969.7295 -6262.4414 -8.9537563 255 255 255
-635.57092 -1373.0701 -4.4145775 255 255 255
614.48505 428.75479 1.403205 255 255 255
-1075.9465 -1882.6934 -5.445138 255 255 255
72.673225 552.27716 0.62697256 255 255 255
685.79742 632.63055 0.76718897 255 255 255
684.30035 520.45837 1.4621855 255 255 255
1566.9399 1294.8362 2.0190473 255 255 255
-1241.2701 -389.85544 -3.1059537 255 255 255
3040.5132 3158.4788 9.7522621 255 255 255
-557.81012 -481.17886 -1.738858 255 255 255
53183.32 14687.784 59.133327 255 255 255
206.53462 90.197205 0.55233788 255 255 255
684.80353 573.47778 1.4194286 255 255 255
5458.0542 2174.7036 6.9811721 255 255 255
693.90063 499.77768 1.497247 255 255 255
189.27032 520.33405 0.70461798 255 255 255
-15873.016 -3936.6299 -20.013668 255 255 255
51.480515 68.556938 0.1888141 255 255 255
732.60535 3214.7456 3.8518083 255 255 255
-529.63098 -611.80066 -1.861207 255 255 255
-801.47205 -387.2959 -3.6765673 255 255 255
1418.8372 1628.6027 4.0353894 255 255 255
-601.17322 -323.00488 -1.906325 255 255 255
105.32286 154.30383 0.20531476 255 255 255
-465.24976 -678.06781 -2.787334 255 255 255
445686.75 672831 1416.4272 255 255 255
608.76007 612.10626 1.2585028 255 255 255
3924.1125 2065.9995 4.3249192 255 255 255
-979.46027 -857.85968 -3.2377295 255 255 255
425.36868 769.06378 0.41046551 255 255 255
4855.3604 2499.2476 4.8033023 255 255 255
1009.1676 2832.2073 3.1614366 255 255 255
856.07727 531.91925 1.3848587 255 255 255
-2880.7117 -4547.9761 -6.2650361 255 255 255
286.56226 870.30682 0.81573242 255 255 255
211.87071 1102.887 0.96435171 255 255 255
-776.8045 -343.46469 -1.9193915 255 255 255
396.50159 401.85077 0.54041398 255 255 255
397.41077 536.23517 0.62996328 255 255 255
1869.0034 1296.3363 2.5119829 255 255 255
2177.8513 4287.7256 9.7083187 255 255 255
8819.2314 3362.2175 9.6787901 255 255 255
-749.81195 -706.40924 -2.1706481 255 255 255
2860.821 1711.7618 3.340256 255 255 255
-2940.3677 -4670.1001 -9.4039087 255 255 255
351.81149 151.63087 1.2184452 255 255 255
5225.6514 2124.5383 6.6778421 255 255 255
11017.005 8272.9717 33.179081 255 255 255
685.55469 975.18298 1.1421527 255 255 255
441.39078 786.27313 0.93815285 255 255 255
177.02397 704.49133 0.71097499 255 255 255
-502.87527 -525.87421 -1.7429843 255 255 255
801.37073 1875.0651 2.178422 255 255 255
-1156.1288 -787.79553 -2.6237245 255 255 255
131.40114 55.225288 0.17458856 255 255 255
-450.86008 -431.21002 -1.5909648 255 255 255
-558.01978 -277.69873 -1.7476928 255 255 255
-1095.3691 -704.32043 -2.5406811 255 255 255
2563.144 6182.9683 9.9440441 255 255 255
160.63048 163.67148 0.56718051 255 255 255
2808.4995 2893.835 7.8757696 255 255 255
-674.12933 -1162.4825 -3.9185135 255 255 255
2941.4824 1901.5913 3.5833631 255 255 255
4734.8306 2032.504 5.982873 255 255 255
727.44916 554.96149 1.7503779 255 255 255
453.74292 1152.8378 1.8544883 255 255 255
4821.063 2393.1719 5.0496316 255 255 255
70.727654 192.02972 0.41796243 255 255 255
-477.25137 -183.4238 -1.5301549 255 255 255
-694.48401 -473.35355 -2.0706582 255 255 255
2419.5051 1660.3947 2.7053943 255 255 255
-373.03159 -798.25159 -2.7196548 255 255 255
181.79272 559.11926 0.70278752 255 255 255
-2699.2974 -2005.1927 -6.7762165 255 255 255
-918.71191 -594.14508 -2.2803223 255 255 255
-15432.453 -9874.377 -18.704121 255 255 255
4005.03 1893.7659 4.9802036 255 255 255
-465.4552 -202.75317 -1.5778565 255 255 255
3084.1963 2140.2219 3.3809025 255 255 255
245.76263 120.1322 0.54850066 255 255 255
-447.57349 -355.88351 -1.5557506 255 255 255
-687.65906 -383.17038 -1.8445319 255 255 255
4611.9351 4428.8286 12.429435 255 255 255
-629.88184 -291.60062 -1.922106 255 255 255
3857.9905 2085.5945 4.1507998 255 255 255
-1547.9508 -2153.4993 -7.770865 255 255 255
6784.8877 2442.8127 8.797142 255 255 255
81.936653 79.353394 0.10810349 255 255 255
-2032.3013 -1161.1863 -4.583179 255 255 255
8492.6328 5063.0391 8.8623552 255 255 255
3817.7117 5445.3857 14.124234 255 255 255
3107.2507 1979.303 3.1242332 255 255 255
698.315 1283.8679 2.2484355 255 255 255
2275.3933 1653.2882 2.4829786 255 255 255
16352.592 6787.2021 20.22562 255 255 255
10760.993 4861.0679 14.363026 255 255 255
430.79376 1510.4718 1.9520657 255 255 255
433.2204 373.53458 1.3971874 255 255 255
418.72354 356.36026 1.5363337 255 255 255
-2106.865 -2252.3037 -3.8838911 255 255 255
5422.1333 2542.9021 5.7238736 255 255 255
391.08984 678.01379 0.38326082 255 255 255
995.00238 758.06879 1.8103138 255 255 255
520.40692 885.92426 3.2909644 255 255 255
-318.57254 -401.6702 -1.4542187 255 255 255
527.42249 714.22748 0.50872493 255 255 255
703.90656 493.15955 0.75342023 255 255 255
2894.6692 5889.5547 11.148785 255 255 255
-538.86761 -626.62531 -1.9012525 255 255 255
-62.149998 -60.558456 -1.2172242 255 255 255
-1123.4247 -790.84473 -2.5896919 255 255 255
43.53717 286.7338 0.47356907 255 255 255
8454.6211 3249.4233 9.344347 255 255 255
379.0423 833.82526 0.81246448 255 255 255
-1232.9735 -942.4931 -4.045609 255 255 255
-727.67981 -644.92737 -2.2126486 255 255 255
323.76187 394.49951 0.96897465 255 255 255
5385.5928 2160.1738 6.882113 255 255 255
3571.011 1813.1184 4.3732805 255 255 255
288.75345 889.11609 0.90828055 255 255 255
-1093.4996 -386.94479 -4.4262691 255 255 255
2165.2126 1260.9569 3.1052749 255 255 255
-5681.3242 -9827.3828 -24.048653 255 255 255
-19100.408 -10563.217 -22.754917 255 255 255
2146.9768 3223.5898 6.9063196 255 255 255
134.26924 157.67505 0.43397248 255 255 255
809.64508 1184.4275 1.8385446 255 255 255
-3534.7356 -2252.2224 -5.0287886 255 255 255
5980.0698 2625.9229 6.5386553 255 255 255
3791.4492 2197.5015 3.7455535 255 255 255
224.57532 1054.1584 0.88984257 255 255 255
3334.4756 2303.46 3.94876 255 255 255
1117.1467 1262.2538 1.4023222 255 255 255
3018.0991 2515.051 11.102548 255 255 255
3913.9087 3800.7173 6.5067468 255 255 255
-945.65448 -718.66895 -2.2509141 255 255 255
4044.5349 2060.3621 4.5551252 255 255 255
-2186.7422 -1557.6062 -4.0645432 255 255 255
-152.66109 -196.72318 -1.5581664 255 255 255
-711.28943 -299.5929 -1.8817331 255 255 255
498.00952 543.94403 0.96685559 255 255 255
2096.0051 1506.5815 5.81675 255 255 255
-108.15352 -1959.475 -5.0206785 255 255 255
-390.43774 -237.8542 -1.4970142 255 255 255
2579.6255 1862.8652 2.5259011 255 255 255
6769.0342 2264.2659 7.7775207 255 255 255
-3258.1636 -7139.0088 -12.523868 255 255 255
38235.156 9778.749 47.185547 255 255 255
-559.23938 -503.16092 -1.7544042 255 255 255
-9225.042 -7831.9688 -14.482768 255 255 255
2976.9104 4616.5293 10.211003 255 255 255
35928.055 15124.147 39.947044 255 255 255
7358.7368 3270.5881 8.7472572 255 255 255
2999.0164 1934.9291 3.0460589 255 255 255
7521.9131 3120.251 7.9105487 255 255 255
4802.3071 2444.9768 4.8654118 255 255 255
424.98727 239.78 0.40616372 255 255 255
-3070.9612 -3143.1238 -12.688691 255 255 255
4872.4185 2970.8223 6.8460402 255 255 255
-816.07562 -1388.8362 -2.8607047 255 255 255
9096.0557 8249.6133 11.856925 255 255 255
928.16272 1588.8896 3.4376297 255 255 255
6186.228 6260.689 17.703096 255 255 255
-0.74463952 866.62329 1.4268408 255 255 255
-710.828 -412.98633 -1.9376882 255 255 255
-583.11542 -1207.7113 -3.4781342 255 255 255
-961.64771 -798.73517 -2.6776328 255 255 255
-403.01996 -461.86462 -1.6409302 255 255 255
133.27051 649.63818 0.67718196 255 255 255
-1344.6558 -4106.8696 -8.9925413 255 255 255
1634.577 1339.7084 2.0516651 255 255 255
-324.82343 -538.03046 -1.8744451 255 255 255
4533.0161 6417.7783 14.490845 255 255 255
412.61414 275.40366 0.42598972 255 255 255
120.79105 147.88809 0.23901525 255 255 255
572.66547 325.55402 1.0016192 255 255 255
405930.41 298795.12 479.40649 255 255 255
-852.57617 -492.07355 -2.0273762 255 255 255
5303.6626 2731.6211 6.0617027 255 255 255
2038.3018 1648.2684 2.124305 255 255 255
3532.0669 1812.9083 4.3027248 255 255 255
220.20367 88.110466 0.23849711 255 255 255
71.704056 141.90967 0.34778145 255 255 255
-1478.427 -603.44324 -3.4814551 255 255 255
271.36957 167.75853 0.55210656 255 255 255
-1484.3319 -2200.3591 -5.2010827 255 255 255
4026.9062 2242.8098 4.0390148 255 255 255
50.47588 339.37213 0.51624453 255 255 255
1231.1555 950.45172 2.4824579 255 255 255
1912.1001 1632.5835 3.1477668 255 255 255
-280.78574 -154.92366 -1.3062762 255 255 255
4908.2427 1886.7454 5.4031091 255 255 255
2493.6038 4957.6973 7.1276088 255 255 255
-763.06165 -440.97998 -1.9123893 255 255 255
875.14789 717.11401 1.6371063 255 255 255
-890.30463 -1406.4722 -3.3951876 255 255 255
4280.5132 2004.2341 4.6439795 255 255 255
665.8244 438.83752 0.75368452 255 255 255
495.14777 300.97739 0.54202527 255 255 255
8847.8164 7989.2417 21.591665 255 255 255
340.69937 293.95322 1.0745898 255 255 255
3082.9529 1175.3453 3.4849639 255 255 255
393.12439 428.01895 1.1995621 255 255 255
71.551735 86.499901 0.26200607 255 255 255
638.74561 640.57733 0.72937638 255 255 255
9626.2715 3555.5461 10.635634 255 255 255
244.27708 452.0209 0.91247171 255 255 255
-1798.231 -4431.8818 -10.717882 255 255 255
6512.666 2904.7373 6.6558161 255 255 255
4859.5811 2501.5771 4.8043332 255 255 255
8429.5977 10070.934 25.946474 255 255 255
2103.5708 715.34979 4.1692276 255 255 255
190.24809 239.80502 0.35381117 255 255 255
-1284.772 -821.96912 -2.9928749 255 255 255
1802.5465 1285.5707 2.4190083 255 255 255
2805.3108 1884.9143 2.8414154 255 255 255
4138.209 2340.3994 3.968544 255 255 255
2920.9766 2009.3909 2.7422125 255 255 255
49126.043 13703.512 54.331608 255 255 255
510.86334 121.98586 0.63807511 255 255 255
-1502.8971 -3048.9097 -10.708899 255 255 255
62519.402 73835.461 92.036011 255 255 255
4037.3267 1901.6388 5.0137153 255 255 255
388.80896 1041.4407 1.1977518 255 255 255
407.68451 237.21275 0.41962335 255 255 255
-805.98767 -961.56177 -2.4561322 255 255 255
7742.8926 3498.7405 8.7771215 255 255 255
3603.3145 2171.4709 3.4862006 255 255 255
1227.2858 2173.8145 2.4294357 255 255 255
604.07318 613.17151 1.2499906 255 255 255
4965.3511 2087.6614 6.2628369 255 255 255
271.58926 520.21155 0.78998333 255 255 255
-111.00095 -97.239998 -1.3268464 255 255 255
12039.01 4123.9668 13.509085 255 255 255
-2773.6953 -3059.0942 -4.9685388 255 255 255
-139.74222 -298.90244 -1.3938627 255 255 255
502.45883 280.64044 0.59723324 255 255 255
404.02951 462.92377 0.43246827 255 255 255
-1741.7825 -3988.9001 -6.2296629 255 255 255
-796.70117 -411.65793 -1.8265781 255 255 255
-1716.0221 -1060.4937 -3.4026477 255 255 255
4054.7244 2254.0862 4.0602193 255 255 255
-529.47479 -1063.6554 -3.1297791 255 255 255
95.494652 103.92548 0.27075911 255 255 255
65.611069 54.984051 0.11410014 255 255 255
5547.6133 2655.3413 5.6141286 255 255 255
2699.0701 2070.1985 2.8874104 255 255 255
231.08263 649.51868 0.94764304 255 255 255
5042.2979 2266.1233 5.8386621 255 255 255
2296.0332 3140.4253 6.8390236 255 255 255
820.53503 824.8855 1.4541351 255 255 255
-927.1402 -2516.4753 -5.9524202 255 255 255
123.77129 127.99687 0.39338186 255 255 255
-791.38385 -572.71222 -1.9860361 255 255 255
439.72021 151.92522 0.51556778 255 255 255
438.29105 374.99872 0.49936524 255 255 255
693.83264 966.88586 1.1614726 255 255 255
257.9267 900.08655 0.75222379 255 255 255
149.11368 47.734035 0.18111582 255 255 255
-1685.924 -1123.7257 -3.3892012 255 255 255
1208.4824 3762.1782 4.9953804 255 255 255
2400.0222 1857.3175 2.2547903 255 255 255
-187.53937 -54.768517 -1.2361162 255 255 255
603.84082 452.35019 0.69064063 255 255 255
435.90335 228.68591 0.46632361 255 255 255
-287.60733 -246.35925 -1.9098415 255 255 255
1845.1221 1308.9897 2.4493382 255 255 255
-272.13385 -922.61005 -2.6586473 255 255 255
572.7431 622.58716 0.64787656 255 255 255
6801.9312 2446.0405 8.837492 255 255 255
2818.5527 1891.1896 2.8472271 255 255 255
1843.639 3703.9387 3.747026 255 255 255
22581.996 37855.809 81.548584 255 255 255
-31142.043 -20818.713 -40.274616 255 255 255
2039.0736 4406.2651 5.2634115 255 255 255
365.16577 292.31021 0.4062705 255 255 255
297.15506 674.03436 0.65004611 255 255 255
400.07956 863.29315 0.85008585 255 255 255
355.2771 825.2453 0.80051506 255 255 255
6587.1436 5859.1309 8.3564196 255 255 255
225.22258 234.09462 0.76690733 255 255 255
-690.30548 -1906.9028 -4.6166439 255 255 255
-334.87796 -278.47781 -1.5556464 255 255 255
1766.9698 1327.1324 2.1088243 255 255 255
-7229.686 -3977.2263 -8.8227577 255 255 255
179.11771 394.81741 0.3928141 255 255 255
-2341.2852 -2023.5076 -4.1916213 255 255 255
-5692.7036 -2148.0032 -6.6992559 255 255 255
6593.6914 1445.0912 10.322795 255 255 255
-56386.75 -58438.828 -104.04838 255 255 255
-1120.3152 -796.05072 -2.5745299 255 255 255
159.02725 86.587837 0.60946727 255 255 255
53512.793 14776.931 59.50156 255 255 255
174.53455 140.24413 0.47177911 255 255 255
-316.65134 -280.33896 -1.6664941 255 255 255
-306.23041 -112.70663 -1.351213 255 255 255
722.77631 517.4295 1.5415422 255 255 255
-1071.8994 -811.59448 -2.2893097 255 255 255
874.64923 1180.2028 1.3588564 255 255 255
345.34756 280.64005 0.95943946 255 255 255
-3246.064 -4705.8174 -15.726052 255 255 255
56.753342 59.4394 0.078629322 255 255 255
-903.12488 -2420.8965 -6.1942506 255 255 255
-2025.6997 -6723.3643 -17.007288 255 255 255
29116.223 8338.4658 33.255032 255 255 255
3312.093 3386.2927 6.0677834 255 255 255
-3253.1123 -4906.7593 -6.4856744 255 255 255
-658.33356 -736.68811 -2.2183793 255 255 255
330.1799 308.96198 0.37860909 255 255 255
9722.3262 3629.2778 10.550356 255 255 255
703.25983 953.38727 1.1806885 255 255 255
632.93695 303.78253 1.2308201 255 255 255
47.99929 72.042442 0.21747404 255 255 255
9172.5605 21808.555 52.235729 255 255 255
773.06818 1133.6138 0.80661392 255 255 255
3917.9102 2062.6108 4.3179545 255 255 255
2697.0647 4453.0933 9.4750328 255 255 255
800.63361 1085.6901 0.8760879 255 255 255
-4189.9131 -6782.1289 -17.508253 255 255 255
355.60559 1619.5509 3.8102639 255 255 255
-2088.8879 -1037.3828 -3.6762595 255 255 255
577.74689 568.96606 0.6077553 255 255 255
785.43011 178.15768 1.5420538 255 255 255
1016.6769 1558.259 4.1026359 255 255 255
-1343.1743 -1099.0186 -2.9053736 255 255 255
11047.494 3887.4119 12.333029 255 255 255
1782.3373 429.39539 2.0167449 255 255 255
42.489388 61.860668 0.19223702 255 255 255
-573.90515 -781.09412 -2.3002219 255 255 255
6091.3291 7807.6523 19.426962 255 255 255
1407.2238 3598.3313 6.5181551 255 255 255
545.64941 478.31137 0.97743696 255 255 255
-24356.592 -4739.5801 -29.490053 255 255 255
41.906086 60.374699 0.18851437 255 255 255
4000.8394 1892.4414 4.9744954 255 255 255
222.78671 390.28885 0.71254456 255 255 255
535.22516 568.18195 0.52778798 255 255 255
-882.83276 -2292.0876 -5.9656215 255 255 255
-114.26685 -58.198818 -1.1318944 255 255 255
148.08899 195.147 0.51639009 255 255 255
1893.1317 1936.5925 6.0847464 255 255 255
1259.7324 958.08289 3.1693563 255 255 255
4091.5354 4121.1543 12.757612 255 255 255
5351.8862 1938.8008 8.2365932 255 255 255
72.58403 553.10315 0.62769133 255 255 255
2938.4822 3818.9133 9.4289885 255 255 255
129.75993 171.95163 0.24015221 255 255 255
-226.43869 -804.91028 -2.2658367 255 255 255
7063.417 12068.411 15.232968 255 255 255
180.68564 394.3266 0.66167432 255 255 255
-1020.0271 -2081.9314 -5.4529247 255 255 255
977.84314 1621.5837 2.845449 255 255 255
3346.4346 1969.0575 3.5536401 255 255 255
4849.1904 2956.5991 6.8116188 255 255 255
463.85889 2282.8354 2.9754255 255 255 255
-4678.3711 -4081.3589 -15.078617 255 255 255
1332.3641 4427.3994 9.1197042 255 255 255
799.47522 1992.7339 2.8323576 255 255 255
716.43951 540.4538 1.5087171 255 255 255
6496.9858 1522.952 8.23279 255 255 255
740.01135 906.02008 1.2682785 255 255 255
1255.8142 1317.0066 3.9305379 255 255 255
154.75597 201.19267 0.30201614 255 255 255
-512.71661 -710.11603 -1.9341992 255 255 255
-2870.6997 -1328.6825 -4.5559893 255 255 255
194.06168 167.65508 0.62464494 255 255 255
4067.9287 1904.4919 5.0577149 255 255 255
789.94733 3667.7063 4.7974925 255 255 255
599.66437 417.31042 1.3804811 255 255 255
1770.7444 2896.3447 7.7497454 255 255 255
6379.8711 2689.8252 20.324621 255 255 255
302.5553 1865.7197 2.1308994 255 255 255
-696.03094 -427.15497 -1.8248647 255 255 255
773.98572 1050.4268 0.74840128 255 255 255
1469.1556 4672.5962 6.4299531 255 255 255
450.7326 954.35492 1.1439747 255 255 255
-612.07904 -507.19745 -1.8662158 255 255 255
173.68059 675.63794 0.70957702 255 255 255
130.94786 653.63562 0.67605156 255 255 255
260.86581 209.00307 0.74361646 255 255 255
685.81549 975.6062 1.142403 255 255 255
621.84503 403.57166 1.7879 255 255 255
24.547577 69.801025 0.092513345 255 255 255
-634.90472 -330.23688 -1.7769462 255 255 255
68.721558 557.11224 0.62837297 255 255 255
141.99954 105.2086 0.28310099 255 255 255
-552.57819 -1020.004 -3.6106007 255 255 255
77.356796 682.13721 0.65090561 255 255 255
1809.147 2606.7427 5.3337731 255 255 255
-1987.3156 -3319.4409 -8.5235949 255 255 255
930.01202 1989.3313 4.4152908 255 255 255
-649.54553 -587.20349 -2.0854907 255 255 255
68.602158 127.0267 0.14453675 255 255 255
-1176.6554 -899.51703 -2.6526423 255 255 255
506.55798 698.69409 0.55176032 255 255 255
536.13263 196.05698 0.65982062 255 255 255
9113.0977 3197.4744 10.847332 255 255 255
1867.6826 2407.3206 3.703357 255 255 255
-903.00818 -950.04584 -2.6032233 255 255 255
201.76643 485.49283 0.70887643 255 255 255
-184.11774 -603.3349 -1.9143013 255 255 255
-918.52185 -593.76349 -2.2796919 255 255 255
520.71448 544.51666 0.56989527 255 255 255
112.85196 91.768097 0.33884108 255 255 255
1623.9237 1444.3726 3.9653645 255 255 255
2147.2756 1293.8943 2.999846 255 255 255
10116.955 3714.6738 11.043637 255 255 255
-23061.805 -6673.9346 -26.572433 255 255 255
554.51538 399.44135 0.63876647 255 255 255
-423.28546 -641.96619 -1.8637706 255 255 255
1079.1758 1871.6813 2.8578217 255 255 255
-18061.844 -9484.165 -22.052296 255 255 255
-1523.1917 -1050.6334 -3.1411717 255 255 255
4849.0488 2495.8345 4.7937083 255 255 255
-365.68158 -84.385597 -1.458972 255 255 255
5392.2339 2162.2927 6.8909931 255 255 255
-266974.47 -137030.55 -298.54907 255 255 255
3773.2126 2181.5515 3.9176223 255 255 255
-1324.7642 -3133.0967 -4.3937831 255 255 255
-595.39752 -1780.7963 -3.7204163 255 255 255
673.85358 991.36877 1.1147295 255 255 255
4150.897 4383.6377 14.941901 255 255 255
5925.9883 2268.6646 7.6232481 255 255 255
175.67665 1145.244 1.0979728 255 255 255
1707.3466 2068.6345 4.7912884 255 255 255
133.86942 152.48853 0.25952291 255 255 255
140.65799 1183.5164 1.0860211 255 255 255
18001.701 38231.934 69.537903 255 255 255
-2720.2854 -4038.7288 -10.293851 255 255 255
85.881401 64.722153 0.19013688 255 255 255
697.01099 615.40308 1.4161087 255 255 255
19855.473 5656.9082 24.226858 255 255 255
120.69853 114.01938 0.20932467 255 255 255
312.02469 500.81628 0.29562426 255 255 255
438.87469 478.72601 0.4014037 255 255 255
1375.8802 2023.3038 4.1973591 255 255 255
5021.8965 2261.0686 5.8107014 255 255 255
146.0976 38.948135 0.17884704 255 255 255
200.26347 1061.905 0.89558154 255 255 255
-1025.2174 -749.18787 -2.9806025 255 255 255
-1750.8525 -738.99133 -3.852618 255 255 255
-942.39551 -688.12421 -2.1560843 255 255 255
164.77336 881.70972 0.73903894 255 255 255
20904.67 5825.0493 25.516945 255 255 255
-1330.5598 -2276.5132 -6.2305107 255 255 255
-531.11627 -601.23608 -1.8670828 255 255 255
2162.9597 9931.9873 12.505381 255 255 255
-967.52209 -817.93872 -2.3568285 255 255 255
292.12909 304.91422 0.28445637 255 255 255
1554.8422 2068.9851 4.2691073 255 255 255
573.50085 1583.6072 2.029218 255 255 255
2886.343 1573.032 3.7263682 255 255 255
3116.8621 5213.9565 9.1542168 255 255 255
995.29559 757.77765 1.810903 255 255 255
3576.886 2014.9509 3.8352191 255 255 255
-1314.4857 -773.38611 -2.7240133 255 255 255
1761.7155 1534.838 5.6737146 255 255 255
2080.5024 1570.8242 5.49301 255 255 255
-1911.3455 -2061.5168 -3.7048297 255 255 255
161.23839 38.745953 0.20213149 255 255 255
121.69175 62.176476 0.12463511 255 255 255
20322.484 6361.3633 22.254457 255 255 255
-5944.8579 -4863.7939 -12.129074 255 255 255
-1411.0201 -2745.3423 -7.239212 255 255 255
-2003.2159 -865.00098 -4.4396782 255 255 255
-323327.81 -372518.38 -1233.6923 255 255 255
361.05582 674.7005 0.74736238 255 255 255
1276.8544 1545.8098 3.6626086 255 255 255
-414.13065 -578.2868 -1.7571939 255 255 255
774.28302 1355.0255 1.5910498 255 255 255
5315.0264 2618.0396 5.315968 255 255 255
342.55566 693.23181 1.2401778 255 255 255
72.74836 91.723763 0.31591231 255 255 255
8014.6089 3371.7722 9.0078449 255 255 255
-217.14888 -92.338234 -1.2464807 255 255 255
130290.79 32974.004 152.37453 255 255 255
48524.656 12319.733 58.818802 255 255 255
2002.0098 2955.5979 6.2322831 255 255 255
-561.76947 -380.93115 -1.6492332 255 255 255
1569.6086 1296.3379 2.022366 255 255 255
-491.77814 -274.70242 -1.7277817 255 255 255
163.19662 137.99904 0.54569638 255 255 255
1543.8035 526.98743 1.6305774 255 255 255
3610.009 2150.4016 3.5487721 255 255 255
8083.0688 3149.0928 8.9491835 255 255 255
617.1264 490.40643 0.60008585 255 255 255
-2019.8383 -576.17419 -3.8192244 255 255 255
-682.14032 -456.60144 -1.9616787 255 255 255
549.60126 453.58826 0.61590749 255 255 255
96.408997 66.276016 0.21554396 255 255 255
-178.56578 -377.09003 -1.6280911 255 255 255
327.6105 708.79999 1.2045054 255 255 255
1661.6174 743.43707 5.0309591 255 255 255
2858.8823 1711.0706 3.3372061 255 255 255
208.62444 77.422829 0.22824661 255 255 255
4667.2285 2197.7163 5.3243008 255 255 255
6392.4199 2363.1113 8.2618074 255 255 255
-8495.1133 -12535.294 -15.526964 255 255 255
6172.8647 6632.5356 8.3829536 255 255 255
614.04651 428.08008 1.4021661 255 255 255
-575.23358 -512.26849 -1.7500581 255 255 255
-2354.9678 -1313.8358 -3.6294117 255 255 255
153856.31 35870.5 194.2693 255 255 255
692.50568 965.45483 1.1576508 255 255 255
628.54248 471.62842 1.3952308 255 255 255
3886.7422 2254.6399 4.2246814 255 255 255
-821.06946 -1864.6296 -4.7988992 255 255 255
809.65729 431.24579 1.8251556 255 255 255
778.34583 417.82156 1.7755966 255 255 255
592.04547 583.89404 1.2482542 255 255 255
5657.6704 2938.9517 5.7078538 255 255 255
68276.766 19813.799 85.352516 255 255 255
1267.5093 1302.8018 1.372348 255 255 255
313.08365 1158.3468 2.6425552 255 255 255
1875.1002 2354.6152 3.1442289 255 255 255
11469.014 3986.0598 12.853726 255 255 255
-2393.5232 -3140.6086 -10.614038 255 255 255
-712.96143 -2780.8706 -6.4099617 255 255 255
-641.61371 -590.06598 -1.8515158 255 255 255
94.131378 150.31854 0.39048961 255 255 255
1016.3463 3111.8494 4.3450117 255 255 255
1864.3492 1295.1721 2.5070734 255 255 255
-928.44092 -2971.0779 -6.8813186 255 255 255
368.18588 1104.4462 1.2157512 255 255 255
5223.5615 2123.8354 6.6747975 255 255 255
4690.478 2459.1704 4.6198201 255 255 255
-560.72589 -537.13544 -1.817306 255 255 255
139.99477 141.22997 0.44194373 255 255 255
-4344.2368 -3759.1335 -6.7744794 255 255 255
-873.21967 -3516.3745 -8.3842382 255 255 255
4543.8374 2406.9583 4.5123816 255 255 255
-2783.3997 -3951.1487 -9.4823923 255 255 255
1908.8099 1650.0742 1.9279637 255 255 255
875.29639 716.98053 1.6378425 255 255 255
27881.793 8117.3057 31.421436 255 255 255
186.09161 484.61777 0.6920405 255 255 255
18028.42 6205.3896 21.06522 255 255 255
-73.130272 -111.89417 -1.2526568 255 255 255
805.81403 836.38257 1.4231241 255 255 255
-1171.1516 -2235.5305 -6.0256472 255 255 255
-371.98538 -745.30267 -2.6518903 255 255 255
5923.5063 7060.6675 23.365765 255 255 255
3985.3704 2194.071 4.940886 255 255 255
-676.98187 -1299.9611 -3.7002134 255 255 255
-40604.352 -25800.338 -54.522278 255 255 255
395.04498 860.04242 2.6414244 255 255 255
2276.2449 1653.5752 2.4841602 255 255 255
3132.1191 2103.6833 2.8593192 255 255 255
-808.8208 -606.4317 -2.4060168 255 255 255
272.64618 232.68417 0.85804582 255 255 255
-3881.8086 -3084.1199 -6.1020322 255 255 255
720.86792 931.79517 1.2240047 255 255 255
-1001.7237 -730.45178 -2.4033802 255 255 255
-2291.384 -3366.2568 -9.9210043 255 255 255
3579.2095 1818.2754 4.3834538 255 255 255
1451.9678 2749.2517 2.7979784 255 255 255
507.14905 579.23267 0.51747459 255 255 255
1878.0551 2819.5095 5.7313209 255 255 255
4126.916 2058.8616 5.1528578 255 255 255
-573.93536 -373.52136 -1.6665957 255 255 255
-763.56189 -1453.9758 -3.8782005 255 255 255
1073.6571 3783.8257 6.1961393 255 255 255
702.46338 1396.4274 2.4416375 255 255 255
9002.6885 6982.0244 11.24841 255 255 255
277.55527 249.92439 0.946711 255 255 255
-42.858414 -17.402832 -1.2105981 255 255 255
1149.5078 851.73297 1.9739267 255 255 255
4140.8472 2341.2693 3.9708519 255 255 255
-534.5152 -889.20026 -2.857785 255 255 255
-324.19144 -468.8439 -1.6976459 255 255 255
677.11926 1232.6823 1.3996806 255 255 255
502.66684 1358.2168 1.3139626 255 255 255
3845.9988 4330.3101 6.8909087 255 255 255
-23627.141 -8631.1396 -28.491226 255 255 255
269.56808 205.40674 0.72222328 255 255 255
71.344849 141.5641 0.3467035 255 255 255
-1477.0865 -968.07227 -2.9515381 255 255 255
451.55322 507.75458 0.80437875 255 255 255
-9600.5049 -4032.5198 -15.118696 255 255 255
332.48837 540.45728 0.33509922 255 255 255
7521.082 3119.2007 7.9087253 255 255 255
553.92822 624.27832 1.164555 255 255 255
3869.9255 8007.6724 9.9873085 255 255 255
47.633038 101.41711 0.13851231 255 255 255
1085.6038 734.2196 1.4317424 255 255 255
-842.05621 -652.91785 -2.2105947 255 255 255
2722.4175 1358.74 8.0546417 255 255 255
362.7063 489.7485 0.57376826 255 255 255
124.79743 145.5184 0.20567007 255 255 255
525.62256 881.66272 1.3586445 255 255 255
649.60291 1011.0919 1.6697882 255 255 255
374.84619 765.84149 0.76548046 255 255 255
1509.155 3271.8083 9.2606373 255 255 255
3532.8931 1812.8561 4.3038898 255 255 255
-2358.4463 -1740.8444 -4.5507956 255 255 255
4476.2944 4789.75 10.000112 255 255 255
19451.416 17773.518 31.57328 255 255 255
700.87738 954.16089 1.1773176 255 255 255
501.92651 666.69385 1.1426326 255 255 255
10929.303 19723.336 41.840591 255 255 255
-2458.7522 -3439.4058 -7.1571612 255 255 255
3450.021 2232.3074 4.1750612 255 255 255
-811.422 -353.50067 -2.0945237 255 255 255
19087.309 7537.4004 21.580612 255 255 255
-48130.504 -15127.692 -58.842766 255 255 255
4929.6558 2542.5837 4.8127742 255 255 255
7706.1929 3234.3408 9.1711435 255 255 255
-4893.4424 -3777.1709 -11.10383 255 255 255
293.1716 227.07941 0.69710088 255 255 255
-2658.3733 -2757.3628 -4.738554 255 255 255
-341.17853 -952.70874 -2.6000137 255 255 255
956.8858 5877.8809 7.558845 255 255 255
-3179.7983 -2907.2344 -4.9707928 255 255 255
-822.54205 -413.00238 -2.0810013 255 255 255
-1622.3916 -2214.095 -6.5313969 255 255 255
-1311.739 -1901.5607 -4.3503428 255 255 255
478.15778 482.64694 0.48006567 255 255 255
330.8407 1338.1609 1.7262554 255 255 255
2265.2656 1650.0267 2.4718602 255 255 255
-589.69635 -256.91003 -1.6746572 255 255 255
-1240.7502 -818.25702 -2.7388022 255 255 255
632.95367 584.68658 0.63321668 255 255 255
2487.1365 4943.5752 7.10672 255 255 255
202.68906 577.97528 0.68289793 255 255 255
744.96063 885.55652 2.4251785 255 255 255
900.60834 944.96289 2.2241504 255 255 255
206.40289 359.6293 0.71057093 255 255 255
724.19415 985.85419 0.70228428 255 255 255
160.58405 112.9334 0.41749915 255 255 255
-462.54065 -2235.3787 -5.3556495 255 255 255
-427.9057 -328.14166 -1.5795784 255 255 255
619.48993 1345.5522 2.652909 255 255 255
716.52881 540.25793 1.5083541 255 255 255
-263.41458 -117.81339 -1.3040249 255 255 255
577.90466 490.81003 0.64631367 255 255 255
-1868.8059 -1410.1212 -8.0051517 255 255 255
17642.207 4617.2637 24.0245 255 255 255
-415.63608 -472.20282 -2.0131602 255 255 255
-1504.2463 -937.45673 -2.8613441 255 255 255
522.01263 568.88202 0.50440013 255 255 255
969.72961 1243.4022 2.8046627 255 255 255
510.54645 162.42267 0.67175972 255 255 255
53.139744 61.549011 0.075612053 255 255 255
2198.8621 1497.8414 4.3528662 255 255 255
-551.92413 -415.49005 -1.6973959 255 255 255
556.40851 1110.3849 1.3675314 255 255 255
7930.0801 2733.0186 8.2148247 255 255 255
806.99896 1168.8607 1.0418197 255 255 255
-826.88721 -821.07922 -2.8724475 255 255 255
-1220.1467 -631.2619 -2.6195238 255 255 255
442.02246 167.99059 0.55023915 255 255 255
598.1825 503.51062 1.3123971 255 255 255
1428.0513 1093.7905 2.3203051 255 255 255
709.00476 523.54749 1.5061789 255 255 255
-4783.9639 -8749.4424 -23.438908 255 255 255
633.40643 614.79614 1.2978661 255 255 255
2822.7986 4458.8574 11.034296 255 255 255
7921.8052 3129.4995 8.6808281 255 255 255
-967.99976 -622.39508 -2.219404 255 255 255
7042.7695 3318.5356 8.147994 255 255 255
528.19824 564.80139 0.69777149 255 255 255
-1910.3153 -4070.5149 -9.4615993 255 255 255
-3444.5054 -5396.9917 -14.5003 255 255 255
-1744.3915 -3415.9575 -6.6639156 255 255 255
788.75775 866.53394 1.3801243 255 255 255
2023.8309 3044.3293 6.2354431 255 255 255
664.22626 502.69336 1.3661033 255 255 255
1082.9899 1855.4539 2.0916741 255 255 255
846.48352 926.43237 2.8397939 255 255 255
480.46805 586.31885 0.44003651 255 255 255
143.22978 153.51656 0.80127615 255 255 255
-961.74506 -1887.5747 -5.3377261 255 255 255
-16671.908 -21326.678 -25.699253 255 255 255
1797.1506 1547.3186 5.3801312 255 255 255
-625.04669 -98.57283 -3.0878716 255 255 255
175.85289 817.82336 0.68033403 255 255 255
-738.96594 -370.94583 -2.0024822 255 255 255
1378.5702 2027.8217 4.2094469 255 255 255
590.11407 760.57007 1.4137508 255 255 255
-1152.246 -1307.7515 -2.988924 255 255 255
715.07935 715.9765 1.6851246 255 255 255
238.54889 198.06 0.69505125 255 255 255
2301.6206 2535.3008 5.5533781 255 255 255
140.88362 824.11139 1.0469567 255 255 255
-937.77258 -1760.9178 -4.7843122 255 255 255
784.01849 1451.9121 1.610497 255 255 255
-2678.8987 -1170.2242 -5.5458193 255 255 255
606.07062 746.98682 1.8690219 255 255 255
1437.4919 1432.4149 1.9912119 255 255 255
1134.427 944.13116 2.9236183 255 255 255
-715.32977 -2431.6824 -5.3401723 255 255 255
2316.334 1356.1055 3.1753423 255 255 255
101.73237 72.910614 0.11479074 255 255 255
821.37744 524.66998 1.7385932 255 255 255
808.37787 429.7915 1.8236161 255 255 255
-46670.16 -56384.621 -69.473282 255 255 255
743.93921 903.08777 1.2771398 255 255 255
6968.2168 2042.3439 10.625463 255 255 255
484.92801 466.2933 0.49337703 255 255 255
78.461456 79.530685 0.20287254 255 255 255
2178.2883 822.70331 4.0726161 255 255 255
-1011.4611 -684.79846 -2.7852194 255 255 255
84.080696 291.12054 0.50500351 255 255 255
4927.436 1886.9463 5.3214102 255 255 255
802.71252 428.88443 1.815645 255 255 255
-4468.603 -3811.5938 -6.9627962 255 255 255
574.39972 450.28653 1.3036044 255 255 255
810.33453 609.53406 1.3031723 255 255 255
-322.16748 -483.7305 -1.8566459 255 255 255
1056.92 922.75977 1.3774846 255 255 255
-685.56567 -332.76859 -1.877414 255 255 255
728.97577 927.61865 1.6617368 255 255 255
-9657.2656 -3610.6121 -11.412657 255 255 255
5304.1714 2132.7034 6.8192396 255 255 255
142.76958 153.18681 0.45060343 255 255 255
706.76239 529.84998 1.5362353 255 255 255
-959.58173 -4607.6797 -10.169787 255 255 255
-14330.417 -21176.527 -56.936554 255 255 255
-412.64362 -150.18159 -1.4572592 255 255 255
884.88147 2169.7734 4.64394 255 255 255
-605.31439 -2182.9502 -4.8254976 255 255 255
-2877.1204 -3624.259 -7.9398851 255 255 255
502.61206 1310.9117 1.2444344 255 255 255
5280.3276 2602.2639 5.2822208 255 255 255
126.48044 114.28637 0.21619122 255 255 255
2395.1328 4041.6147 5.0153866 255 255 255
578.16809 309.72653 0.62089956 255 255 255
-531.85809 -1218.0881 -3.0356388 255 255 255
113.2309 83.985497 0.31516734 255 255 255
607.62054 611.03082 1.2563567 255 255 255
113.44832 162.34871 0.43168089 255 255 255
48.01844 71.801682 0.21686141 255 255 255
767.49219 747.55981 1.8529751 255 255 255
-1252.1373 -1813.1555 -3.9174728 255 255 255
185.81526 486.63541 0.69065261 255 255 255
711.11774 538.65137 1.4980919 255 255 255
-749.1662 -389.33679 -2.0014884 255 255 255
413.53174 502.87906 0.98473531 255 255 255
-1218.9535 -3671.2842 -10.555894 255 255 255
5947.3857 6958.6636 8.8124056 255 255 255
154.74171 201.05048 0.30214274 255 255 255
-849.67938 -2897.5071 -6.0528269 255 255 255
429.99503 579.02222 0.43433118 255 255 255
16220.73 16625.637 22.213486 255 255 255
617.76306 699.25317 0.60871154 255 255 255
179.50516 787.52814 0.65304106 255 255 255
823.65302 598.48584 0.87237811 255 255 255
3660.8181 3145.4067 7.1508913 255 255 255
-734.21906 -860.70929 -2.5982308 255 255 255
-313.71988 -80.379883 -1.363912 255 255 255
-14231.789 -6326.8418 -17.230017 255 255 255
770.08484 451.3786 1.7137041 255 255 255
137.5918 169.91444 0.28963596 255 255 255
-953.9549 -743.74438 -2.344429 255 255 255
345.73831 454.55673 0.34830004 255 255 255
203.44791 159.36461 0.40891382 255 255 255
3565.55 1811.533 4.3661656 255 255 255
4850.9995 2497.9067 4.7977457 255 255 255
-1080.3986 -2735.3896 -6.9737763 255 255 255
20680.238 5322.9321 27.831076 255 255 255
2119.0059 1832.5399 3.4559555 255 255 255
-409.33728 -374.68884 -1.68446 255 255 255
-466.48117 -382.81827 -1.5624551 255 255 255
-446.84515 -371.99771 -2.1896091 255 255 255
-2161.3425 -1176.1515 -4.8784828 255 255 255
523.13928 922.67664 1.8359929 255 255 255
1183.1273 356.06519 4.3584337 255 255 255
191.55942 524.8725 0.70809174 255 255 255
5446.6064 2659.0896 5.4279876 255 255 255
257.54221 622.55933 0.77559429 255 255 255
521.36194 767.53229 0.95997691 255 255 255
671.22461 814.03162 1.0933261 255 255 255
616.13824 516.80347 1.337483 255 255 255
4611.2798 14145.153 29.299938 255 255 255
-4734.8164 -7793.6587 -21.02453 255 255 255
-1232.8616 -2924.6047 -7.9044952 255 255 255
645.89368 681.61902 0.85212427 255 255 255
1362.5718 1238.4108 1.5712531 255 255 255
555.73804 659.914 0.51520121 255 255 255
125.54593 30.378325 0.4839941 255 255 255
-523.81384 -1246.0415 -3.1060281 255 255 255
258339.03 143849.97 343.69687 255 255 255
14826.905 6970.7886 17.173922 255 255 255
-515.02625 -516.14471 -1.697006 255 255 255
181.0764 394.68704 0.6624704 255 255 255
955.06024 519.07019 2.0592859 255 255 255
-234.00987 -237.66789 -1.6355617 255 255 255
-582.48157 -494.29825 -1.7900401 255 255 255
1057.4791 1203.1989 1.2135144 255 255 255
-435.60361 -335.7739 -1.5168462 255 255 255
-641.98828 -491.70398 -1.7917596 255 255 255
68.715202 556.99341 0.62818658 255 255 255
2489.9512 2580.2502 4.2245822 255 255 255
701.48578 1394.8379 2.4382854 255 255 255
