ply
format ascii 1.0
comment PCL generated
element vertex 1109
property float x
property float y
property float z
property uchar red
property uchar green
property uchar blue
element face 0
element camera 0
property float view_px
property float view_py
property float view_pz
property float x_axisx
property float x_axisy
property float x_axisz
property float y_axisx
property float y_axisy
property float y_axisz
property float z_axisx
property float z_axisy
property float z_axisz
property float focal
property float scalex
property float scaley
property float centerx
property float centery
property int viewportx
property int viewporty
property float k1
property float k2
end_header
-1710.3467 -1061.6355 -4.2538075 255 255 255
22229.752 23512.451 71.553383 255 255 255
519.53021 1386.9946 2.1457491 255 255 255
1122.2876 1235.7484 2.6379452 255 255 255
-6590.9541 -4183.0396 -8.4613266 255 255 255
798594.88 384428.72 2041.7194 255 255 255
-518.72998 -261.17014 -1.6079844 255 255 255
810.0036 1768.095 2.5703652 255 255 255
2137.1521 3942.1941 6.9075627 255 255 255
3829.0525 2086.5916 5.8419328 255 255 255
1044.6071 1277.1122 2.555912 255 255 255
564.77771 1674.6599 2.3764703 255 255 255
402.49646 392.53079 1.3259442 255 255 255
-1690.9764 -1591.4542 -6.3533897 255 255 255
1036.2998 1114.9852 2.5104764 255 255 255
2334.47 1433.5165 6.3647113 255 255 255
11476.824 13887.898 34.969475 255 255 255
-3092.3064 -3109.8513 -10.579469 255 255 255
22350.307 9193.0283 24.559532 255 255 255
9123.3672 4618.8589 9.2508202 255 255 255
203.79968 293.71313 0.89026976 255 255 255
2874.438 2009.1571 7.2700934 255 255 255
-753.70776 -405.88562 -1.8668176 255 255 255
1161.38 851.36639 2.8497832 255 255 255
5422.002 3724.4927 6.5071621 255 255 255
-1706.511 -1208.1887 -5.6609035 255 255 255
-540.90369 -379.05756 -1.6498384 255 255 255
285.28229 344.49741 1.0787244 255 255 255
-401.97922 -237.63588 -1.4432608 255 255 255
-31572.447 -13748.29 -69.192604 255 255 255
-874.63202 -437.94107 -1.9902822 255 255 255
576.56055 586.5246 0.73137289 255 255 255
-707.84344 -801.06134 -2.5658658 255 255 255
-4533.9614 -2799.2688 -13.088388 255 255 255
999.64941 1075.8562 2.4547226 255 255 255
6955.9507 4248.1133 7.6156631 255 255 255
13339.49 6916.5039 39.065365 255 255 255
-4853.0356 -1655.2605 -5.9204693 255 255 255
-1435.5675 -1959.3629 -4.8673778 255 255 255
-1924.4111 -1022.3553 -5.8605866 255 255 255
832.75586 1783.7677 2.5977111 255 255 255
794.56885 1235.0951 2.2681382 255 255 255
-663.54132 -601.1532 -2.2938244 255 255 255
-786.83392 -746.10132 -3.3032937 255 255 255
-2787.603 -2704.3157 -9.9916344 255 255 255
-3137.2358 -1288.2136 -8.1043692 255 255 255
-1009.1921 -757.83264 -2.3765948 255 255 255
34542.898 26818.801 100.1865 255 255 255
987.40814 1122.3567 2.4503465 255 255 255
587.16327 456.6853 0.72489256 255 255 255
560.83575 585.19702 0.81642365 255 255 255
-548.19818 -335.09259 -2.457216 255 255 255
1481.4034 1024.9308 3.1752849 255 255 255
832.40833 1028.2985 1.6972716 255 255 255
12.837614 238.89784 0.61358446 255 255 255
487.54111 884.11908 1.304876 255 255 255
6049.6055 3729.1621 7.0707517 255 255 255
8297.207 4547.5078 8.5924168 255 255 255
7967.8071 4619.9292 8.2588501 255 255 255
399.96722 1745.1884 2.4173787 255 255 255
3525.7385 2653.1736 10.302528 255 255 255
7724.9272 23208.221 33.889404 255 255 255
-565.48016 -240.5612 -1.603958 255 255 255
246.18556 1005.1488 1.6888602 255 255 255
4238.1333 4779.7881 12.562492 255 255 255
4702.5581 2931.4045 6.2264466 255 255 255
-1344.5916 -2089.1714 -5.0526562 255 255 255
906.94128 1803.0664 2.6669619 255 255 255
616.3551 377.47668 0.78429788 255 255 255
33033.781 24061.1 40.104141 255 255 255
-868.79456 -733.6059 -2.3339255 255 255 255
1119.4167 1095.2561 2.6158357 255 255 255
5357.4868 2883.0176 13.41381 255 255 255
-1582.6865 -890.71869 -4.9907079 255 255 255
973.72015 1493.3562 2.8635278 255 255 255
1331.0906 1213.3729 2.9027896 255 255 255
3801.1641 5950.3159 11.632832 255 255 255
1018.373 1081.5686 2.478487 255 255 255
539.58563 982.17621 1.8675783 255 255 255
552.25305 1557.8951 2.2888069 255 255 255
-12381.54 -8162.2607 -34.570904 255 255 255
834.09625 1500.5492 2.4378223 255 255 255
9534.3066 4458.5635 9.79426 255 255 255
653.80646 435.64569 0.79446208 255 255 255
1561.7324 1824.5183 2.1963079 255 255 255
928.69684 1146.2023 2.3834016 255 255 255
-360.43283 -572.59546 -1.9390068 255 255 255
-1529.6638 -1399.1447 -5.7241373 255 255 255
498.72955 292.31479 0.559753 255 255 255
-765.31824 -216.02333 -1.7534425 255 255 255
744.25787 702.85162 0.9808743 255 255 255
357.30573 558.90179 1.264526 255 255 255
1250.9021 1252.5093 2.7992642 255 255 255
-668.17548 -831.40656 -2.5174556 255 255 255
-4812.042 -3739.0317 -15.586555 255 255 255
7023.4897 3184.3098 7.1423826 255 255 255
1149.8707 1328.8359 2.6902876 255 255 255
1070.3885 1529.4026 2.4690363 255 255 255
-401.24936 -320.33267 -1.5603633 255 255 255
8015.1602 11144.297 25.732628 255 255 255
-882.26984 -705.5564 -3.0242174 255 255 255
690.43427 347.75769 0.79896009 255 255 255
1679.908 1592.1606 4.0161948 255 255 255
929.60449 861.22607 1.9920753 255 255 255
-724.31006 -150.87706 -1.7383126 255 255 255
1296.8918 1305.9323 2.8629198 255 255 255
824.29041 1329.2324 2.342803 255 255 255
766.56879 1291.0715 2.2692816 255 255 255
5542.0059 4313.4365 12.867159 255 255 255
-1475.6746 -1729.4987 -4.9280581 255 255 255
836.24561 1506.2102 2.4443638 255 255 255
1479.615 867.39264 3.6000564 255 255 255
-3949.8184 -12795.169 -18.894985 255 255 255
1012.8119 1136.8687 2.4859009 255 255 255
1631.5306 1584.7133 4.7268209 255 255 255
-1530.7468 -1551.3641 -5.6186738 255 255 255
-2901.4028 -3130.3921 -5.1576371 255 255 255
688.83551 1136.3988 1.6400799 255 255 255
7090.2222 4168.7769 7.7695508 255 255 255
9509.5488 4415.3691 9.8152065 255 255 255
1301.6593 1680.2599 2.8907096 255 255 255
6063.7939 1659.703 13.870281 255 255 255
8532.0938 4667.3862 8.7170258 255 255 255
-902.01453 -1365.1545 -3.4557271 255 255 255
196.08156 297.13956 0.88138252 255 255 255
614.23309 1229.795 3.599251 255 255 255
-725.86615 -554.48383 -1.9096102 255 255 255
5509.6562 2200.2507 5.4772158 255 255 255
1382.7162 1212.8784 1.8671367 255 255 255
688.8186 735.88849 1.0061271 255 255 255
1089.3794 1397.7332 1.5967236 255 255 255
8099.4419 3959.0708 8.8878393 255 255 255
-445.44653 -296.57083 -1.5242198 255 255 255
6212.1343 3755.2859 7.2094812 255 255 255
-963.39813 -1557.3398 -3.690603 255 255 255
-2209.2642 -2035.6779 -8.6296301 255 255 255
-1615.9645 -1236.2754 -5.5463314 255 255 255
898.74042 1211.3636 2.1382117 255 255 255
8341.2715 5586.4097 9.0606461 255 255 255
1185.0739 1289.0817 2.7285986 255 255 255
1424.3472 1486.491 3.3853478 255 255 255
918.90894 775.57434 2.3032217 255 255 255
7507.6299 3417.9685 8.8714962 255 255 255
3764.5586 10639.121 14.715894 255 255 255
4897.9458 2086.8896 7.375771 255 255 255
-530.9895 -126.95984 -1.5679369 255 255 255
649.07092 470.45218 0.84614021 255 255 255
1398.5808 1705.6532 4.0124273 255 255 255
1207.0621 1319.5743 2.7581632 255 255 255
9750.2236 4679.7383 9.7613916 255 255 255
1629.0245 810.72235 3.6522501 255 255 255
591.31427 172.1507 0.58944672 255 255 255
241.6778 314.06601 0.9752658 255 255 255
203.26895 293.06027 0.88793296 255 255 255
523.03052 1285.9081 2.0732782 255 255 255
737.82343 1610.9646 2.431165 255 255 255
2931.3635 3654.7915 8.6378918 255 255 255
1620.6465 1030.5231 3.4085686 255 255 255
806.13934 955.43866 2.1495883 255 255 255
-311.29996 -199.94878 -1.416209 255 255 255
971.19214 1168.5254 2.4430213 255 255 255
7972.8794 2606.4814 10.992514 255 255 255
-1241.3892 -1070.2219 -2.5257773 255 255 255
-1500.5398 -1146.4915 -3.9260035 255 255 255
1012.0779 1110.0906 2.4760809 255 255 255
3011583.8 1079698.6 8583.1777 255 255 255
-5841.3428 -2591.3511 -15.393004 255 255 255
1022.1556 1106.676 2.4897256 255 255 255
-5402.9644 -4290.7031 -16.735371 255 255 255
1328.8435 737.94849 3.1099296 255 255 255
8966.2803 4442.7563 9.2755842 255 255 255
448.98096 648.86749 0.73292637 255 255 255
8171.7236 4432.3857 8.5600986 255 255 255
-1445.5166 -829.36932 -4.8865051 255 255 255
-407.54291 -121.01352 -1.4674908 255 255 255
639.6402 1052.4086 2.0108359 255 255 255
-1937.621 -1112.5692 -6.1705461 255 255 255
-818.51001 -702.71143 -2.8316727 255 255 255
280.31851 333.42032 1.0602665 255 255 255
540.91577 402.1886 1.0118343 255 255 255
-512.81525 -669.71545 -2.1002009 255 255 255
1611.9182 951.95386 3.9390748 255 255 255
-1050.2532 -974.43427 -2.6312566 255 255 255
416.95032 192.09204 0.46064994 255 255 255
-2774.5681 -1704.8239 -9.7761135 255 255 255
1366.8964 1106.5093 1.6389222 255 255 255
3581.4468 2223.595 10.234725 255 255 255
6917.1772 4169.0381 7.6172333 255 255 255
875.47864 914.90381 2.2375939 255 255 255
7210.9229 4167.4976 7.8777838 255 255 255
-853.70123 -579.42725 -3.3751292 255 255 255
1037.153 1115.5824 2.5097928 255 255 255
-2042.818 -1181.6416 -6.370831 255 255 255
2776.2925 1375.8453 6.5317092 255 255 255
928.90009 796.35986 2.3213918 255 255 255
538.85443 1119.1165 1.9632357 255 255 255
945.02228 1172.6472 2.4099879 255 255 255
519.04675 1385.2133 2.1422107 255 255 255
2898.1714 1484.9198 6.2792211 255 255 255
1014.628 1115.1973 2.4806821 255 255 255
11245.791 6449.4893 12.588864 255 255 255
3962.4448 2063.5496 10.57865 255 255 255
-1532.2012 -1382.7113 -4.4300132 255 255 255
8213.335 4421.9771 8.5976505 255 255 255
-2188.554 -2309.5 -7.8371034 255 255 255
-1186.4998 -1270.9417 -2.5892777 255 255 255
7050.1636 3461.3501 8.3359394 255 255 255
-2722.0825 -2510.6689 -8.6582651 255 255 255
905.18079 1120.6371 2.3471437 255 255 255
878.16345 917.06213 2.2417362 255 255 255
-577.86945 -287.64902 -1.6282141 255 255 255
7947.4243 4627.3809 8.2528858 255 255 255
-3823.1362 -2362.6121 -11.431002 255 255 255
1315.7257 1159.2524 2.884706 255 255 255
1753.9242 798.18176 3.9297891 255 255 255
889.98499 909.64386 1.6739278 255 255 255
-880.5506 -510.64545 -3.2890472 255 255 255
-873.73334 -607.39124 -2.0849266 255 255 255
933.75159 819.96497 2.3271906 255 255 255
-523.76508 -758.62933 -2.0246022 255 255 255
20.067556 500.0791 1.0381751 255 255 255
8471.0244 4633.6211 8.6878185 255 255 255
15553.997 8935.583 17.02247 255 255 255
438497.91 271942.12 495.0296 255 255 255
1284.415 698.50781 3.0533714 255 255 255
-425.62949 -307.10162 -1.564415 255 255 255
5791.7729 4152.2627 14.915022 255 255 255
-699.5838 -266.98355 -1.989586 255 255 255
698.77594 681.69067 0.93457329 255 255 255
-2813.1448 -7122.1694 -11.20687 255 255 255
-815.99664 -566.33868 -1.9994103 255 255 255
9856.4336 4023.4697 10.490484 255 255 255
-1578.4932 -1096.946 -2.9349365 255 255 255
-831.82684 -707.74268 -2.025682 255 255 255
-2081.4404 -1204.3724 -5.1832008 255 255 255
-841.64429 -586.14984 -1.9897469 255 255 255
-1533.319 -1791.6056 -3.2147241 255 255 255
-656.81439 -251.04048 -1.7229543 255 255 255
-5086.2002 -1408.6073 -13.571907 255 255 255
946.27148 1137.9871 3.0357988 255 255 255
-2608.6658 -2783.5559 -9.5994987 255 255 255
-513.71014 -255.73032 -1.5510585 255 255 255
-687.466 -415.61389 -1.8145218 255 255 255
193.95486 288.22409 0.86783922 255 255 255
-144394.31 -74281.164 -356.43042 255 255 255
528.68561 1161.8085 1.9846528 255 255 255
-6598.7344 -9039.0332 -18.25552 255 255 255
27395.01 15140.2 72.283455 255 255 255
-897.18542 -654.94177 -2.2795758 255 255 255
2103.4097 1343.8092 5.1117458 255 255 255
760.94427 741.61041 1.1382253 255 255 255
-7184.4756 -4852.1899 -24.932148 255 255 255
321.42609 361.15393 1.1551028 255 255 255
25.82303 207.17615 0.55423903 255 255 255
2275.0745 1357.6675 5.5051036 255 255 255
5806.3989 2910.2983 7.4942117 255 255 255
1069.6406 1236.2646 2.5761666 255 255 255
21.955063 497.08594 1.0335845 255 255 255
-5337.3608 -4920.0571 -16.880493 255 255 255
10049.538 3973.1807 10.743737 255 255 255
613.75775 1502.512 2.2790568 255 255 255
774.33356 652.32709 0.96110314 255 255 255
-1461.7734 -916.63367 -4.1559668 255 255 255
-699.87909 -428.07184 -1.9642256 255 255 255
-5762.1841 -2144.8499 -16.338621 255 255 255
1069.9 870.03052 2.5505137 255 255 255
1061.4932 1201.6597 2.5570512 255 255 255
1428.4377 1040.2322 3.0867295 255 255 255
888.17731 341.23718 1.1899642 255 255 255
903.75397 864.57855 2.2765198 255 255 255
1074.0734 880.93268 2.5571473 255 255 255
555.61115 1098.3853 1.6340545 255 255 255
558.42633 266.35928 0.61829966 255 255 255
-702.14197 -548.2276 -1.9995128 255 255 255
-2202.1292 -930.52466 -7.2578998 255 255 255
-524.08325 -202.04489 -1.5697758 255 255 255
-7792.2231 -4042.1931 -19.465309 255 255 255
6227.7871 4094.5994 7.0542998 255 255 255
-1354.7941 -1308.381 -4.5265985 255 255 255
1242.0476 1216.8734 2.7846329 255 255 255
9489.958 4527.5171 9.688694 255 255 255
612.01147 1304.8452 2.1474383 255 255 255
-5499.3979 -3682.3147 -14.088412 255 255 255
3461.3542 4312.8779 10.126884 255 255 255
430.99469 270.51007 0.48374844 255 255 255
-2798.5142 -5037.6406 -11.466926 255 255 255
498.99536 1014.2543 1.8525673 255 255 255
7010.4517 3930.8347 7.8469348 255 255 255
-480.01691 -237.87206 -1.5337859 255 255 255
832.1839 984.11285 2.1961186 255 255 255
771.54504 1324.949 2.2918465 255 255 255
1545.694 990.77356 3.3072548 255 255 255
-1673.4888 -1713.7682 -5.5533671 255 255 255
-4355.7495 -2382.9407 -12.088563 255 255 255
-485.36938 -494.52707 -1.8928522 255 255 255
1609.8561 1067.4797 3.3692389 255 255 255
7929.2607 4546.1851 8.2732153 255 255 255
-682.05157 -441.85358 -1.8953104 255 255 255
1072.7993 1222.4227 2.577085 255 255 255
1676.139 3037.0442 5.8659911 255 255 255
1017.4735 1286.8307 3.1617892 255 255 255
-1434.7996 -1895.1716 -3.4248843 255 255 255
7046.7266 4253.5615 7.6930637 255 255 255
7169.6855 3962.9878 7.9712858 255 255 255
7987.646 4482.2168 8.3776379 255 255 255
7310.0425 4177.7358 7.9564915 255 255 255
-302.87357 -256.79718 -1.5702463 255 255 255
1556.1027 992.59888 3.3194568 255 255 255
537.89539 980.55682 1.8655986 255 255 255
903.49384 1143.225 2.3516679 255 255 255
504.13211 1073.4845 1.9005904 255 255 255
995.7597 862.04169 2.42168 255 255 255
19501.629 11231.73 21.705669 255 255 255
79702.758 42576.668 90.604874 255 255 255
-644.24347 -197.80782 -1.8208588 255 255 255
1048.8419 882.34503 2.5666394 255 255 255
-576.68842 -459.4455 -1.8963228 255 255 255
16556.084 7974.9526 17.659918 255 255 255
3409.5051 3315.3315 9.7788467 255 255 255
670.28967 1215.4408 2.1383197 255 255 255
498.92267 1007.942 1.8477455 255 255 255
-1013.2792 -1056.1367 -3.3556986 255 255 255
949.17084 1178.2318 2.416373 255 255 255
536.67371 1112.0625 1.9554836 255 255 255
7004.5278 4241.9932 7.6578889 255 255 255
-167461.16 -59568.844 -241.09496 255 255 255
-433.28238 -323.41147 -1.5361999 255 255 255
438.48508 614.55145 1.4443761 255 255 255
782.98218 1327.849 2.3039851 255 255 255
-839.37903 -948.1814 -3.1228774 255 255 255
-2094.302 -2028.4479 -6.730865 255 255 255
1107.5112 724.43079 2.6629741 255 255 255
-869.32068 -675.56036 -2.0839293 255 255 255
-2201.355 -2259.4397 -7.9508324 255 255 255
625.20453 1153.6608 2.0598452 255 255 255
1553.843 1188.5482 3.9388957 255 255 255
1444.5162 792.8432 3.2885759 255 255 255
285.00052 344.11627 1.0773537 255 255 255
321.70389 990.08783 1.7102891 255 255 255
1561.7007 993.28607 3.329457 255 255 255
1025.321 1161.9351 2.5108614 255 255 255
1100.1721 732.83032 2.6467009 255 255 255
504.65265 1010.5996 1.8553047 255 255 255
465.88052 274.71298 0.51012313 255 255 255
-1113.8359 -1223.5742 -2.5101957 255 255 255
6680.7783 5062.355 11.800477 255 255 255
1701.5624 1025.8677 3.5507159 255 255 255
1172.3727 1341.4899 2.7216549 255 255 255
501.15195 1074.1149 1.8984671 255 255 255
9715.0957 1736.8932 26.414003 255 255 255
-4555.3657 -4597.4199 -12.94533 255 255 255
3423.8535 2759.7827 4.9727707 255 255 255
-1500.5624 -494.24939 -4.9140205 255 255 255
553.36005 917.60925 1.8397095 255 255 255
-725.42303 -344.776 -1.8004791 255 255 255
1555.796 1724.9415 3.0183625 255 255 255
30.51486 202.05025 0.5463261 255 255 255
2219.5071 1599.2399 7.2653604 255 255 255
7962.1816 2605.8928 11.011117 255 255 255
-3350.4592 -3031.8088 -6.1988001 255 255 255
15713.757 3908.0254 20.514992 255 255 255
3902.4026 3879.6506 10.272031 255 255 255
229.77234 307.39816 0.94746661 255 255 255
-31773.322 -13984.944 -35.161362 255 255 255
1464.9393 992.23346 3.1664052 255 255 255
-1532.2504 -864.68347 -4.2431355 255 255 255
659.08582 360.41177 0.85602283 255 255 255
1662.5029 609.58624 3.5152071 255 255 255
7582.3174 4763.1392 20.09024 255 255 255
536.76184 450.94452 1.6074502 255 255 255
-1962.925 -1577.026 -5.3169909 255 255 255
321.0069 987.81976 1.7077951 255 255 255
1115.9658 468.85403 2.6999979 255 255 255
-6818.8291 -3274.1882 -8.3905077 255 255 255
-430.25974 -175.93733 -1.4423666 255 255 255
14361.027 7240.3916 17.298201 255 255 255
-940.45453 -884.93988 -2.3253722 255 255 255
5223.7905 2631.4045 6.6808596 255 255 255
5417.2603 3721.4241 6.4996595 255 255 255
1595.6337 1004.4157 3.3819294 255 255 255
6503.2578 3810.6511 7.4380565 255 255 255
1033.7665 1162.7664 2.5183504 255 255 255
8896.7207 4644.937 9.0304518 255 255 255
4741.4204 2463.1912 6.6679077 255 255 255
3947.3318 2844.4744 10.212571 255 255 255
-369.35464 -141.93031 -1.5223479 255 255 255
-1094.8879 -1264.8893 -2.7121544 255 255 255
6059.1274 3810.9448 7.0351882 255 255 255
895.87048 804.19464 2.2682438 255 255 255
797.28534 1267.0126 2.2855012 255 255 255
513.88287 1198.912 2.0024109 255 255 255
688.44391 406.27664 0.80814153 255 255 255
538.43774 1111.5646 1.9585327 255 255 255
8780.2861 4435.4072 9.1047983 255 255 255
1981.3147 1387.9606 2.5524948 255 255 255
-534.63171 -415.05368 -1.7213604 255 255 255
-693.41083 -176.87672 -1.7636395 255 255 255
885.64496 510.03375 1.8528283 255 255 255
-932.63708 -604.61334 -3.0606625 255 255 255
627.95471 1157.515 2.0632622 255 255 255
502.87457 929.5304 1.7956606 255 255 255
998.84119 854.64307 2.4321589 255 255 255
642.70026 1398.0193 2.2310753 255 255 255
-441.71909 -267.55823 -1.5887022 255 255 255
1472.0258 1054.6965 3.1503706 255 255 255
3606.9614 2676.6182 5.1890426 255 255 255
365.76114 585.41919 1.442467 255 255 255
1527.6981 781.58948 3.4777279 255 255 255
-8085.1177 -7388.6523 -24.993139 255 255 255
920.99603 978.88165 2.9016714 255 255 255
-1279.2443 -712.97809 -3.5763786 255 255 255
7588.4072 4508.105 8.0085697 255 255 255
398.84659 398.79691 1.3219203 255 255 255
9930.1338 4492.2329 10.126237 255 255 255
-453.87595 -242.64214 -1.5265632 255 255 255
-853.57947 -121.34453 -1.9187136 255 255 255
820.4212 1814.3466 2.6071658 255 255 255
-496.4563 -985.85864 -2.7262969 255 255 255
-528.5506 -437.56802 -2.0269599 255 255 255
532.39447 1645.9707 2.3401439 255 255 255
11474.92 5504.1094 28.968065 255 255 255
791.92426 1787.2299 2.5704818 255 255 255
-7995.0215 -6130.9038 -23.761671 255 255 255
-2347.571 -334.96255 -7.3521118 255 255 255
692.7016 1324.8818 1.9997824 255 255 255
4182.7739 1309.0266 10.914692 255 255 255
-357.69971 -87.252831 -1.4867836 255 255 255
9010.6748 4286.2617 9.4710817 255 255 255
-632.68945 -795.16077 -2.251524 255 255 255
15701.175 3912.3306 20.485485 255 255 255
1391.0448 1123.9459 3.001792 255 255 255
1157.4176 1356.2633 2.7524128 255 255 255
2941.9302 2222.2739 4.6396174 255 255 255
15274.217 16309.973 35.622688 255 255 255
-1016.7754 -1234.6672 -3.4707654 255 255 255
5149.3999 3907.0046 6.2214012 255 255 255
9425.5635 4763.9443 9.4022045 255 255 255
1076.7975 1046.04 1.4857846 255 255 255
1095.303 871.38519 2.5910926 255 255 255
48477.738 65376.785 161.84474 255 255 255
1035.182 1160.7576 2.5192685 255 255 255
1523.7195 1057.6569 3.2258894 255 255 255
672.99585 791.23688 1.8837901 255 255 255
-552.16998 -207.25835 -1.6089158 255 255 255
4782.0142 2481.3298 6.7089076 255 255 255
772.23352 1322.7277 2.2914228 255 255 255
2555.0981 2906.7322 7.2571721 255 255 255
565.45502 323.94711 0.65200347 255 255 255
244.28845 323.26175 0.98826665 255 255 255
959.88184 694.87103 1.9886074 255 255 255
871.64111 560.91675 2.159641 255 255 255
5267.9116 2654.2097 6.705162 255 255 255
-2828.9475 -2520.2063 -4.4352694 255 255 255
2864.3975 1999.5016 7.3988695 255 255 255
1379.0226 779.3075 3.1710467 255 255 255
714247 1547493.8 2898.2319 255 255 255
32.02882 200.79285 0.54465073 255 255 255
-480.94614 -244.23012 -1.5715137 255 255 255
497.56335 862.125 1.7425287 255 255 255
560.41418 592.04132 0.75049239 255 255 255
-142.05702 -293.40967 -1.432795 255 255 255
29.569956 308.89499 0.7426846 255 255 255
726.34863 680.55682 0.93643445 255 255 255
1071.8342 1480.7609 2.6151392 255 255 255
1587.2825 961.9845 3.3989708 255 255 255
693.76959 610.23944 1.0463607 255 255 255
500.78952 866.14825 1.7491583 255 255 255
-9069.0859 -5260.0464 -24.083279 255 255 255
599.74939 1245.5063 2.0985987 255 255 255
-2045.7462 -1275.5415 -4.0644765 255 255 255
1022.3676 839.64496 2.4795806 255 255 255
-912.82983 -508.255 -2.9010837 255 255 255
1490.6549 677.00671 3.5405474 255 255 255
1014.7925 839.15125 2.4681017 255 255 255
509.45892 995.19092 1.8496171 255 255 255
935.03833 1697.4565 2.6340384 255 255 255
-522.17065 -413.28641 -2.1576385 255 255 255
-419.98816 -177.44937 -1.4758369 255 255 255
-1089.5526 -1267.6095 -3.4431748 255 255 255
7400.4824 4556.4985 7.8284254 255 255 255
233.04247 317.203 0.96290213 255 255 255
595.85352 532.84528 0.75886887 255 255 255
1376.8662 827.16626 3.2419982 255 255 255
1297.5084 1162.1891 2.8598447 255 255 255
-710.95416 -491.83417 -1.856331 255 255 255
-127245.32 -67357.516 -318.4169 255 255 255
-575.41241 -778.60614 -2.4059834 255 255 255
539.4425 1270.4077 2.0707493 255 255 255
532.51062 406.42557 0.75488722 255 255 255
-594.20569 -270.11194 -1.7005247 255 255 255
17.220064 206.5426 0.55135328 255 255 255
7938.3813 4484.7456 8.3238182 255 255 255
8608.2148 10017.559 26.869465 255 255 255
6190.3813 3737.3293 7.1930189 255 255 255
649.24957 704.68256 2.5611904 255 255 255
6902.4365 3981.7378 7.7071238 255 255 255
-1072.2869 -612.02631 -3.0821738 255 255 255
1525.6703 1040.9592 3.2420123 255 255 255
2179.0581 1202.1632 5.360127 255 255 255
-4560.4971 -1768.6298 -5.8799672 255 255 255
1988.0768 1397.3378 3.7955968 255 255 255
-5586.3848 -1676.871 -16.451256 255 255 255
5806.6406 2914.5867 7.4894385 255 255 255
500.5683 247.08147 0.57648236 255 255 255
746.32184 1397.7233 4.2610731 255 255 255
975.42108 924.24072 2.39485 255 255 255
1332.6837 686.09119 2.246506 255 255 255
885.20752 785.7774 2.2442634 255 255 255
-4786.625 -3199.1768 -14.499285 255 255 255
7325.3223 4288.8003 7.908843 255 255 255
1009.4875 1115.5734 2.4753957 255 255 255
2769.5305 1500.6123 6.3380809 255 255 255
1455.2109 708.51703 3.4095383 255 255 255
1272.9913 1126.2762 2.8274043 255 255 255
7982.4009 4631.6104 8.2730713 255 255 255
-1574.8129 -1197.2646 -4.317204 255 255 255
-210561.66 -118809.53 -241.55963 255 255 255
792.42828 1063.5303 2.182277 255 255 255
-1296.8333 -964.84625 -2.5823083 255 255 255
5951.0791 3739.9077 6.9805298 255 255 255
-2853.2744 -3178.1147 -7.1954131 255 255 255
-6888.1714 -3204.9761 -8.6231794 255 255 255
1281.4851 1240.571 2.8370264 255 255 255
9589.0039 2278.6248 26.096914 255 255 255
811.72162 1690.9587 2.5282111 255 255 255
873.78113 960.28992 2.2461317 255 255 255
43.544308 186.543 0.25625378 255 255 255
1076.6312 1478.4019 2.6159754 255 255 255
-2544.4812 -2688.1089 -7.3797307 255 255 255
125189.29 70306.43 380.25369 255 255 255
1810.1542 1174.8313 3.3168843 255 255 255
-1404.3972 -1806.5951 -4.7314153 255 255 255
5168.5684 2353.1377 12.654689 255 255 255
948.57593 905.80835 2.352397 255 255 255
169.28384 193.40181 0.4883365 255 255 255
1505.0439 1047.4641 3.2033389 255 255 255
8914.9551 4431.7627 9.235899 255 255 255
2075.2275 1392.4673 3.9264655 255 255 255
-39752.938 -19557.539 -98.724861 255 255 255
-1816.1659 -1286.1573 -4.5291924 255 255 255
904.14764 1295.7601 1.5347397 255 255 255
1758.2445 1019.6783 3.6639364 255 255 255
817.42999 899.76733 1.9547596 255 255 255
-734.55341 -252.08133 -1.8075691 255 255 255
1824.5518 797.86584 4.0878253 255 255 255
-570.32025 -764.16797 -2.6240168 255 255 255
2000.0009 1175.6371 4.7962794 255 255 255
857.22998 924.48004 2.2127023 255 255 255
812.06342 1656.4819 2.5074401 255 255 255
-794.10846 -452.33658 -1.9911925 255 255 255
3309.262 6758.4336 12.065948 255 255 255
1007.3514 1209.609 2.497761 255 255 255
8143.542 3384.8635 9.6698151 255 255 255
4210.019 2514.1394 5.973032 255 255 255
791.30634 1557.3436 2.4362607 255 255 255
-699.14105 -637.59515 -2.4031677 255 255 255
1113.8243 690.28326 1.961715 255 255 255
-1005.7733 -1150.7751 -2.4012868 255 255 255
1222.2236 1219.3711 2.7589173 255 255 255
7979.8716 4586.0635 8.3044424 255 255 255
-1937.9539 -1339.9385 -4.993845 255 255 255
1709.123 2883.4231 4.7461128 255 255 255
-1210.5272 -1033.536 -4.150012 255 255 255
872.56946 1384.7192 2.4160867 255 255 255
-1721.05 -1377.9974 -3.3634803 255 255 255
934.30029 1376.608 2.4722674 255 255 255
-1553.8062 -924.32892 -2.7232747 255 255 255
-1529.1481 -988.71167 -3.6511397 255 255 255
-1948.7137 -1068.9663 -5.4863887 255 255 255
-35674.656 -28427.74 -53.042683 255 255 255
630.27905 1648.9519 2.3912733 255 255 255
-895.13275 -916.31561 -2.7045016 255 255 255
823.79114 1329.0035 2.3413785 255 255 255
-9761.8535 -8035.4224 -20.772924 255 255 255
-3466.6501 -3712.1736 -11.634068 255 255 255
239.01404 1049.985 1.7290764 255 255 255
-1436.6113 -1100.9849 -4.2636352 255 255 255
1056.1083 1199.028 2.5501063 255 255 255
1296.1783 1674.8693 2.8845286 255 255 255
-1656.7827 -2570.1096 -4.0324593 255 255 255
-654.62323 -246.91846 -1.6943061 255 255 255
-859.25873 -674.75525 -2.2195964 255 255 255
979.10516 930.80963 2.4009871 255 255 255
-545.18439 -344.70245 -1.6169261 255 255 255
1032.5353 1127.7622 2.0721223 255 255 255
-6773.519 -6789.3823 -23.148829 255 255 255
3435.696 1294.4286 8.1252136 255 255 255
-1903.4099 -1739.3336 -5.3217602 255 255 255
-2765.2834 -3378.4514 -8.3044367 255 255 255
818.30225 1319.1327 2.3325408 255 255 255
611.78473 456.73157 0.72592372 255 255 255
6997.2153 4269.5698 7.6400309 255 255 255
-713.37286 -339.92819 -1.8158571 255 255 255
-508.05121 -265.33002 -1.5769377 255 255 255
-905.01654 -601.6485 -3.5138764 255 255 255
950.68994 1149.3936 2.4124944 255 255 255
680.12457 1225.1984 2.153547 255 255 255
8900.8291 4770.0708 8.951683 255 255 255
-29258.633 -32257.229 -82.198753 255 255 255
-2496.877 -4113.8916 -9.7228346 255 255 255
651.32092 308.66846 0.7205714 255 255 255
7716.0601 4666.7598 8.0313978 255 255 255
-114508.12 -22819.037 -288.85843 255 255 255
479.33038 384.95627 0.55455035 255 255 255
-1110.1117 -996.15546 -2.6666434 255 255 255
1745.63 1768.2623 4.7258401 255 255 255
1854.5262 870.89746 4.5655856 255 255 255
1095.1598 938.36108 2.5834923 255 255 255
1576.6191 2469.9482 5.699419 255 255 255
-222840.59 -123158.05 -254.20387 255 255 255
1047.8606 963.97626 2.507534 255 255 255
-790.45203 -823.3548 -2.7500403 255 255 255
-533.68829 -136.70789 -1.6045783 255 255 255
1424.5332 1024.3242 3.085371 255 255 255
-4722.541 -2532.9128 -13.12816 255 255 255
-736.25555 -428.55603 -1.8527256 255 255 255
50.152546 564.63428 1.12983 255 255 255
1393.0145 1998.7441 3.0905001 255 255 255
-34184.922 -7968.5688 -86.859261 255 255 255
1156.4869 1323.1802 2.6954 255 255 255
2221.0579 979.90082 4.5893855 255 255 255
821.28754 1208.9597 2.2826941 255 255 255
1086.5902 644.04694 2.5306201 255 255 255
2394.916 1171.5809 2.8433967 255 255 255
-16819.529 -9503.5684 -19.408411 255 255 255
-1346.3412 -1208.302 -4.4474049 255 255 255
-8837.5566 -8927.999 -23.929926 255 255 255
-396.1171 -554.19592 -2.0837054 255 255 255
-620.00116 -252.51976 -1.6484648 255 255 255
-1239.7129 -1066.4441 -2.5450237 255 255 255
2181.9446 1470.4572 3.2927597 255 255 255
-1075.4554 -1583.8574 -5.2131853 255 255 255
7905.5894 4604.5762 8.2321692 255 255 255
-885.38538 -712.23792 -2.6802108 255 255 255
6529.3193 4394.1445 7.1796303 255 255 255
2739.6665 1656.1572 4.714395 255 255 255
335.17938 287.0303 0.64900571 255 255 255
1012.5721 1136.3315 2.484699 255 255 255
1008.0564 1119.1013 2.4736981 255 255 255
7313.6475 4327.7578 7.8759904 255 255 255
786.84229 1210.3982 2.243782 255 255 255
917.72516 810.47992 2.5558465 255 255 255
-607.2561 -645.50043 -2.5534906 255 255 255
-589.56293 -219.59502 -1.615692 255 255 255
806.41937 1243.8767 2.2825334 255 255 255
4158.7905 2050.8545 4.6438513 255 255 255
-326.84778 -203.88983 -1.5420991 255 255 255
971.10254 1167.9194 2.4431145 255 255 255
3629.657 2645.6201 5.2280922 255 255 255
600.91589 663.29279 1.0939523 255 255 255
1405.4968 1712.1403 3.0112364 255 255 255
1285.163 698.6225 3.0561101 255 255 255
1284.964 699.11627 3.0585713 255 255 255
498.20804 899.77765 1.7698437 255 255 255
1821.8346 1486.5961 4.4308796 255 255 255
322.07693 614.79181 0.57382739 255 255 255
14.087563 219.89017 0.57696879 255 255 255
64737.816 26107.936 214.54936 255 255 255
570.24615 896.03284 1.7220955 255 255 255
-535.25433 -491.9884 -1.7843494 255 255 255
1069.2787 868.8692 2.5475242 255 255 255
673.92804 1214.6051 2.1415334 255 255 255
1387.9652 2029.4169 3.0953948 255 255 255
2845.5962 2265.2793 4.512495 255 255 255
7074.2422 4158.6694 7.7513423 255 255 255
521.21149 1346.4514 2.1158626 255 255 255
-534.55682 -186.64992 -1.5540566 255 255 255
769.97418 524.10913 2.5800133 255 255 255
1107.4279 971.41681 2.60058 255 255 255
8261.1924 4488.957 8.5872421 255 255 255
592.00885 303.56638 0.63996512 255 255 255
536.80548 450.88907 1.6070452 255 255 255
933.67944 1694.8545 2.6300361 255 255 255
5946.5532 3736.5571 6.9767017 255 255 255
32723.117 30797.867 97.812805 255 255 255
39153.984 21747.455 58.051186 255 255 255
-420.30756 -246.39876 -1.4962263 255 255 255
-1007.2581 -681.28369 -3.7054393 255 255 255
319.25867 352.2663 1.1457031 255 255 255
-772.77533 -350.95645 -1.852018 255 255 255
30.738565 266.77213 0.66933286 255 255 255
-1102.875 -813.20526 -2.3010535 255 255 255
-420.19482 -216.47925 -1.4407883 255 255 255
-1454.7803 -1101.9865 -5.2514458 255 255 255
-522.2124 -306.35529 -1.6035457 255 255 255
725.80542 453.85794 1.4880316 255 255 255
882.71948 1763.2084 2.6258628 255 255 255
-560.20068 -676.48126 -1.9030558 255 255 255
7937.4712 4550.4443 8.2812471 255 255 255
7965.8579 4469.0825 8.3537092 255 255 255
906.00793 1018.9169 2.3108752 255 255 255
1387.3989 2041.6881 3.1027236 255 255 255
-502.50043 -147.38197 -1.526589 255 255 255
1389.787 1122.4967 2.999439 255 255 255
-1781.8503 -3378.5933 -7.4896593 255 255 255
8898.6865 5019.6782 26.113289 255 255 255
-1430.6082 -1460.5439 -2.8954132 255 255 255
6049.4043 3803.636 7.0223708 255 255 255
-370.24634 -142.74516 -1.5238405 255 255 255
-506.49323 -518.96497 -2.1728601 255 255 255
1062.6799 1034.605 1.4675301 255 255 255
1385.3876 1767.0259 4.1048679 255 255 255
630.6524 1649.8151 2.3922808 255 255 255
6546.4839 4406.519 7.1994514 255 255 255
9781.3506 5674.5337 10.830796 255 255 255
30.437773 202.10924 0.54647738 255 255 255
1069.2418 1236.2507 2.5759408 255 255 255
534.06445 1616.9998 2.3208799 255 255 255
1543.1932 988.83881 3.3023262 255 255 255
3212.6077 2993.6479 4.7271547 255 255 255
1277.2863 1630.7659 2.8462887 255 255 255
2717.6982 1647.5541 4.6903195 255 255 255
939.36511 1127.3914 2.3957262 255 255 255
-2703.3853 -2184.2295 -9.2762947 255 255 255
755.04083 585.99829 1.0474757 255 255 255
24.989275 250.50928 0.63761628 255 255 255
1185.0845 634.57513 2.9040365 255 255 255
9845.5557 9370.0762 28.083508 255 255 255
772.37164 761.04425 0.95264149 255 255 255
240.55821 313.18933 0.97213322 255 255 255
-1318.5881 -1168.8751 -2.7709601 255 255 255
537.3714 1109.6262 1.9552411 255 255 255
1432.8342 1386.5361 2.0577884 255 255 255
616.5202 1356.8087 1.922138 255 255 255
667.19507 384.84683 1.6703551 255 255 255
933.5412 1279.7234 2.3321714 255 255 255
8223.4102 4474.2793 8.5636292 255 255 255
532.32245 1455.5522 2.2024333 255 255 255
-319.63538 -150.86174 -1.3872797 255 255 255
-749.39459 -340.28522 -1.8347195 255 255 255
-5958.6104 -2558.76 -7.4065118 255 255 255
505.0361 520.01526 1.4958438 255 255 255
1528.9277 782.58276 3.4803934 255 255 255
951.97919 1821.3727 2.7065334 255 255 255
-29032.363 -18161.76 -34.431095 255 255 255
5938.5967 3004.4834 6.6756449 255 255 255
7648.1558 4631.9209 7.99259 255 255 255
18437.35 12860.175 20.839266 255 255 255
-65521.344 -34996.938 -74.286743 255 255 255
324.94193 109.16138 0.33627078 255 255 255
230.20908 308.17914 0.94935375 255 255 255
644.14832 392.94757 0.77656585 255 255 255
-453.44327 -242.22975 -1.5250465 255 255 255
902.32495 863.54974 2.2739367 255 255 255
3604.9563 3123.8284 9.8257713 255 255 255
1959.6045 1430.046 5.2505808 255 255 255
1028.4885 591.74683 1.7033532 255 255 255
6516.6309 3818.2683 7.454843 255 255 255
3564.8503 1823.0387 15.051967 255 255 255
937.49139 1134.3186 2.3928192 255 255 255
784.13806 1487.15 2.3917308 255 255 255
5269.2061 2653.5496 6.7067595 255 255 255
-6125.9478 -3544.949 -7.7934451 255 255 255
-392.23721 -318.43628 -1.5045247 255 255 255
-4219.2676 -2857.312 -12.102972 255 255 255
3826.875 1015.4875 9.05439 255 255 255
1515.1227 1010.3356 1.9215646 255 255 255
-933.54321 -1566.1613 -3.6829498 255 255 255
-4545.2441 -1763.1079 -5.8633304 255 255 255
-3093.437 -3031.1025 -9.1357841 255 255 255
-1255.6277 -1092.5558 -2.5980704 255 255 255
-21371.135 -16714.045 -62.120415 255 255 255
1001.5095 815.52997 2.9010191 255 255 255
6912.2871 4167.228 7.610683 255 255 255
9749.8584 4680.7441 9.7600899 255 255 255
761.91199 1735.9014 2.5698874 255 255 255
3603.5154 2674.7668 5.1852417 255 255 255
714.41577 583.93909 1.014096 255 255 255
-1136.1504 -1247.2598 -2.5442655 255 255 255
998.32538 1102.8151 2.4588988 255 255 255
865.73157 1389.8132 2.41172 255 255 255
-1135.4022 -998.93945 -2.6385028 255 255 255
957.3642 1830.7174 2.7086406 255 255 255
-2926.8096 -2659.606 -10.414664 255 255 255
-851.01459 -748.77325 -3.4255712 255 255 255
-320.8187 -903.26221 -2.3899806 255 255 255
1015.6944 1116.2156 2.4837456 255 255 255
2290.2053 1136.041 4.9437256 255 255 255
50.183094 566.31439 1.1313773 255 255 255
1538.1094 1081.2355 3.2494285 255 255 255
5666.0703 4342.335 20.509968 255 255 255
625.92371 1154.293 2.0615425 255 255 255
1119.0573 1312.5109 2.6537786 255 255 255
205.88188 302.09494 0.90235472 255 255 255
1050.5527 1189.6884 2.5408673 255 255 255
-18556.947 -12580.445 -51.715511 255 255 255
1639.6959 1381.318 4.0964246 255 255 255
-6337.4136 -4551.1494 -19.750296 255 255 255
680.78143 930.89441 1.0066856 255 255 255
-5665.9165 -3495.5325 -7.6478572 255 255 255
773.06256 1323.4824 2.292541 255 255 255
-838.39313 -479.9303 -1.9800951 255 255 255
1039.3909 1586.4689 2.4224329 255 255 255
4447.9302 6492.1279 11.114265 255 255 255
9637.4492 4587.6445 9.7347946 255 255 255
1384.1155 681.17865 3.1605761 255 255 255
-416.19485 -214.02069 -1.4544129 255 255 255
1450.0828 796.34473 3.3024528 255 255 255
-771.48663 -534.44482 -1.8937255 255 255 255
14.141643 205.22075 0.54830009 255 255 255
711.44403 350.27805 0.81359887 255 255 255
-813.51831 -424.08606 -2.0328212 255 255 255
1153.9211 913.87244 2.6755691 255 255 255
-4830.2095 -2756.2385 -14.050919 255 255 255
-32.752953 -234.18188 -1.3261018 255 255 255
-740.77673 -716.36841 -2.721103 255 255 255
1362.9059 857.64801 3.620681 255 255 255
1181.7482 1259.674 2.7167974 255 255 255
6174.5781 2481.4895 8.5853662 255 255 255
-361.00928 -233.61211 -1.4097439 255 255 255
1020.3611 838.29059 2.4747639 255 255 255
519.60083 1386.5214 2.1437359 255 255 255
8543.6123 20744.461 31.241837 255 255 255
25.770142 207.54404 0.55552 255 255 255
1102.8715 926.04199 2.5966532 255 255 255
-699.04181 -365.14978 -1.8030038 255 255 255
539.16931 414.96399 0.623155 255 255 255
1826.7238 1181.7211 4.5010552 255 255 255
-698004.5 -368066.22 -764.02057 255 255 255
-597.66888 -532.12292 -1.7274086 255 255 255
926.87921 794.60004 2.3161135 255 255 255
5845.3867 2927.5449 7.5455003 255 255 255
-599.20471 -846.18689 -2.8118107 255 255 255
7925.6211 4476.0952 8.3101587 255 255 255
737.67883 1611.6301 2.4321456 255 255 255
723.54608 773.0069 1.7002398 255 255 255
11889.482 10691.892 20.514248 255 255 255
-595.44702 -212.54787 -1.7422848 255 255 255
5158.5137 3916.3049 6.2327447 255 255 255
726.62933 1678.9335 2.4658935 255 255 255
1231.3926 961.47144 2.9129615 255 255 255
768.6026 1296.0331 2.2724352 255 255 255
1607.3717 721.10046 3.5882981 255 255 255
785.87903 1059.1698 2.1716151 255 255 255
-1065.3088 -1130.9998 -3.8973951 255 255 255
-1406.4788 -883.12073 -4.9979053 255 255 255
1604.2051 796.79333 3.6238718 255 255 255
1050.6869 1160.2047 2.5380096 255 255 255
-503.79727 -283.02942 -1.6514162 255 255 255
1179.7391 645.72162 1.5806202 255 255 255
991.19873 897.45911 1.3119889 255 255 255
-503.44302 -302.80838 -1.6844825 255 255 255
1000.1901 855.26617 2.434968 255 255 255
998.97827 906.20312 2.42712 255 255 255
15419.945 3840.5955 20.252325 255 255 255
-652.89087 -834.09113 -2.4154642 255 255 255
2497.6167 2518.9919 6.7881927 255 255 255
916.94904 776.82037 2.3007934 255 255 255
1083.4554 890.5871 2.5755987 255 255 255
6237.918 4101.3291 7.0682793 255 255 255
-525.50458 -276.07513 -1.5812497 255 255 255
933.95239 903.69922 2.3287358 255 255 255
2319.2361 1193.5996 5.605216 255 255 255
7581.1333 11901.068 22.361174 255 255 255
-429.64966 -531.85468 -1.9094063 255 255 255
1424.051 1023.7936 3.0844672 255 255 255
8990.7256 4340.1689 9.3869972 255 255 255
991.90649 843.76996 2.4183238 255 255 255
603.01031 470.91516 0.75556022 255 255 255
-2402.3733 -1783.3737 -7.3914013 255 255 255
501.9043 926.5249 1.7908368 255 255 255
15629.371 3853.8162 20.539951 255 255 255
5419.0415 3723.1465 6.5027957 255 255 255
769.25677 509.91614 1.0695904 255 255 255
1614.0132 1546.1743 4.6294308 255 255 255
1743.4243 1020.4491 3.630815 255 255 255
919.09943 789.37927 2.301903 255 255 255
9689.8037 4503.4849 9.9130783 255 255 255
-299.19955 -209.72578 -1.372478 255 255 255
5622.6665 3793.7715 6.6536345 255 255 255
-1078.8995 -1177.2003 -2.4850152 255 255 255
670.95007 1216.8302 2.1399674 255 255 255
954.72504 1224.7299 1.4374863 255 255 255
1320.8495 943.85547 3.1095066 255 255 255
-718.78088 -255.38103 -1.7600288 255 255 255
-2889.6665 -1809.5289 -7.3697348 255 255 255
4222.3301 4066.2224 9.6703529 255 255 255
272.64697 338.04077 1.0507072 255 255 255
7176.5542 4148.104 7.8407922 255 255 255
51.79377 253.66963 0.65372109 255 255 255
2337.7979 1124.4006 2.5892246 255 255 255
6990.5801 3920.2095 7.8230348 255 255 255
33354.211 10467.867 81.369965 255 255 255
15316.714 2410.9224 38.224396 255 255 255
791.65973 1558.714 2.4385359 255 255 255
-613.25482 -388.15298 -1.7059079 255 255 255
611.31012 1303.5829 2.1454692 255 255 255
-1168.7607 -740.66974 -2.4021204 255 255 255
-1193.9098 -1085.1384 -2.5955901 255 255 255
5157.2046 3294.6521 5.8372593 255 255 255
5341.7979 3995.5369 6.3311639 255 255 255
-589.87109 -208.94318 -1.6313266 255 255 255
-522.24927 -253.95566 -1.529543 255 255 255
818.90314 570.07867 2.1650836 255 255 255
-624.82166 -500.47226 -2.1079676 255 255 255
104.80669 160.73184 0.17390141 255 255 255
6059.0801 2773.4456 5.9424105 255 255 255
628.23474 1187.9832 2.0844369 255 255 255
-681.88654 -397.83603 -1.7721429 255 255 255
402.14243 392.55469 1.3251402 255 255 255
505.28049 1035.1772 1.8735052 255 255 255
1314.7128 2656.1316 4.9225674 255 255 255
-44518.184 -34294.988 -63.324635 255 255 255
12073.73 5364.8052 30.55072 255 255 255
1095.0112 870.00665 2.5911973 255 255 255
1590.2563 1104.246 3.3165793 255 255 255
243.53128 322.30164 0.98545301 255 255 255
-2264.6187 -968.90271 -3.4107955 255 255 255
8493.917 4658.8296 8.6824808 255 255 255
-3638.8079 -5306.8105 -12.516593 255 255 255
517.29224 329.78333 0.55999357 255 255 255
1018.3509 883.77472 2.4582996 255 255 255
4762.9629 4815.5332 13.038271 255 255 255
1094.2356 509.47189 1.860769 255 255 255
8778.2969 4435.6318 9.1037674 255 255 255
-1015.5595 -758.29102 -2.249613 255 255 255
-2178.7188 -3410.0706 -8.8131886 255 255 255
-1180.6027 -2159.2002 -4.6751556 255 255 255
914.26221 876.75378 1.7763662 255 255 255
-903.31799 -617.99933 -2.1309245 255 255 255
631.70575 1161.0349 2.070632 255 255 255
2987.5227 1334.026 5.4691558 255 255 255
7334.2466 4271.9678 9.1992102 255 255 255
4200.1523 2507.0298 5.9557619 255 255 255
908.9624 794.35596 2.2887814 255 255 255
-877.59943 -401.99341 -2.1626532 255 255 255
478.4509 512.52789 1.4472321 255 255 255
3615.7576 1652.9991 9.2712975 255 255 255
508.02383 1124.6696 1.9420495 255 255 255
2299.8569 2499.4832 6.6492233 255 255 255
-648.43732 -544.39038 -1.8215284 255 255 255
1425.1281 1037.6028 3.0777154 255 255 255
-723.11011 -492.57193 -1.8546751 255 255 255
414.66147 293.71155 0.48594174 255 255 255
-35003.605 -27865.004 -51.738728 255 255 255
1002.5109 833.45435 2.4455593 255 255 255
-10466.54 -4162.2266 -27.307032 255 255 255
690.65015 239.59099 0.71909702 255 255 255
-369.68777 -442.25543 -1.5272732 255 255 255
8581.6943 4380.5229 8.950325 255 255 255
1117.9354 1094.0225 2.6113291 255 255 255
916.25958 1573.8203 2.5542462 255 255 255
9477.0127 4703.4204 9.4885254 255 255 255
10042.784 3970.3916 10.738469 255 255 255
498.56088 1010.629 1.8494912 255 255 255
7901.1919 4474.8228 8.3053265 255 255 255
499.67587 864.16693 1.7459786 255 255 255
-956.7345 -665.33826 -2.2027767 255 255 255
29.317751 310.29837 0.74470186 255 255 255
4222.5908 2516.8098 5.9754214 255 255 255
-1388.427 -1381.3724 -3.973999 255 255 255
513.23199 1267.9066 2.0534952 255 255 255
-466.05615 -629.70569 -2.2901983 255 255 255
339.36011 593.99658 1.2786529 255 255 255
1825.0127 1908.0327 2.3659 255 255 255
770.75885 1324.1348 2.2906964 255 255 255
278.67618 997.78772 1.6967373 255 255 255
193.8893 288.41473 0.86836505 255 255 255
-1323.2156 -1294.048 -2.706816 255 255 255
8830.2119 4699.4922 8.9491949 255 255 255
1225.9889 1216.1987 1.6287261 255 255 255
976.57111 925.78735 2.3980398 255 255 255
3283.6245 3052.0659 9.3557453 255 255 255
-2578.5137 -1371.0059 -7.7677498 255 255 255
351.51016 134.36775 0.35055119 255 255 255
4625.6279 1456.8126 16.890959 255 255 255
542.67542 1121.0748 1.9690726 255 255 255
-2216.5903 -1177.764 -6.7501316 255 255 255
504.41635 1073.2888 1.8999319 255 255 255
2792.6943 2322.6228 3.9389606 255 255 255
7324.8032 4287.6914 7.9091659 255 255 255
39626.711 24878.146 105.09284 255 255 255
-5052.2222 -4518.6265 -7.7236962 255 255 255
873.07928 960.46906 2.2457993 255 255 255
881.88446 844.17316 2.24225 255 255 255
2258.4319 1169.2612 5.2425876 255 255 255
4524.7764 2066.1328 6.8377571 255 255 255
497.10431 232.243 0.54900503 255 255 255
-13680.726 -6459.8643 -15.295698 255 255 255
4780.3716 2480.3625 6.7062111 255 255 255
349.60333 366.73438 1.2118168 255 255 255
196.22008 296.93347 0.88118482 255 255 255
1294.5908 1598.3135 2.8449399 255 255 255
6512.3652 2882.822 8.4362993 255 255 255
687.27203 401.08466 0.8297441 255 255 255
29.821676 309.11099 0.74294466 255 255 255
-602.23083 -384.02036 -1.6978225 255 255 255
1626.2955 809.53607 3.645267 255 255 255
-2902.4395 -2360.2131 -4.7364588 255 255 255
511.02155 1110.7878 1.9342259 255 255 255
-518.04755 -205.24515 -1.5991553 255 255 255
-1762.002 -1875.5767 -4.9337382 255 255 255
-2524.1221 -2250.5906 -8.3722153 255 255 255
350.13861 374.56076 1.2166057 255 255 255
5477.1133 8748.5645 16.564827 255 255 255
364.72021 382.75037 1.2482702 255 255 255
-671.69659 -155.89211 -2.7271545 255 255 255
523.74249 1286.8673 2.0755155 255 255 255
9493.3516 4529.522 9.6937284 255 255 255
43093.633 17947.309 128.7532 255 255 255
-1740.3512 -1845.6832 -3.4020102 255 255 255
8230.3721 4430.1372 8.6080723 255 255 255
25.693752 210.07462 0.56045258 255 255 255
-635.82758 -124.02992 -1.7424182 255 255 255
-2259.25 -883.01025 -6.5600076 255 255 255
793.03387 474.46423 1.1643322 255 255 255
15641.535 33118.477 67.653191 255 255 255
3646.5784 3372.9385 10.280633 255 255 255
8520.0498 4661.7881 8.7044067 255 255 255
-784.57385 -374.42075 -1.9286458 255 255 255
4777.3311 2926.2019 6.31813 255 255 255
-490.01849 -194.59537 -1.4947085 255 255 255
-509.25806 -259.61249 -1.6341505 255 255 255
-905.14264 -765.79779 -2.2015491 255 255 255
995.62335 861.35602 2.421629 255 255 255
279.95825 333.23639 1.0590363 255 255 255
15.942274 240.66722 0.61761218 255 255 255
-544.76233 -624.15619 -2.3916535 255 255 255
-921.27588 -691.59393 -2.0861037 255 255 255
9540.2607 4312.1216 9.946599 255 255 255
19.915365 500.38321 1.0385855 255 255 255
-657.34906 -174.57336 -1.6833172 255 255 255
617.15607 455.84476 0.74110258 255 255 255
1105.1838 795.9566 1.5147755 255 255 255
438.6055 614.16644 1.443992 255 255 255
6118.897 1375.9899 11.860229 255 255 255
-878.75629 -934.0097 -2.333374 255 255 255
6619.813 4608.4014 7.2907257 255 255 255
31.947628 201.05482 0.54519904 255 255 255
1022.9279 861.19092 2.4723897 255 255 255
285.13455 343.81927 1.0781955 255 255 255
414.66119 408.61807 1.3554345 255 255 255
6888.7344 3972.9141 7.6901636 255 255 255
168.95207 187.59213 0.32946238 255 255 255
1571.5449 2174.0718 2.9720514 255 255 255
1036.4099 1195.6467 2.5297689 255 255 255
-7614.5107 -5322.9922 -24.79851 255 255 255
643.9989 614.0542 1.2685945 255 255 255
17684.707 5789.2036 43.31226 255 255 255
-2020.176 -1897.0596 -3.6354864 255 255 255
1168.8739 640.07074 2.8617437 255 255 255
17.031042 206.54816 0.55113816 255 255 255
1579.1323 1004.913 3.3545954 255 255 255
791.54352 1061.7402 2.1793556 255 255 255
673.07715 303.62445 1.1080877 255 255 255
927.97107 1101.9917 2.2343102 255 255 255
24.891973 247.15286 0.63147366 255 255 255
50.587658 210.05341 0.5726496 255 255 255
438.6817 1496.5999 2.6705811 255 255 255
1380.6042 779.71448 3.1754823 255 255 255
7623.7725 4530.0635 8.0348778 255 255 255
8095.9185 4670.4976 8.3426199 255 255 255
1152.293 1466.2428 3.0558715 255 255 255
6693.7793 4224.5293 7.3897376 255 255 255
806.07837 1243.0966 2.2814317 255 255 255
5079.4609 5862.042 15.501612 255 255 255
-616.09924 -268.69937 -1.6632606 255 255 255
1018.2665 147.89497 2.754195 255 255 255
724.90002 801.78571 1.4990337 255 255 255
940.51019 1639.9021 2.6103015 255 255 255
1024.8546 1137.2634 2.5008144 255 255 255
6994.6396 4268.3091 7.6384482 255 255 255
-1040.209 -723.36316 -2.8175097 255 255 255
-670.06445 -204.10274 -1.6924242 255 255 255
-948.73822 -850.30255 -2.2063177 255 255 255
9658.417 4657.998 9.6886864 255 255 255
1588.4274 784.08453 3.6010258 255 255 255
579.9162 849.1441 1.5095311 255 255 255
3653.3362 2655.054 5.2459879 255 255 255
4658.2227 2882.907 5.1627431 255 255 255
1720.5171 2074.3579 4.6453047 255 255 255
9535.3838 4563.9375 9.690382 255 255 255
103897.62 56057.883 113.54105 255 255 255
865.40173 577.5105 2.2611549 255 255 255
1138.2051 836.61938 1.5800594 255 255 255
1704.8792 784.85242 3.8544948 255 255 255
1858.8304 2092.9182 2.4825044 255 255 255
963.0863 1215.2701 2.4428904 255 255 255
5208.7773 9579.5322 22.88205 255 255 255
1466.8383 1570.2172 3.087122 255 255 255
116.78646 157.49667 0.28319573 255 255 255
-458.49854 -956.33209 -2.5651124 255 255 255
525.1098 1309.9579 2.0921204 255 255 255
885.66675 1782.2681 2.660085 255 255 255
-627.88568 -396.09891 -1.7283467 255 255 255
598.20441 1009.8352 1.9425906 255 255 255
752.10175 1292.3746 2.2567592 255 255 255
-526.27405 -550.83368 -2.17188 255 255 255
2989.8071 1138.3606 3.2410896 255 255 255
907.56934 616.69653 1.0384717 255 255 255
29.092096 310.26279 0.74470711 255 255 255
196.72321 297.07291 0.88193095 255 255 255
498.56598 1011.0295 1.8509355 255 255 255
2835.9502 2361.0776 4.0026698 255 255 255
230.79709 308.30182 0.95044088 255 255 255
-823.42529 -749.69843 -2.7756865 255 255 255
273.76697 806.95306 2.0795128 255 255 255
272.92508 337.89029 1.0509509 255 255 255
301.10657 151.75572 0.32117087 255 255 255
-392.54617 -318.31485 -1.5049338 255 255 255
-154.3717 -742.34729 -1.9954278 255 255 255
30.307817 202.10191 0.54642642 255 255 255
203.16565 293.38605 0.88786668 255 255 255
1082.4935 736.48383 2.6091084 255 255 255
974.33502 710.82764 1.1935687 255 255 255
630.23846 1156.9971 2.0646944 255 255 255
401.2897 412.03192 0.91031784 255 255 255
535.86945 1111.8068 1.9540876 255 255 255
-4138.8857 -2792.2793 -5.7941365 255 255 255
