ply
format ascii 1.0
comment PCL generated
element vertex 1059
property float x
property float y
property float z
property uchar red
property uchar green
property uchar blue
element face 0
element camera 0
property float view_px
property float view_py
property float view_pz
property float x_axisx
property float x_axisy
property float x_axisz
property float y_axisx
property float y_axisy
property float y_axisz
property float z_axisx
property float z_axisy
property float z_axisz
property float focal
property float scalex
property float scaley
property float centerx
property float centery
property int viewportx
property int viewporty
property float k1
property float k2
end_header
-3.8195639 -3.5345678 -1.0078845 255 255 255
-3.8706019 -3.4802811 -1.0056479 255 255 255
-3.8445461 -3.5105395 -1.0040731 255 255 255
-3.8473501 -3.505789 -1.0059372 255 255 255
-4.0183034 -3.314852 -1.0044718 255 255 255
-4.292284 -3.0057728 -1.0035188 255 255 255
-3.9339802 -3.4280152 -1.0076535 255 255 255
-3.8843844 -3.4624841 -1.0079988 255 255 255
-3.9434853 -3.3993995 -1.0046686 255 255 255
-3.8609645 -3.488898 -1.0079534 255 255 255
-3.8527651 -3.5010352 -1.0045956 255 255 255
-3.8242426 -3.5296695 -1.0076696 255 255 255
-3.8219914 -3.5321314 -1.0076404 255 255 255
-3.7304449 -3.6336925 -1.0045673 255 255 255
-3.8605523 -3.4921365 -1.0049002 255 255 255
-4.0735064 -3.2506368 -1.0049906 255 255 255
-3.8850982 -3.4641204 -1.0056157 255 255 255
-4.0621076 -3.2600791 -1.0063763 255 255 255
-4.2486691 -3.0672944 -1.0050666 255 255 255
-3.8157177 -3.5418119 -1.0043885 255 255 255
-3.8783197 -3.4722378 -1.005082 255 255 255
-3.7706115 -3.5835371 -1.0122787 255 255 255
-3.3954349 -4.013135 -1.005444 255 255 255
-3.8877997 -3.4601583 -1.0065022 255 255 255
-3.4467342 -3.9339275 -1.0049798 255 255 255
-3.9970794 -3.3394351 -1.0042161 255 255 255
-3.8272023 -3.5291188 -1.0045545 255 255 255
-4.0827537 -3.239933 -1.0050297 255 255 255
-4.0532894 -3.274194 -1.0048201 255 255 255
-4.0842857 -3.2524836 -1.0051742 255 255 255
-3.7448599 -3.6179447 -1.0048194 255 255 255
-4.1462765 -3.1780865 -1.0043308 255 255 255
-3.8446131 -3.507303 -1.0076759 255 255 255
-3.8156617 -3.5386033 -1.008159 255 255 255
-3.1248195 -4.3210297 -1.0072724 255 255 255
-3.9964511 -3.3401186 -1.004227 255 255 255
-3.8718333 -3.4788771 -1.0056727 255 255 255
-4.3336897 -2.9580784 -1.0035762 255 255 255
-4.0489154 -3.2792668 -1.0047965 255 255 255
-3.8872349 -3.4618096 -1.0055132 255 255 255
-3.7734299 -3.585113 -1.0069422 255 255 255
-4.2739949 -3.0270219 -1.0034422 255 255 255
-4.0295191 -3.3017497 -1.0046244 255 255 255
-3.8834982 -3.4660487 -1.0054691 255 255 255
-4.0037498 -3.3317091 -1.0043 255 255 255
-4.0873318 -3.2346797 -1.0050417 255 255 255
-4.2603121 -3.0416589 -1.0036535 255 255 255
-3.7835405 -3.576103 -1.0050082 255 255 255
-3.9961483 -3.34045 -1.0042421 255 255 255
-3.996773 -3.3397481 -1.0042399 255 255 255
-3.833123 -3.5227416 -1.0044508 255 255 255
-4.1548533 -3.1565835 -1.0051761 255 255 255
-3.8217177 -3.5307102 -1.009871 255 255 255
-4.1236629 -3.1925824 -1.0051659 255 255 255
-3.854131 -3.4995577 -1.0045586 255 255 255
-3.7823746 -3.5769274 -1.0054252 255 255 255
-3.8808239 -3.4671943 -1.0073127 255 255 255
-6.3460283 -0.81423455 -1.0200256 255 255 255
-4.0168595 -3.3164358 -1.0044872 255 255 255
-3.8750694 -3.4757516 -1.0051563 255 255 255
-4.0338206 -3.2967904 -1.0046724 255 255 255
-4.067184 -3.258029 -1.0049284 255 255 255
-3.7973664 -3.5605016 -1.005704 255 255 255
-4.191453 -3.1307003 -1.005891 255 255 255
-3.9973385 -3.3390651 -1.00425 255 255 255
-3.9987452 -3.3374982 -1.0042437 255 255 255
-3.7687263 -3.5888374 -1.0082856 255 255 255
-4.1882505 -3.1417685 -1.0064836 255 255 255
-3.9974284 -3.3389604 -1.0042522 255 255 255
-3.8110659 -3.5127969 -1.0045258 255 255 255
-3.9980969 -3.3382127 -1.0042498 255 255 255
-3.8301311 -3.5264163 -1.0039978 255 255 255
-4.0814118 -3.2415612 -1.0050015 255 255 255
-3.7682669 -3.6016731 -1.0055895 255 255 255
-3.998915 -3.3372931 -1.0042464 255 255 255
-3.8576181 -3.4961312 -1.0040839 255 255 255
-3.8183465 -3.5391214 -1.0041952 255 255 255
-3.7978151 -3.5603905 -1.0052981 255 255 255
-4.1197352 -3.1971064 -1.0051547 255 255 255
-3.8436508 -3.5111275 -1.0045394 255 255 255
-3.8318052 -3.5194557 -1.0101292 255 255 255
-3.8496311 -3.501312 -1.0082105 255 255 255
-3.8409965 -3.5112329 -1.0077541 255 255 255
-4.0619607 -3.2639327 -1.0049657 255 255 255
-3.7514849 -3.6110396 -1.0046179 255 255 255
-4.0563188 -3.2706318 -1.00486 255 255 255
-3.6434548 -3.7059979 -1.0042855 255 255 255
-3.8834252 -3.4661353 -1.0054617 255 255 255
-3.858047 -3.4919946 -1.0081441 255 255 255
-4.0443273 -3.2845266 -1.0047888 255 255 255
-3.8200746 -3.5325994 -1.0097511 255 255 255
-3.8235574 -3.5304291 -1.0076451 255 255 255
-3.7399418 -3.6236689 -1.0044355 255 255 255
-3.7391367 -3.6237078 -1.0051094 255 255 255
-3.8710938 -3.4802566 -1.0051074 255 255 255
-4.0434937 -3.2854958 -1.0047727 255 255 255
-3.8215072 -3.5324898 -1.0078406 255 255 255
-3.8678892 -3.4801209 -1.0090309 255 255 255
-3.8711572 -3.4775021 -1.0079082 255 255 255
-3.8440764 -3.507201 -1.0084953 255 255 255
-4.0910001 -3.2304285 -1.0050622 255 255 255
-3.8603806 -3.4930644 -1.0040958 255 255 255
-4.0410891 -3.2882197 -1.0047802 255 255 255
-3.690376 -3.6880765 -1.0055307 255 255 255
-3.8678639 -3.4840848 -1.0047324 255 255 255
-4.0482507 -3.2799335 -1.0048305 255 255 255
-4.1380329 -3.1758807 -1.0052069 255 255 255
-3.95473 -3.3842232 -1.0062381 255 255 255
-4.0477152 -3.2806196 -1.0047944 255 255 255
-4.1097097 -3.2087357 -1.0051389 255 255 255
-3.7908194 -3.5673244 -1.0059588 255 255 255
-4.0622063 -3.2638161 -1.0048862 255 255 255
-3.7983747 -3.5593216 -1.0057908 255 255 255
-3.7975607 -3.5603273 -1.0056554 255 255 255
-3.9282753 -3.3999667 -1.0045496 255 255 255
-3.9249063 -3.4154167 -1.0084295 255 255 255
-3.7491627 -3.614665 -1.0048 255 255 255
-4.7027812 -2.5848813 -1.009811 255 255 255
-2.9687457 -4.4747405 -1.0066599 255 255 255
-3.3344383 -4.0610833 -1.0069047 255 255 255
-3.5995092 -3.7854693 -1.0058138 255 255 255
-3.8168015 -3.5405722 -1.0044539 255 255 255
-3.8033645 -3.5534899 -1.0062634 255 255 255
-3.7902777 -3.5686839 -1.0051497 255 255 255
-4.3085494 -2.9871075 -1.0035324 255 255 255
-3.8320081 -3.5236886 -1.0047458 255 255 255
-3.6055233 -3.7773592 -1.0054895 255 255 255
-4.2425365 -3.0616493 -1.0037234 255 255 255
-3.8593965 -3.4900868 -1.0085512 255 255 255
-4.2081504 -3.083317 -1.0078681 255 255 255
-3.7076218 -3.6596055 -1.0076702 255 255 255
-3.7291253 -3.6351147 -1.004559 255 255 255
-3.8212576 -3.5328243 -1.0077922 255 255 255
-3.8918483 -3.4557688 -1.0063298 255 255 255
-4.2313924 -3.101115 -1.0078306 255 255 255
-3.545043 -3.8161209 -1.0069836 255 255 255
-4.0474787 -3.2808952 -1.0047925 255 255 255
-3.7278531 -3.6260486 -1.0075241 255 255 255
-3.4897506 -3.9138422 -1.0077085 255 255 255
-3.8716202 -3.4786432 -1.0061609 255 255 255
-3.8219786 -3.530951 -1.0091774 255 255 255
-4.0625196 -3.2425606 -1.0045033 255 255 255
-4.0429306 -3.2852476 -1.0051552 255 255 255
-3.7435865 -3.5964897 -1.0058582 255 255 255
-3.9574521 -3.4088047 -1.0097311 255 255 255
-3.831609 -3.5247991 -1.0039991 255 255 255
-3.8619664 -3.490962 -1.0045 255 255 255
-4.2370095 -3.0843394 -1.0056063 255 255 255
-4.110302 -3.208014 -1.0051378 255 255 255
-3.8744955 -3.4764974 -1.0050718 255 255 255
-4.0464563 -3.2859185 -1.0052919 255 255 255
-3.3080268 -4.0838022 -1.006061 255 255 255
-3.8146632 -3.5401337 -1.0075998 255 255 255
-3.8509037 -3.500381 -1.0076271 255 255 255
-4.2169271 -3.0732672 -1.0077894 255 255 255
-4.2748938 -3.018477 -1.0049787 255 255 255
-3.8363996 -3.5153837 -1.0088911 255 255 255
-3.8155909 -3.5390363 -1.0077004 255 255 255
-3.8383772 -3.5131094 -1.0090197 255 255 255
-4.3656888 -2.9310453 -1.0052077 255 255 255
-3.8319519 -3.5232389 -1.0053231 255 255 255
-3.8379755 -3.5135255 -1.0090232 255 255 255
-3.844609 -3.5099046 -1.0047218 255 255 255
-4.0753274 -3.2485595 -1.0049795 255 255 255
-4.2261839 -3.0804214 -1.0036974 255 255 255
-3.8370042 -3.5175345 -1.0055251 255 255 255
-3.8417184 -3.5301306 -1.0076541 255 255 255
-3.8093021 -3.5484884 -1.0047017 255 255 255
-3.871942 -3.4791071 -1.0053152 255 255 255
-3.8508153 -3.5015662 -1.0064045 255 255 255
-3.871681 -3.4785793 -1.0061572 255 255 255
-3.8846302 -3.4648006 -1.0054474 255 255 255
-3.8759682 -3.474803 -1.0051196 255 255 255
-3.8648193 -3.4880941 -1.0041784 255 255 255
-3.8014977 -3.5558455 -1.0058981 255 255 255
-4.0488286 -3.2794361 -1.0047708 255 255 255
-3.9040956 -3.4405899 -1.0080976 255 255 255
-3.8198264 -3.5345101 -1.007629 255 255 255
-3.8200152 -3.5342882 -1.0076174 255 255 255
-3.1041965 -4.3216896 -1.0081406 255 255 255
-3.8387218 -3.5160873 -1.005015 255 255 255
-3.9078202 -3.4391017 -1.0051277 255 255 255
-4.0283976 -3.3030889 -1.004606 255 255 255
-3.8276484 -3.528964 -1.0041943 255 255 255
-4.1277676 -3.1798551 -1.0060799 255 255 255
-4.1969109 -3.1080968 -1.0051496 255 255 255
-4.0218086 -3.3107164 -1.0045409 255 255 255
-3.907918 -3.4389853 -1.0051349 255 255 255
-4.0197535 -3.3131218 -1.004495 255 255 255
-4.0270276 -3.3046169 -1.0046122 255 255 255
-3.7829864 -3.5763137 -1.0053844 255 255 255
-3.3356121 -4.0650301 -1.0080621 255 255 255
-3.8645675 -3.488374 -1.0041806 255 255 255
-3.881362 -3.4674654 -1.0064224 255 255 255
-3.8913403 -3.4570377 -1.0056766 255 255 255
-3.8488894 -3.5052347 -1.0046664 255 255 255
-3.7782145 -3.5786691 -1.008411 255 255 255
-3.8192682 -3.5351558 -1.0075637 255 255 255
-3.880203 -3.4688878 -1.006314 255 255 255
-3.8363395 -3.5191269 -1.004557 255 255 255
-3.7984626 -3.5565903 -1.0089071 255 255 255
-3.8184836 -3.526938 -1.0066993 255 255 255
-3.5290768 -3.8619776 -1.0057948 255 255 255
-3.7562339 -3.6101959 -1.0060881 255 255 255
-4.0421147 -3.2870712 -1.0047776 255 255 255
-4.0292783 -3.3020232 -1.0046308 255 255 255
-3.8204577 -3.5336142 -1.0078614 255 255 255
-3.8361647 -3.5156162 -1.0089332 255 255 255
-3.0150416 -4.4346795 -1.0076923 255 255 255
-4.0207214 -3.311933 -1.004544 255 255 255
-3.7988162 -3.5585258 -1.0061519 255 255 255
-3.7680914 -3.5909948 -1.0067332 255 255 255
-4.1924777 -3.1169515 -1.0079138 255 255 255
-3.8323092 -3.5228593 -1.0053146 255 255 255
-4.0522008 -3.2736084 -1.005581 255 255 255
-3.5328779 -3.8624105 -1.0084723 255 255 255
-4.0464029 -3.281322 -1.0051244 255 255 255
-4.0366659 -3.2935174 -1.004666 255 255 255
-2.8349853 -4.6340499 -1.0062064 255 255 255
-3.8207624 -3.5334253 -1.0076907 255 255 255
-4.3256359 -2.9511261 -1.004598 255 255 255
-3.8380733 -3.5171978 -1.0045868 255 255 255
-3.8609722 -3.4924147 -1.004096 255 255 255
-3.8296275 -3.5241871 -1.0071754 255 255 255
-3.8461525 -3.5046911 -1.0087689 255 255 255
-3.8332825 -3.5223358 -1.0047003 255 255 255
-3.7259166 -3.6363223 -1.0063624 255 255 255
-3.7337568 -3.629725 -1.0049018 255 255 255
-4.0716505 -3.2528167 -1.0049738 255 255 255
-4.0491495 -3.2790303 -1.0047736 255 255 255
-3.8848238 -3.4643805 -1.0056549 255 255 255
-3.8098185 -3.5438902 -1.0047688 255 255 255
-3.7829547 -3.5763609 -1.005366 255 255 255
-3.6574061 -3.7133093 -1.0036776 255 255 255
-3.8152184 -3.5417197 -1.0050581 255 255 255
-3.8713927 -3.4789104 -1.0061486 255 255 255
-4.0974054 -3.2229214 -1.0051061 255 255 255
-3.8833463 -3.4645581 -1.0070859 255 255 255
-4.255733 -3.0535176 -1.0036166 255 255 255
-3.8538516 -3.4959161 -1.0089947 255 255 255
-3.8203728 -3.5337486 -1.007794 255 255 255
-3.5745437 -3.7980378 -1.0071143 255 255 255
-4.166328 -3.1433764 -1.0051703 255 255 255
-4.1120353 -3.2059989 -1.0051391 255 255 255
-3.8016584 -3.5553782 -1.0062202 255 255 255
-4.0309639 -3.3001394 -1.0046227 255 255 255
-3.2471542 -4.1735411 -1.006139 255 255 255
-3.8790042 -3.4684455 -1.0081086 255 255 255
-3.8248551 -3.5279138 -1.0090562 255 255 255
-3.8520291 -3.5238464 -1.0078813 255 255 255
-4.32338 -2.9887795 -1.0057733 255 255 255
-3.9858644 -3.340287 -1.0046195 255 255 255
-3.5608141 -3.8180308 -1.0031043 255 255 255
-3.2773027 -4.116755 -1.0068898 255 255 255
-3.864347 -3.4871051 -1.0058022 255 255 255
-3.405 -4.017138 -1.0089868 255 255 255
-3.8501377 -3.5039423 -1.0045822 255 255 255
-3.8886652 -3.4605675 -1.0051842 255 255 255
-3.7876501 -3.5716155 -1.0050507 255 255 255
-3.5914674 -3.765311 -1.0048392 255 255 255
-3.8899331 -3.4584241 -1.0058721 255 255 255
-4.2709303 -3.0296941 -1.0036181 255 255 255
-3.8465784 -3.5082326 -1.0041612 255 255 255
-3.9292192 -3.4169104 -1.0060315 255 255 255
-3.7993255 -3.5619454 -1.0054759 255 255 255
-3.8076613 -3.5504179 -1.0045549 255 255 255
-3.836832 -3.5152457 -1.008476 255 255 255
-3.9350517 -3.409169 -1.0044848 255 255 255
-3.8372762 -3.5160794 -1.0068499 255 255 255
-3.7612052 -3.6007843 -1.0044435 255 255 255
-3.8899465 -3.4590089 -1.0052744 255 255 255
-3.8594046 -3.4924972 -1.0059059 255 255 255
-3.8785295 -3.4734924 -1.0057232 255 255 255
-4.2759748 -3.0205705 -1.004101 255 255 255
-3.4163992 -3.9640422 -1.0075964 255 255 255
-3.8732455 -3.4780421 -1.0049052 255 255 255
-3.8643456 -3.4603331 -1.0051864 255 255 255
-3.8745661 -3.4741306 -1.0074425 255 255 255
-3.8772054 -3.4731038 -1.0054578 255 255 255
-3.6106141 -3.7897251 -1.0090345 255 255 255
-3.862993 -3.485985 -1.0086348 255 255 255
-3.8230371 -3.5309832 -1.0076623 255 255 255
-3.8364384 -3.5190566 -1.0045165 255 255 255
-3.8425159 -3.5123501 -1.0045569 255 255 255
-4.6450553 -2.6503103 -1.0093518 255 255 255
-3.7322843 -3.6317704 -1.0045369 255 255 255
-3.5877097 -3.7831631 -1.0058389 255 255 255
-3.7917993 -3.5854006 -1.0071046 255 255 255
-4.4316721 -2.8452046 -1.0059693 255 255 255
-3.864949 -3.4837399 -1.0086973 255 255 255
-3.9530723 -3.3879132 -1.005088 255 255 255
-3.8416865 -3.5114443 -1.0065887 255 255 255
-3.8822343 -3.4400673 -1.0057346 255 255 255
-3.8694935 -3.4815078 -1.0056534 255 255 255
-3.8484092 -3.5058167 -1.0046085 255 255 255
-3.7600019 -3.6022217 -1.0043051 255 255 255
-3.8907392 -3.4556837 -1.0075599 255 255 255
-3.8374648 -3.5177019 -1.0047568 255 255 255
-4.2801747 -3.0191097 -1.003624 255 255 255
-3.8075643 -3.5476716 -1.0077646 255 255 255
-3.8817313 -3.4683385 -1.0051531 255 255 255
-3.2679029 -4.1399026 -1.0050554 255 255 255
-3.9413867 -3.4042671 -1.0048232 255 255 255
-3.6280346 -3.7294807 -1.0064858 255 255 255
-3.8884499 -3.4600124 -1.005919 255 255 255
-3.8080387 -3.5497172 -1.0048583 255 255 255
-3.2167666 -4.1896296 -1.0056558 255 255 255
-4.2640252 -3.0372982 -1.0036809 255 255 255
-3.8697939 -3.4816043 -1.0052102 255 255 255
-3.8129513 -3.5451164 -1.0040541 255 255 255
-3.8170598 -3.5383637 -1.0066235 255 255 255
-3.488615 -3.8714631 -1.0046308 255 255 255
-3.879401 -3.4706416 -1.0054606 255 255 255
-3.7950478 -3.5616918 -1.0071505 255 255 255
-3.8421767 -3.5088818 -1.0090109 255 255 255
-4.4183922 -2.8539732 -1.0045534 255 255 255
-3.8678815 -3.4847095 -1.0041599 255 255 255
-3.8902681 -3.4578631 -1.0060347 255 255 255
-3.8272402 -3.5291815 -1.0044409 255 255 255
-3.4766178 -3.8818717 -1.004234 255 255 255
-3.8697333 -3.4816871 -1.0051873 255 255 255
-3.8337371 -3.5201447 -1.0066231 255 255 255
-3.8729868 -3.4770744 -1.0062033 255 255 255
-3.8262756 -3.5271657 -1.0080099 255 255 255
-4.1765237 -3.1316636 -1.0051569 255 255 255
-3.4420521 -3.9574594 -1.0058748 255 255 255
-3.886343 -3.4626081 -1.00573 255 255 255
-4.0086675 -3.3194809 -1.004137 255 255 255
-3.8607907 -3.4920189 -1.004745 255 255 255
-3.8780701 -3.4707165 -1.0068855 255 255 255
-4.0695782 -3.260282 -1.009066 255 255 255
-3.6396074 -3.7117934 -1.0166135 255 255 255
-4.0341711 -3.2957487 -1.0049679 255 255 255
-3.8254349 -3.5297136 -1.0060573 255 255 255
-3.6274216 -3.7423923 -1.0046189 255 255 255
-3.8726251 -3.4779692 -1.0057065 255 255 255
-3.6195767 -3.7479291 -1.0067422 255 255 255
-3.8308959 -3.5255888 -1.003991 255 255 255
-3.6420867 -3.7263155 -1.0040832 255 255 255
-3.6275651 -3.7150428 -1.0046329 255 255 255
-3.0497334 -4.3869019 -1.0074086 255 255 255
-4.1643796 -3.17398 -1.0079468 255 255 255
-4.2769256 -3.0483053 -1.0077816 255 255 255
-2.9998627 -4.4223886 -1.0065248 255 255 255
-3.8664358 -3.4855428 -1.0049866 255 255 255
-4.4669871 -2.8006361 -1.0051411 255 255 255
-3.0861523 -4.3380299 -1.0056827 255 255 255
-3.8783906 -3.4707482 -1.0064808 255 255 255
-4.2507558 -3.0533366 -1.003482 255 255 255
-3.8271978 -3.5271361 -1.0067958 255 255 255
-3.6978378 -3.676301 -1.0058074 255 255 255
-3.6182241 -3.7555702 -1.0062774 255 255 255
-3.7907937 -3.5670836 -1.006231 255 255 255
-3.7940216 -3.5626473 -1.0073235 255 255 255
-3.8389487 -3.5118675 -1.0097783 255 255 255
-3.8304207 -3.5256984 -1.0044575 255 255 255
-3.9074092 -3.4370522 -1.0046901 255 255 255
-3.7997532 -3.5582983 -1.0052981 255 255 255
-3.8565776 -3.497247 -1.0041353 255 255 255
-3.8195763 -3.537164 -1.0048566 255 255 255
-3.761337 -3.5722618 -1.0040052 255 255 255
-3.8673503 -3.4847124 -1.0047939 255 255 255
-3.7287917 -3.6347644 -1.0061096 255 255 255
-3.4566965 -3.9467351 -1.0062155 255 255 255
-3.6891437 -3.6788757 -1.0047048 255 255 255
-3.7952931 -3.5257287 -1.0042979 255 255 255
-3.8772273 -3.472959 -1.0055871 255 255 255
-3.2238283 -4.1731687 -1.0072218 255 255 255
-4.1168566 -3.2160542 -1.0051601 255 255 255
-3.8030677 -3.5539668 -1.0060909 255 255 255
-3.895195 -3.4518752 -1.0064286 255 255 255
-3.6952262 -3.6702259 -1.0059663 255 255 255
-3.6108658 -3.7930036 -1.0082301 255 255 255
-3.8402724 -3.5075505 -1.0132531 255 255 255
-3.7396555 -3.6248274 -1.003724 255 255 255
-3.7839973 -3.5734499 -1.00731 255 255 255
-3.8231976 -3.5338132 -1.00421 255 255 255
-3.7170756 -3.6616917 -1.0081085 255 255 255
-3.8494897 -3.5048816 -1.0043181 255 255 255
-3.8459446 -3.5089922 -1.0040958 255 255 255
-3.2831852 -4.1188583 -1.0060291 255 255 255
-3.1368065 -4.2663832 -1.005827 255 255 255
-3.5217521 -3.8383002 -1.0044131 255 255 255
-3.4058807 -3.9959559 -1.0081558 255 255 255
-3.7942183 -3.5614543 -1.0085168 255 255 255
-4.054657 -3.2718437 -1.0047134 255 255 255
-4.1759515 -3.1207733 -1.0060289 255 255 255
-4.5499344 -2.7217522 -1.0050548 255 255 255
-4.4832754 -2.8163087 -1.005803 255 255 255
-3.9308276 -3.4145193 -1.0051118 255 255 255
-3.7738276 -3.5849583 -1.0066414 255 255 255
-4.1532125 -3.1634462 -1.0037154 255 255 255
-3.862761 -3.4896789 -1.0049243 255 255 255
-4.0536227 -3.2735834 -1.0049095 255 255 255
-4.1742911 -3.1444352 -1.0041862 255 255 255
-3.7956007 -3.5601313 -1.008333 255 255 255
-2.9655008 -4.4675517 -1.0060583 255 255 255
-4.2427692 -3.0600574 -1.0035888 255 255 255
-3.7413909 -3.6487234 -1.0085649 255 255 255
-4.0377536 -3.2923 -1.0046717 255 255 255
-3.8859837 -3.4629402 -1.0057762 255 255 255
-3.9967587 -3.3399181 -1.0060539 255 255 255
-3.8845172 -3.4438396 -1.0042551 255 255 255
-3.7191856 -3.6554489 -1.0068529 255 255 255
-3.6546817 -3.7162614 -1.0036563 255 255 255
-4.0134759 -3.3203018 -1.0044756 255 255 255
-4.0472183 -3.2812836 -1.0047594 255 255 255
-3.8232419 -3.5307307 -1.0076648 255 255 255
-3.8222032 -3.5319583 -1.0075679 255 255 255
-4.0624323 -3.2635648 -1.0048873 255 255 255
-3.7825353 -3.5749111 -1.0073833 255 255 255
-3.8499477 -3.5041523 -1.0045825 255 255 255
-4.1859264 -3.1263816 -1.0036803 255 255 255
-3.8575118 -3.4925547 -1.0081724 255 255 255
-3.6759384 -3.6679003 -1.0041134 255 255 255
-3.7831235 -3.575546 -1.0060143 255 255 255
-4.1125765 -3.2053974 -1.005138 255 255 255
-4.0755463 -3.2483084 -1.0049804 255 255 255
-3.7369874 -3.5864565 -1.0040456 255 255 255
-3.6670485 -3.7061477 -1.0047421 255 255 255
-3.8301582 -3.5230789 -1.0078423 255 255 255
-3.4092815 -4.0043941 -1.0077579 255 255 255
-3.8200397 -3.5325909 -1.0097442 255 255 255
-3.8560367 -3.4939597 -1.008482 255 255 255
-3.8107135 -3.5473144 -1.004343 255 255 255
-3.8032625 -3.5537694 -1.0060918 255 255 255
-3.5673389 -3.7877204 -1.0044459 255 255 255
-4.0037966 -3.3316617 -1.0043013 255 255 255
-4.308795 -3.0079522 -1.0085099 255 255 255
-3.8715787 -3.4797208 -1.0051075 255 255 255
-4.0459146 -3.280241 -1.0058318 255 255 255
-4.1571846 -3.1539032 -1.005177 255 255 255
-3.8588529 -3.4930797 -1.0059061 255 255 255
-4.2424583 -3.0617526 -1.0037254 255 255 255
-4.4554586 -2.846221 -1.0082276 255 255 255
-3.7985463 -3.5605199 -1.0043489 255 255 255
-3.8588936 -3.4923239 -1.0067011 255 255 255
-4.1349678 -3.1794584 -1.0051764 255 255 255
-4.277534 -3.0155253 -1.0049604 255 255 255
-3.8535213 -3.4969807 -1.0082142 255 255 255
-3.7817893 -3.5763345 -1.0067365 255 255 255
-3.8162313 -3.5408759 -1.0047951 255 255 255
-3.8314471 -3.5249741 -1.0039995 255 255 255
-3.7847111 -3.5936539 -1.0076481 255 255 255
-3.7374408 -3.5952132 -1.0040507 255 255 255
-3.8037198 -3.5170691 -1.0444103 255 255 255
-4.0433555 -3.2856579 -1.0047743 255 255 255
-3.8530865 -3.4976537 -1.0079664 255 255 255
-4.1187997 -3.1980531 -1.005196 255 255 255
-3.9247003 -3.4156353 -1.0084337 255 255 255
-3.7999725 -3.5562842 -1.0072684 255 255 255
-3.7989287 -3.5587068 -1.0058128 255 255 255
-3.8611877 -3.4894712 -1.0070434 255 255 255
-4.2810316 -3.0190792 -1.0034198 255 255 255
-3.8903022 -3.4569824 -1.0068173 255 255 255
-3.7145779 -3.644299 -1.0098855 255 255 255
-3.7648292 -3.5931771 -1.0081086 255 255 255
-3.8663046 -3.4860959 -1.0045698 255 255 255
-4.087821 -3.2341096 -1.0050387 255 255 255
-3.9587734 -3.3714781 -1.0043004 255 255 255
-3.742177 -3.6204152 -1.0051591 255 255 255
-3.7848277 -3.5725615 -1.0072893 255 255 255
-3.8309391 -3.521626 -1.0085949 255 255 255
-3.8213048 -3.5327132 -1.0078399 255 255 255
-3.8919649 -3.4543288 -1.007495 255 255 255
-3.8711419 -3.4791679 -1.0061578 255 255 255
-3.7881513 -3.5961113 -1.0084984 255 255 255
-3.9942153 -3.3427138 -1.0041929 255 255 255
-3.864583 -3.4883552 -1.0041804 255 255 255
-3.9974351 -3.3389642 -1.0042527 255 255 255
-3.8139112 -3.5423894 -1.0058986 255 255 255
-3.9647267 -3.3709683 -1.004644 255 255 255
-4.0132408 -3.3206294 -1.0044419 255 255 255
-3.8643768 -3.486053 -1.0068913 255 255 255
-4.0375514 -3.292443 -1.0047363 255 255 255
-3.8673625 -3.4846966 -1.0047944 255 255 255
-4.0526958 -3.2748871 -1.0048137 255 255 255
-3.8610237 -3.4916873 -1.004832 255 255 255
-3.6676242 -3.7258153 -1.0078946 255 255 255
-4.123951 -3.1922731 -1.0051666 255 255 255
-3.8655636 -3.487308 -1.0041307 255 255 255
-3.8359609 -3.5171056 -1.0073506 255 255 255
-4.2089534 -3.0823746 -1.0078611 255 255 255
-3.7978554 -3.5605841 -1.0050538 255 255 255
-3.8481772 -3.5050058 -1.0057943 255 255 255
-3.8715074 -3.4804194 -1.004458 255 255 255
-3.8205235 -3.5362937 -1.0046955 255 255 255
-3.8268619 -3.5294998 -1.0045549 255 255 255
-3.8771179 -3.471725 -1.0069587 255 255 255
-4.2741914 -3.0268054 -1.0034425 255 255 255
-3.8357801 -3.5188782 -1.0055113 255 255 255
-3.5779452 -3.8174016 -1.0066298 255 255 255
-4.0538969 -3.273284 -1.0049095 255 255 255
-4.2743502 -3.0137365 -1.0065295 255 255 255
-3.8393831 -3.5123062 -1.0086191 255 255 255
-3.827167 -3.5291486 -1.0045513 255 255 255
-3.8593266 -3.4891887 -1.0099063 255 255 255
-3.8256218 -3.5278792 -1.0080248 255 255 255
-3.909965 -3.3591547 -1.0394214 255 255 255
-3.7854617 -3.5545743 -1.0417377 255 255 255
-3.8027313 -3.5519094 -1.0090216 255 255 255
-4.0253258 -3.3170938 -1.0077218 255 255 255
-4.2764339 -3.0167215 -1.0049692 255 255 255
-3.8483858 -3.5058506 -1.0046097 255 255 255
-3.9587107 -3.3809729 -1.0054269 255 255 255
-3.8020558 -3.5558958 -1.0052028 255 255 255
-3.8459361 -3.508256 -1.0049251 255 255 255
-3.879241 -3.4693985 -1.0068822 255 255 255
-4.3746634 -2.9357023 -1.0054275 255 255 255
-3.82127 -3.5356052 -1.0045488 255 255 255
-3.8360467 -3.5178113 -1.0064003 255 255 255
-3.849802 -3.5011241 -1.008211 255 255 255
-3.8706222 -3.4803171 -1.0055751 255 255 255
-4.1369419 -3.1771269 -1.0052142 255 255 255
-3.8652995 -3.4875426 -1.0041922 255 255 255
-3.8919964 -3.4550297 -1.006824 255 255 255
-3.8763409 -3.474371 -1.0051202 255 255 255
-4.0296416 -3.3015401 -1.0046669 255 255 255
-3.7374604 -3.6233459 -1.0070057 255 255 255
-3.9102638 -3.4356499 -1.0056978 255 255 255
-4.0576992 -3.3035288 -1.0094371 255 255 255
-3.8244987 -3.5282619 -1.0090516 255 255 255
-4.3712387 -2.9130464 -1.0061488 255 255 255
-3.8004086 -3.5510776 -1.0136197 255 255 255
-3.8450618 -3.5067909 -1.0076721 255 255 255
-4.008163 -3.3384156 -1.0056765 255 255 255
-3.8565657 -3.4923499 -1.009728 255 255 255
-3.9787204 -3.3608902 -1.0044334 255 255 255
-4.039691 -3.2899227 -1.0047492 255 255 255
-4.0294156 -3.3019035 -1.0046041 255 255 255
-4.1542439 -3.1572857 -1.0051788 255 255 255
-4.3685794 -2.9369969 -1.0064532 255 255 255
-3.8333163 -3.5228777 -1.0040641 255 255 255
-3.3772955 -4.0246859 -1.0046818 255 255 255
-3.8464098 -3.5254216 -1.0089967 255 255 255
-3.8633287 -3.48912 -1.0048435 255 255 255
-4.0188894 -3.3140712 -1.0045148 255 255 255
-3.8364158 -3.5157311 -1.0084288 255 255 255
-3.7893305 -3.5706539 -1.0041933 255 255 255
-4.2993774 -2.9915943 -1.0046856 255 255 255
-4.0659976 -3.2594316 -1.0049139 255 255 255
-4.1716719 -3.1245947 -1.0049003 255 255 255
-3.9984801 -3.3377869 -1.0042434 255 255 255
-3.8819854 -3.4665284 -1.0066451 255 255 255
-3.7241745 -3.6386476 -1.0059637 255 255 255
-3.9076841 -3.4454758 -1.0060091 255 255 255
-3.8565192 -3.4936178 -1.0082349 255 255 255
-3.7742183 -3.5875399 -1.0036734 255 255 255
-4.0651979 -3.2603135 -1.0049278 255 255 255
-3.8310187 -3.5254524 -1.003994 255 255 255
-3.820925 -3.5346766 -1.0059854 255 255 255
-4.0501394 -3.2754505 -1.0058017 255 255 255
-3.8406122 -3.5111105 -1.0084481 255 255 255
-3.8407485 -3.5109541 -1.0084584 255 255 255
-3.7688906 -3.588691 -1.0082893 255 255 255
-3.810674 -3.5439103 -1.0082599 255 255 255
-3.9898994 -3.3523958 -1.0052013 255 255 255
-4.1973996 -3.1075439 -1.0051465 255 255 255
-3.8305268 -3.5224707 -1.0080603 255 255 255
-3.8294344 -3.5265634 -1.0046886 255 255 255
-3.8878601 -3.4598367 -1.0067261 255 255 255
-3.8367834 -3.5190375 -1.0040971 255 255 255
-3.8242798 -3.5322204 -1.0046617 255 255 255
-4.1134753 -3.2042584 -1.0051864 255 255 255
-4.0660377 -3.2528386 -1.0051746 255 255 255
-3.6752126 -3.6938245 -1.0039091 255 255 255
-3.8199809 -3.5343137 -1.0076536 255 255 255
-4.1664267 -3.1432736 -1.00517 255 255 255
-3.9153759 -3.4264832 -1.0077878 255 255 255
-3.7967432 -3.5613928 -1.0054753 255 255 255
-4.0175757 -3.3156784 -1.0044676 255 255 255
-4.2653236 -3.0297277 -1.004944 255 255 255
-4.0355983 -3.2876275 -1.0058229 255 255 255
-3.877198 -3.47299 -1.0055863 255 255 255
-3.8282294 -3.5266967 -1.0060009 255 255 255
-3.9934566 -3.3435929 -1.0041887 255 255 255
-3.8041565 -3.5538895 -1.0049045 255 255 255
-3.6819823 -3.6838131 -1.0046922 255 255 255
-3.8894246 -3.4621692 -1.0080442 255 255 255
-4.1219573 -3.1945515 -1.0051622 255 255 255
-3.3782644 -4.030117 -1.0078908 255 255 255
-3.8557863 -3.4963174 -1.0061003 255 255 255
-3.8247037 -3.5315666 -1.0048697 255 255 255
-4.1197238 -3.1971552 -1.0051582 255 255 255
-4.0840735 -3.2382789 -1.0050782 255 255 255
-3.8945189 -3.4538839 -1.0053149 255 255 255
-3.8677807 -3.4802098 -1.0090293 255 255 255
-4.0388517 -3.2795634 -1.0060135 255 255 255
-3.882648 -3.4676199 -1.0048618 255 255 255
-4.3808322 -2.9361444 -1.0070592 255 255 255
-3.8740997 -3.4768729 -1.0051374 255 255 255
-3.853889 -3.5000417 -1.0043238 255 255 255
-3.8367007 -3.5153911 -1.008474 255 255 255
-3.8191788 -3.5352702 -1.0075629 255 255 255
-3.7438815 -3.6191473 -1.0046775 255 255 255
-3.9570615 -3.3828123 -1.0054424 255 255 255
-3.6771221 -3.6997619 -1.0076895 255 255 255
-3.7392066 -3.6244614 -1.0044312 255 255 255
-4.0480833 -3.2782931 -1.0056123 255 255 255
-3.8763399 -3.4746356 -1.0048821 255 255 255
-3.7931111 -3.563447 -1.0075632 255 255 255
-3.9539049 -3.3869734 -1.0050716 255 255 255
-4.0521741 -3.2736373 -1.0055808 255 255 255
-3.8368168 -3.5148792 -1.0089327 255 255 255
-3.8231421 -3.5340087 -1.0040656 255 255 255
-3.8447874 -3.5102794 -1.0040735 255 255 255
-3.8220084 -3.5349369 -1.0043992 255 255 255
-4.0181351 -3.3150351 -1.0044732 255 255 255
-3.8153477 -3.5417314 -1.0048971 255 255 255
-3.7986915 -3.5589983 -1.0057892 255 255 255
-3.8382826 -3.5177841 -1.00366 255 255 255
-3.8670056 -3.4848604 -1.0050364 255 255 255
-3.831363 -3.5215554 -1.0081114 255 255 255
-3.8520534 -3.4989209 -1.007846 255 255 255
-3.8695071 -3.481957 -1.0051625 255 255 255
-4.0474086 -3.280935 -1.0048132 255 255 255
-3.820415 -3.5337427 -1.0078005 255 255 255
-4.0297403 -3.3015029 -1.0046093 255 255 255
-3.8270967 -3.527689 -1.006286 255 255 255
-3.8043163 -3.550736 -1.0083355 255 255 255
-3.7784414 -3.5784066 -1.008415 255 255 255
-3.9253237 -3.4148879 -1.0084362 255 255 255
-4.0488429 -3.2741287 -1.0069638 255 255 255
-3.7240746 -3.6415398 -1.0037762 255 255 255
-3.8483779 -3.5027392 -1.0081501 255 255 255
-5.022975 -2.2220869 -1.0083488 255 255 255
-3.7391884 -3.6244771 -1.0044358 255 255 255
-3.8193078 -3.5348666 -1.0078571 255 255 255
-3.8790317 -3.471457 -1.0050584 255 255 255
-3.8898809 -3.4584754 -1.0058718 255 255 255
-3.7808743 -3.5760391 -1.0081642 255 255 255
-3.7899692 -3.5688879 -1.0052785 255 255 255
-3.826977 -3.5267143 -1.0076065 255 255 255
-3.8242152 -3.5297096 -1.0076717 255 255 255
-3.7236285 -3.6407287 -1.0047781 255 255 255
-4.3056393 -2.9902964 -1.0035602 255 255 255
-3.8563576 -3.4945273 -1.0073906 255 255 255
-3.8837173 -3.4634693 -1.0077736 255 255 255
-4.1010714 -3.2319858 -1.0049829 255 255 255
-3.992944 -3.3441606 -1.0041959 255 255 255
-3.9078462 -3.4353735 -1.0082141 255 255 255
-2.0428333 -5.5212569 -1.0101022 255 255 255
-3.8548524 -3.4968808 -1.006632 255 255 255
-3.8813696 -3.4680097 -1.0058905 255 255 255
-3.8410075 -3.5137043 -1.0048782 255 255 255
-4.01929 -3.3135288 -1.0045599 255 255 255
-3.8799658 -3.4700511 -1.0054299 255 255 255
-4.2119942 -3.1125286 -1.007759 255 255 255
-4.0285459 -3.3029234 -1.0046061 255 255 255
-3.8871615 -3.4619107 -1.0055009 255 255 255
-3.1664479 -4.2560234 -1.0056115 255 255 255
-3.8943148 -3.4536681 -1.0056943 255 255 255
-3.8319459 -3.5452693 -1.0077128 255 255 255
-3.7974193 -3.5604861 -1.0056506 255 255 255
-3.8903444 -3.4584701 -1.0053734 255 255 255
-3.8240099 -3.529881 -1.0077071 255 255 255
-3.8466923 -3.5048466 -1.0078733 255 255 255
-3.8448203 -3.510241 -1.0040691 255 255 255
-3.5414898 -3.8417809 -1.0048759 255 255 255
-4.1438246 -3.1734142 -1.0072714 255 255 255
-4.1044493 -3.1996098 -1.0099206 255 255 255
-3.824368 -3.5297086 -1.0074399 255 255 255
-3.788368 -3.5717211 -1.0041717 255 255 255
-3.8412688 -3.5136418 -1.0046417 255 255 255
-3.9023967 -3.4445837 -1.0056809 255 255 255
-3.4382222 -3.96014 -1.0061874 255 255 255
-4.0594087 -3.2665801 -1.0050608 255 255 255
-4.0490837 -3.2790887 -1.004773 255 255 255
-3.8405948 -3.5118484 -1.0075396 255 255 255
-3.8433599 -3.5101829 -1.0059333 255 255 255
-3.7305195 -3.6336133 -1.0045683 255 255 255
-3.8089981 -3.548826 -1.0047024 255 255 255
-4.0217505 -3.3107686 -1.0045415 255 255 255
-3.9076076 -3.4393117 -1.0051348 255 255 255
-3.8693354 -3.4796309 -1.0078214 255 255 255
-3.8605499 -3.4921458 -1.0049003 255 255 255
-4.0142951 -3.3194706 -1.0044309 255 255 255
-4.0435376 -3.2845724 -1.0051514 255 255 255
-3.8367128 -3.5191014 -1.0041084 255 255 255
-4.2994175 -2.9862826 -1.0053015 255 255 255
-3.1590607 -4.249083 -1.0066813 255 255 255
-3.8712161 -3.4804626 -1.0047431 255 255 255
-3.7944524 -3.5611982 -1.0085571 255 255 255
-3.7100437 -3.6425159 -1.0164444 255 255 255
-3.8057404 -3.5508056 -1.0063978 255 255 255
-3.7668164 -3.5747592 -1.0052931 255 255 255
-3.8433626 -3.5114346 -1.0045397 255 255 255
-3.8458946 -3.5059273 -1.007623 255 255 255
-3.8181474 -3.5392737 -1.0042564 255 255 255
-3.876586 -3.4725211 -1.0081159 255 255 255
-3.8230212 -3.5310106 -1.0076641 255 255 255
-4.0560913 -3.2694266 -1.0046109 255 255 255
-3.871737 -3.4794428 -1.0051975 255 255 255
-3.7827866 -3.5765326 -1.0053846 255 255 255
-4.1041927 -3.2118037 -1.0047486 255 255 255
-3.8076313 -3.5477133 -1.0076274 255 255 255
-3.4545395 -3.9376166 -1.0063734 255 255 255
-3.8746436 -3.4765763 -1.0048214 255 255 255
-3.8365376 -3.517112 -1.0065647 255 255 255
-4.4736428 -2.8051176 -1.0044901 255 255 255
-4.0115438 -3.3225725 -1.004431 255 255 255
-3.884845 -3.4643939 -1.0056156 255 255 255
-4.0044651 -3.330806 -1.0043439 255 255 255
-3.8679323 -3.4833975 -1.0054985 255 255 255
-4.3057513 -2.9834468 -1.0048256 255 255 255
-3.7898242 -3.5687852 -1.0055345 255 255 255
-4.0295773 -3.3016918 -1.0046265 255 255 255
-3.9087873 -3.4342606 -1.0081956 255 255 255
-3.9064226 -3.437012 -1.0082053 255 255 255
-4.0630188 -3.2627623 -1.0049454 255 255 255
-4.1732922 -3.1352165 -1.0051987 255 255 255
-3.884469 -3.4647655 -1.0056542 255 255 255
-3.9860213 -3.3386497 -1.0063013 255 255 255
-3.7441444 -3.6189694 -1.0045981 255 255 255
-3.823498 -3.5331979 -1.0045279 255 255 255
-4.4929109 -2.8199029 -1.0089619 255 255 255
-3.8522918 -3.4993103 -1.0070716 255 255 255
-3.901191 -3.4099894 -1.0044248 255 255 255
-3.8110321 -3.5437763 -1.0079377 255 255 255
-3.9994056 -3.3660636 -1.0078145 255 255 255
-3.6566079 -3.7036753 -1.0047207 255 255 255
-4.2097068 -3.0993781 -1.003655 255 255 255
-3.7307625 -3.6333735 -1.0045618 255 255 255
-3.8073783 -3.5502095 -1.0051023 255 255 255
-3.8903749 -3.458092 -1.005725 255 255 255
-3.8395963 -3.512877 -1.0076838 255 255 255
-3.8370581 -3.518415 -1.0044768 255 255 255
-3.7778494 -3.582577 -1.0046761 255 255 255
-4.2563758 -3.0399816 -1.0049766 255 255 255
-3.723902 -3.640449 -1.0047727 255 255 255
-3.8760705 -3.4747348 -1.0050805 255 255 255
-3.8719087 -3.4791446 -1.0053045 255 255 255
-3.9247382 -3.4201422 -1.0051059 255 255 255
-3.8449655 -3.508739 -1.0055577 255 255 255
-3.8771291 -3.4734015 -1.0052357 255 255 255
-3.588393 -3.8249671 -1.0095823 255 255 255
-3.879106 -3.4701121 -1.0063092 255 255 255
-3.8488979 -3.4764674 -1.0048379 255 255 255
-3.7694976 -3.5921497 -1.0041651 255 255 255
-3.7569344 -3.624543 -1.0077643 255 255 255
-3.8089755 -3.5258968 -1.0048517 255 255 255
-6.0765233 -1.0625554 -1.0109764 255 255 255
-3.8680272 -3.4833059 -1.0054775 255 255 255
-3.4579728 -3.9228582 -1.0058933 255 255 255
-3.900357 -3.4454932 -1.0069083 255 255 255
-3.7994869 -3.5578322 -1.006115 255 255 255
-3.8605163 -3.4925416 -1.0045246 255 255 255
-3.767143 -3.59343 -1.0053294 255 255 255
-4.2596579 -3.0431998 -1.0034763 255 255 255
-3.8756797 -3.4759989 -1.0042275 255 255 255
-3.907491 -3.439451 -1.0051262 255 255 255
-3.8087268 -3.5460527 -1.008256 255 255 255
-4.068397 -3.2667718 -1.0054784 255 255 255
-3.8880055 -3.4610546 -1.0054119 255 255 255
-3.8280005 -3.5275819 -1.0052933 255 255 255
-3.7485847 -3.6051755 -1.008185 255 255 255
-3.7785544 -3.5782964 -1.0084076 255 255 255
-3.8337374 -3.5206435 -1.0060635 255 255 255
-3.8207538 -3.5337024 -1.0073973 255 255 255
-3.5082812 -3.8865423 -1.0080822 255 255 255
-3.7551901 -3.6049047 -1.0066315 255 255 255
-4.1874547 -3.1191311 -1.005128 255 255 255
-3.551296 -3.8280036 -1.0031863 255 255 255
-3.4004514 -3.9929049 -1.0039054 255 255 255
-4.0331106 -3.2975621 -1.0046734 255 255 255
-3.7879381 -3.571475 -1.0048791 255 255 255
-4.0406427 -3.2889161 -1.004719 255 255 255
-3.8574281 -3.4963462 -1.0040846 255 255 255
-4.0600901 -3.2549863 -1.0055945 255 255 255
-3.3059154 -4.0841146 -1.0043021 255 255 255
-3.794734 -3.5610054 -1.0083942 255 255 255
-3.3483546 -4.0623088 -1.0054646 255 255 255
-4.0435147 -3.2855723 -1.0047361 255 255 255
-4.2532716 -3.0440474 -1.0048796 255 255 255
-3.8270481 -3.526623 -1.0076541 255 255 255
-3.8959119 -3.4506485 -1.0067811 255 255 255
-4.3012261 -3.0189137 -1.0077854 255 255 255
-3.6690536 -3.693799 -1.0082252 255 255 255
-3.8364351 -3.5192993 -1.0042534 255 255 255
-3.8898737 -3.4591069 -1.005276 255 255 255
-3.8703918 -3.480886 -1.0052476 255 255 255
-3.8813605 -3.4686987 -1.0052148 255 255 255
-4.0264149 -3.3052945 -1.0046144 255 255 255
-3.8568254 -3.4953053 -1.0059414 255 255 255
-3.8217702 -3.5334897 -1.00631 255 255 255
-3.5410328 -3.8372207 -1.004106 255 255 255
-3.8013248 -3.490741 -1.0583211 255 255 255
-3.8958652 -3.4527943 -1.0048759 255 255 255
-3.6918161 -3.6895287 -1.006019 255 255 255
-3.8466096 -3.507607 -1.0048209 255 255 255
-3.8511689 -3.5008523 -1.0067401 255 255 255
-3.7797484 -3.580138 -1.0050447 255 255 255
-3.7504098 -3.6119149 -1.0048703 255 255 255
-3.8834383 -3.4656448 -1.0059304 255 255 255
-4.2004485 -3.1042147 -1.0051045 255 255 255
-3.9274278 -3.4110856 -1.0079647 255 255 255
-4.3002491 -2.9908288 -1.0046376 255 255 255
-4.5095644 -2.7594173 -1.004371 255 255 255
-4.1950383 -3.1104133 -1.0051177 255 255 255
-4.2534051 -3.0590558 -1.0072756 255 255 255
-3.552295 -3.8275445 -1.0029544 255 255 255
-3.8251889 -3.5311735 -1.0047156 255 255 255
-4.12747 -3.1880341 -1.0052125 255 255 255
-3.8054686 -3.5521026 -1.0052838 255 255 255
-3.7996705 -3.5553944 -1.0087957 255 255 255
-4.011879 -3.3222551 -1.0044054 255 255 255
-3.8590636 -3.492795 -1.0059842 255 255 255
-3.7870522 -3.5724566 -1.0048639 255 255 255
-3.7531943 -3.6089687 -1.0048356 255 255 255
-3.9430044 -3.3999219 -1.0046681 255 255 255
-4.128294 -3.1871822 -1.0051806 255 255 255
-3.5527546 -3.8270388 -1.0029601 255 255 255
-3.7239444 -3.6404088 -1.0047675 255 255 255
-3.793601 -3.5660627 -1.0041512 255 255 255
-3.747144 -3.6129982 -1.0070292 255 255 255
-3.856257 -3.4940405 -1.0080854 255 255 255
-4.2616005 -3.0210907 -1.0075263 255 255 255
-3.5585706 -3.8201935 -1.003195 255 255 255
-3.3830478 -4.0153933 -1.0060564 255 255 255
-4.0042224 -3.331146 -1.0043215 255 255 255
-3.870913 -3.4805546 -1.0049921 255 255 255
-4.0724788 -3.2533195 -1.0044038 255 255 255
-3.4751186 -3.9111981 -1.0069659 255 255 255
-3.8461919 -3.5068009 -1.0062406 255 255 255
-2.928663 -4.5795321 -1.013997 255 255 255
-3.9101355 -3.435811 -1.0056858 255 255 255
-3.7832212 -3.5760741 -1.0053673 255 255 255
-3.8390617 -3.5087819 -1.0135039 255 255 255
-4.0040307 -3.331332 -1.0043235 255 255 255
-3.8904672 -3.457262 -1.0063869 255 255 255
-3.887053 -3.4616783 -1.0058547 255 255 255
-3.8298838 -3.5262918 -1.0044448 255 255 255
-3.8053665 -3.5529671 -1.0045067 255 255 255
-3.8530307 -3.5011566 -1.0041389 255 255 255
-3.8247936 -3.5321941 -1.0040784 255 255 255
-3.5447571 -3.8434556 -1.0053456 255 255 255
-2.1108105 -5.3790197 -1.0078194 255 255 255
-3.836761 -3.5157971 -1.0078501 255 255 255
-3.817764 -3.5395937 -1.00438 255 255 255
-3.8316054 -3.5246551 -1.0041751 255 255 255
-3.7667229 -3.5938828 -1.0053308 255 255 255
-4.0113254 -3.3228884 -1.0044017 255 255 255
-3.8831773 -3.4664106 -1.0054612 255 255 255
-3.6007006 -3.7658906 -1.0076853 255 255 255
-3.8198726 -3.5369151 -1.0047826 255 255 255
-3.8347061 -3.520956 -1.0045071 255 255 255
-3.7583818 -3.604032 -1.0042613 255 255 255
-3.716974 -3.6731451 -1.0076368 255 255 255
-3.8773637 -3.4736097 -1.0047661 255 255 255
-3.8519413 -3.4989421 -1.0079626 255 255 255
-3.8780391 -3.4707468 -1.0068849 255 255 255
-3.8376276 -3.5139356 -1.0090244 255 255 255
-3.8138816 -3.5406711 -1.0079969 255 255 255
-3.8689539 -3.4822881 -1.0054637 255 255 255
-3.7928655 -3.5488427 -1.0329559 255 255 255
-3.7551405 -3.5910125 -1.0054044 255 255 255
-3.8600929 -3.4933915 -1.0040941 255 255 255
-3.8025253 -3.5521228 -1.0090318 255 255 255
-3.8407636 -3.5109456 -1.008445 255 255 255
-3.8410401 -3.5102308 -1.008942 255 255 255
-3.7986021 -3.5601027 -1.0047066 255 255 255
-3.8696356 -3.4819784 -1.0049869 255 255 255
-3.5517864 -3.8281326 -1.0029395 255 255 255
-3.8407505 -3.5131223 -1.0058464 255 255 255
-4.0439401 -3.2849429 -1.0047872 255 255 255
-4.2793274 -3.0135829 -1.0049242 255 255 255
-3.3127403 -4.0875578 -1.0045435 255 255 255
-3.3858259 -4.0297585 -1.0076917 255 255 255
-3.6213169 -3.7296202 -1.0166652 255 255 255
-3.8757796 -3.4751501 -1.0049927 255 255 255
-4.0477829 -3.2805886 -1.0047944 255 255 255
-3.9111123 -3.4296482 -1.0066369 255 255 255
-3.8839664 -3.4629292 -1.0079967 255 255 255
-3.7964551 -3.5612736 -1.0059119 255 255 255
-3.752363 -3.6098106 -1.0048734 255 255 255
-3.7686007 -3.5732918 -1.0430379 255 255 255
-3.795629 -3.562185 -1.0058945 255 255 255
-4.1533222 -3.1693089 -1.0045489 255 255 255
-3.7236278 -3.6420348 -1.0037663 255 255 255
-3.6560137 -3.7201221 -1.0085094 255 255 255
-3.7519066 -3.6102884 -1.0048862 255 255 255
-3.803833 -3.5523601 -1.0069778 255 255 255
-5.7879467 -1.3674076 -1.0098704 255 255 255
-4.6522932 -2.6194441 -1.0068531 255 255 255
-3.8570361 -3.4918401 -1.0097022 255 255 255
-4.0315485 -3.2994511 -1.0046264 255 255 255
-3.8225763 -3.5302382 -1.0092744 255 255 255
-3.5054944 -3.8787434 -1.0043247 255 255 255
-3.7666419 -3.5902593 -1.0074313 255 255 255
-3.818593 -3.5351679 -1.008459 255 255 255
-3.8537428 -3.4981599 -1.0065887 255 255 255
-3.8705158 -3.4782085 -1.0079081 255 255 255
-3.8678608 -3.4811506 -1.0080125 255 255 255
-4.0053339 -3.3298748 -1.0043195 255 255 255
-3.7396545 -3.6317148 -1.0076584 255 255 255
-3.8411922 -3.5137761 -1.0045763 255 255 255
-3.9660611 -3.3590503 -1.0066423 255 255 255
-4.0381093 -3.291733 -1.0047336 255 255 255
-4.2634912 -3.0378876 -1.0036819 255 255 255
-4.1521401 -3.165957 -1.0053433 255 255 255
-4.0550237 -3.2721252 -1.0048517 255 255 255
-3.8371356 -3.5186641 -1.0040809 255 255 255
-3.8721926 -3.4791591 -1.0049607 255 255 255
-4.042594 -3.2866523 -1.004721 255 255 255
-4.3097053 -2.9857943 -1.0035272 255 255 255
-3.8681955 -3.4831398 -1.0054564 255 255 255
-3.800185 -3.5563178 -1.0069712 255 255 255
-4.2517505 -3.0521896 -1.0034761 255 255 255
-3.8641784 -3.4812016 -1.0123038 255 255 255
-3.8432887 -3.5117207 -1.0042922 255 255 255
-3.7748957 -3.5862458 -1.0042226 255 255 255
-3.7024446 -3.6814692 -1.0075898 255 255 255
-3.3061194 -4.0799923 -1.0052739 255 255 255
-4.0381346 -3.2916043 -1.0047745 255 255 255
-3.8498859 -3.5044472 -1.0043186 255 255 255
-3.8595717 -3.4905975 -1.0077643 255 255 255
-4.0740008 -3.2500842 -1.0049875 255 255 255
-3.7597313 -3.6026134 -1.0042154 255 255 255
-3.5605242 -3.8183527 -1.0031047 255 255 255
-4.0320945 -3.2987525 -1.0046639 255 255 255
-4.0351973 -3.2950983 -1.004719 255 255 255
-3.7514372 -3.6108572 -1.004832 255 255 255
-3.9423711 -3.3918145 -1.004087 255 255 255
-4.631021 -2.6296895 -1.0055474 255 255 255
-3.8732221 -3.47874 -1.0042056 255 255 255
-3.8508871 -3.5033569 -1.004308 255 255 255
-3.8772488 -3.4732537 -1.0052567 255 255 255
-3.8730175 -3.475476 -1.0078467 255 255 255
-4.0627341 -3.2632267 -1.004895 255 255 255
-4.0462031 -3.2812097 -1.0052865 255 255 255
-3.8206389 -3.5336339 -1.0076015 255 255 255
-4.023901 -3.3096325 -1.0048712 255 255 255
-4.0307837 -3.3003271 -1.0046232 255 255 255
-3.8411646 -3.5122941 -1.0062593 255 255 255
-3.0977697 -4.3310165 -1.005188 255 255 255
-3.8731835 -3.4776175 -1.0054138 255 255 255
-3.8244278 -3.5319815 -1.0047426 255 255 255
-3.81689 -3.5404305 -1.0044975 255 255 255
-3.8417213 -3.5120769 -1.0058172 255 255 255
-4.0917664 -3.2409177 -1.0050068 255 255 255
-3.8977797 -3.4505115 -1.0050333 255 255 255
-4.0220809 -3.3104348 -1.0045195 255 255 255
-3.888485 -3.4607632 -1.0051844 255 255 255
-3.8837533 -3.4658165 -1.005417 255 255 255
-3.7948616 -3.5636442 -1.0052347 255 255 255
-3.8284931 -3.5279095 -1.0043457 255 255 255
-4.082171 -3.2406456 -1.0050135 255 255 255
-4.4680972 -2.7991724 -1.0048869 255 255 255
-4.0174108 -3.3158548 -1.0044739 255 255 255
-3.6893332 -3.6672964 -1.0042095 255 255 255
-3.7990956 -3.5599251 -1.0043302 255 255 255
-3.8293767 -3.5268385 -1.0044594 255 255 255
-3.3900459 -4.016531 -1.0059328 255 255 255
-4.2114282 -3.0974512 -1.0036464 255 255 255
-4.0905743 -3.2308774 -1.0050601 255 255 255
-4.0569234 -3.2699628 -1.0048581 255 255 255
-4.0673451 -3.2578385 -1.0049262 255 255 255
-3.8863211 -3.4614983 -1.0067751 255 255 255
-3.8268421 -3.5297093 -1.0043416 255 255 255
-3.9949946 -3.3417513 -1.0042355 255 255 255
-4.4343553 -2.867732 -1.0073545 255 255 255
-3.8316936 -3.5246856 -1.0040302 255 255 255
-4.0297251 -3.3015552 -1.0046102 255 255 255
-3.8553388 -3.4940956 -1.0092032 255 255 255
-3.8952434 -3.4521241 -1.0061342 255 255 255
-3.6885941 -3.6735778 -1.0052186 255 255 255
-4.6503968 -2.6214283 -1.0067433 255 255 255
-4.0178437 -3.3151612 -1.0044351 255 255 255
-3.5753179 -3.8021965 -1.0032167 255 255 255
-4.0283718 -3.303148 -1.0045919 255 255 255
-4.0766644 -3.2469516 -1.005012 255 255 255
-4.0276055 -3.3039289 -1.0046206 255 255 255
-3.7517765 -3.6104898 -1.0048351 255 255 255
-3.789818 -3.5702436 -1.0040716 255 255 255
-3.6515198 -3.719677 -1.0036366 255 255 255
-3.852592 -3.5011008 -1.0047187 255 255 255
-4.0927129 -3.2284369 -1.005065 255 255 255
-4.0183926 -3.3146324 -1.0045234 255 255 255
-4.0360403 -3.2953053 -1.0045378 255 255 255
-3.527452 -3.8309064 -1.0040486 255 255 255
-3.8477361 -3.5046127 -1.006797 255 255 255
-3.9360852 -3.3757513 -1.0048723 255 255 255
-4.1106253 -3.2013562 -1.0040686 255 255 255
-3.8044777 -3.5543211 -1.0040882 255 255 255
-4.0711055 -3.2767625 -1.0070134 255 255 255
-4.2895775 -3.042156 -1.0077891 255 255 255
-5.0281234 -2.1847615 -1.0045637 255 255 255
-3.8474703 -3.5375533 -1.0084559 255 255 255
-3.8762114 -3.474777 -1.0048835 255 255 255
-3.8120275 -3.5428181 -1.0078188 255 255 255
-3.8158576 -3.5411 -1.0049911 255 255 255
-3.7442362 -3.6188862 -1.0045909 255 255 255
-3.8503056 -3.5010118 -1.0076305 255 255 255
-4.0871167 -3.234741 -1.0051078 255 255 255
-3.8770638 -3.4729333 -1.0057917 255 255 255
-4.3507662 -2.9391859 -1.0050678 255 255 255
-3.8903215 -3.4567177 -1.0070269 255 255 255
-3.8216331 -3.5324097 -1.0077556 255 255 255
-3.8911431 -3.4566801 -1.0062294 255 255 255
-3.7810032 -3.5758839 -1.0081893 255 255 255
-3.8735194 -3.4777513 -1.0049063 255 255 255
-3.7850986 -3.5748312 -1.0046029 255 255 255
-3.8030989 -3.5537703 -1.0062618 255 255 255
-4.0425415 -3.2866776 -1.0047295 255 255 255
-4.460638 -2.8176045 -1.0050244 255 255 255
-3.7562835 -3.6063914 -1.0041752 255 255 255
-3.843812 -3.5070114 -1.0091093 255 255 255
-3.868299 -3.4832876 -1.0051844 255 255 255
-4.1817708 -3.1095943 -1.0053726 255 255 255
-3.8379443 -3.5177262 -1.0041486 255 255 255
-3.5708516 -3.807008 -1.0032045 255 255 255
-3.9532411 -3.387717 -1.0050863 255 255 255
-3.5681877 -3.8098104 -1.0032244 255 255 255
-3.8752871 -3.4754965 -1.005193 255 255 255
-3.7746692 -3.5864232 -1.0042859 255 255 255
-3.9025257 -3.4444156 -1.0056857 255 255 255
-3.7922285 -3.5646312 -1.0072573 255 255 255
-4.0500135 -3.2768879 -1.0052559 255 255 255
-4.0420961 -3.2871027 -1.0047779 255 255 255
-3.9002252 -3.3733137 -1.0394119 255 255 255
-3.8353355 -3.5174277 -1.0078176 255 255 255
-3.7758946 -3.5842428 -1.005105 255 255 255
-3.7591252 -3.6032057 -1.0042772 255 255 255
-3.5886552 -3.8098557 -1.0075741 255 255 255
-2.5950422 -4.894052 -1.0067345 255 255 255
-3.9380393 -3.4133246 -1.0081861 255 255 255
-4.3047752 -2.985647 -1.0046258 255 255 255
-3.8457074 -3.5046628 -1.0094343 255 255 255
-3.9001372 -3.4457479 -1.0068949 255 255 255
-3.8272936 -3.5263681 -1.0076354 255 255 255
-3.8327909 -3.5223646 -1.005284 255 255 255
-3.7397537 -3.6247196 -1.0037251 255 255 255
-3.8786938 -3.4702947 -1.0066175 255 255 255
-3.801574 -3.5554895 -1.0062197 255 255 255
-3.815418 -3.5413916 -1.005177 255 255 255
-3.7896736 -3.5702882 -1.004186 255 255 255
-3.8107107 -3.5440958 -1.0079795 255 255 255
-3.7667105 -3.5938835 -1.0053412 255 255 255
-3.6012912 -3.7887471 -1.0081915 255 255 255
-3.8706985 -3.4801657 -1.005648 255 255 255
-3.9961963 -3.3403838 -1.0042411 255 255 255
-4.1343451 -3.1847105 -1.0037792 255 255 255
-4.0200496 -3.3127017 -1.0045483 255 255 255
-3.7992857 -3.558759 -1.0053484 255 255 255
-4.0108585 -3.3234007 -1.0044112 255 255 255
-3.8316829 -3.5247164 -1.0039991 255 255 255
-3.8686061 -3.4798722 -1.0084056 255 255 255
-4.1793804 -3.1557207 -1.0076162 255 255 255
-3.6961887 -3.6714227 -1.0038397 255 255 255
-3.8605144 -3.4929256 -1.0040969 255 255 255
-3.7804763 -3.5607705 -1.0424858 255 255 255
-3.9011312 -3.4458365 -1.0058284 255 255 255
-3.7925375 -3.5664091 -1.0049815 255 255 255
-3.8304784 -3.5257835 -1.0042939 255 255 255
-3.8752666 -3.4755268 -1.0051569 255 255 255
-3.8910539 -3.45736 -1.0056752 255 255 255
-4.0903802 -3.2273085 -1.0046257 255 255 255
-3.7476377 -3.6154211 -1.0044135 255 255 255
-3.8444209 -3.5069556 -1.0083811 255 255 255
