ply
format ascii 1.0
comment PCL generated
element vertex 1113
property float x
property float y
property float z
property uchar red
property uchar green
property uchar blue
element face 0
element camera 0
property float view_px
property float view_py
property float view_pz
property float x_axisx
property float x_axisy
property float x_axisz
property float y_axisx
property float y_axisy
property float y_axisz
property float z_axisx
property float z_axisy
property float z_axisz
property float focal
property float scalex
property float scaley
property float centerx
property float centery
property int viewportx
property int viewporty
property float k1
property float k2
end_header
888.41211 101.13267 0.96615309 255 255 255
1971.9906 1098.4773 2.3153374 255 255 255
-3794.4893 -1886.439 -6.1995645 255 255 255
11288.879 6454.8208 12.688872 255 255 255
-3947.0566 -1330.8473 -6.9091372 255 255 255
10859.804 5547.21 12.294605 255 255 255
6243.0093 3489.1616 7.6644692 255 255 255
1802.7301 997.43335 2.1073759 255 255 255
-2726.4956 -1146.428 -6.1395788 255 255 255
-44929.918 -21459.025 -59.795086 255 255 255
1485.3553 815.0047 1.6070064 255 255 255
627.61749 327.1813 1.0175011 255 255 255
1361.7999 774.37769 1.5433497 255 255 255
2281.9087 734.37323 2.2302344 255 255 255
2085.7673 1010.9117 3.457063 255 255 255
-2104.8054 -555.52863 -3.3991034 255 255 255
11073.894 3216.9595 16.605909 255 255 255
1306.5007 770.60388 1.5078346 255 255 255
-26780.699 -14697.296 -30.953508 255 255 255
646.83411 448.07776 0.81263262 255 255 255
738.35553 608.79443 0.90723944 255 255 255
1779.4629 866.62122 2.0560613 255 255 255
1558.1144 846.9303 1.6584982 255 255 255
3232.9753 1960.1829 3.5576763 255 255 255
-4713.6079 -2533.8567 -7.6195211 255 255 255
-3669.6345 -1083.795 -5.4104691 255 255 255
1404.0797 559.38147 2.2089241 255 255 255
4250.6353 1972.5786 4.5769548 255 255 255
1823.2242 546.77295 1.899115 255 255 255
874.39771 425.84857 1.2762665 255 255 255
957.18616 451.87708 1.3573564 255 255 255
-2019.5425 -685.62738 -3.8759255 255 255 255
-1069.6744 -126.0431 -2.5541844 255 255 255
-5015.0674 -2234.1672 -7.650919 255 255 255
-1839.9763 -907.32385 -3.5871944 255 255 255
4437.4648 1769.6439 4.4216504 255 255 255
-5410.2285 -1878.3014 -8.1958132 255 255 255
-3200.4368 -1477.0248 -4.4527025 255 255 255
11493.268 8033.0947 15.057765 255 255 255
1060.4054 715.89105 1.5421708 255 255 255
1102.8569 615.30426 1.402747 255 255 255
465.74042 395.29425 0.6018247 255 255 255
3021.2952 1073.8171 4.3797998 255 255 255
16671.061 7398.1118 16.489204 255 255 255
1045.9913 477.02026 1.4414052 255 255 255
2145.7214 1351.6515 2.3981907 255 255 255
-21737.859 -13083.097 -29.580631 255 255 255
-8022.79 -3060.4609 -10.088703 255 255 255
4532.8843 2452.801 4.9435215 255 255 255
3496.8032 2094.0566 4.0552697 255 255 255
1279.4543 744.09863 1.7458258 255 255 255
-1837.2823 -588.36322 -3.0726686 255 255 255
24525.311 4739.8193 25.50489 255 255 255
3003.5186 2360.5457 4.2063689 255 255 255
-5034.2715 -1452.5139 -8.0002518 255 255 255
1039.9155 705.69757 1.3111092 255 255 255
2562.2612 1425.8052 4.2023039 255 255 255
5301.1577 3156.8022 6.361227 255 255 255
5193.3853 2830.158 6.4577832 255 255 255
1715.1224 918.29388 1.8594316 255 255 255
6420.5073 1512.5007 7.6077442 255 255 255
4600.209 2841.4189 7.393333 255 255 255
-2270.9758 -848.55469 -3.5178535 255 255 255
-3129.6912 -903.42651 -4.8071804 255 255 255
-1769.9886 -474.93188 -2.9458401 255 255 255
5409.4663 3304.2478 6.7148538 255 255 255
6803.8438 4230.9087 8.4455051 255 255 255
868.539 644.80139 0.96638495 255 255 255
82397.75 25480.508 97.04142 255 255 255
1197.7489 555.76971 1.0860425 255 255 255
597.66071 313.70425 0.98214948 255 255 255
1785.8658 1063.3839 2.05358 255 255 255
-11814.834 -3651.8171 -20.076828 255 255 255
3762.582 2124.7141 4.1999955 255 255 255
-2121.2214 -804.80463 -3.719815 255 255 255
-5115.0649 -1767.7372 -7.7246866 255 255 255
759.61121 464.19705 0.76550263 255 255 255
305818.78 149298.22 329.86914 255 255 255
1650.29 1186.6622 1.7193185 255 255 255
1160.3167 815.12738 1.3894862 255 255 255
594.84503 312.26379 0.97961998 255 255 255
-2790.4224 -1041.9302 -4.2909241 255 255 255
6746.3511 3459.6423 7.3086276 255 255 255
-2643.272 -871.6004 -4.0108294 255 255 255
2937.9709 1667.7845 4.7840939 255 255 255
773.4566 757.03821 1.3150249 255 255 255
-3111.312 -1518.8215 -5.0103583 255 255 255
5295.9868 1721.3373 5.3350053 255 255 255
2724.2708 1709.1559 3.8418076 255 255 255
893.65436 415.10672 1.068655 255 255 255
-5044.8604 -1845.2631 -8.4351873 255 255 255
1777.2449 1122.6017 3.0623257 255 255 255
632.73737 715.98456 1.0454232 255 255 255
4970.4897 3195.5244 5.4672289 255 255 255
987.12628 702.06128 1.2273917 255 255 255
4154.2461 1891.0913 4.6647711 255 255 255
-1457.1672 -325.40656 -2.39292 255 255 255
1481.8169 720.16248 2.6201491 255 255 255
470.24969 249.40396 0.82656926 255 255 255
2363.6621 1485.5571 2.6335409 255 255 255
971.13104 315.28207 1.1402568 255 255 255
1150.4033 590.18719 1.1234999 255 255 255
3618.8755 1863.3324 5.221776 255 255 255
396.11029 320.40643 0.39471561 255 255 255
-1884.55 -751.771 -3.2535989 255 255 255
618.77997 460.24332 0.70381874 255 255 255
4166.8462 2150.5256 6.8386674 255 255 255
1629.4606 1019.3735 2.4986207 255 255 255
-912.27618 -156.65572 -2.0176377 255 255 255
4434.4326 2739.7195 7.1431499 255 255 255
1189.3893 616.26819 1.1153069 255 255 255
8791.166 4582.3525 10.597028 255 255 255
688.00323 559.17102 1.0188556 255 255 255
-2329.5271 -481.12692 -3.6868145 255 255 255
5708.6587 2483.9211 5.3226867 255 255 255
-1397.8046 -197.81834 -2.5480273 255 255 255
3298.5574 1893.5995 3.7671118 255 255 255
-95666.094 -57804.629 -137.41078 255 255 255
2313.0791 1066.2751 2.3218126 255 255 255
53265.324 34334.82 70.005104 255 255 255
-4124.6382 -1539.468 -6.3519406 255 255 255
-1127.4963 -364.79828 -2.2897627 255 255 255
7255.1787 4931.8237 9.406146 255 255 255
622.59381 327.01605 0.65560693 255 255 255
2821.5747 791.88849 2.4223518 255 255 255
-14338.614 -2814.4683 -16.799221 255 255 255
617.63977 475.06503 0.69013959 255 255 255
-2591.8806 -544.67426 -3.8533852 255 255 255
898.92242 646.21613 1.4145743 255 255 255
660.13214 424.99731 0.82888579 255 255 255
28314.5 6383.3633 31.203461 255 255 255
7090.981 2557.5396 12.696773 255 255 255
8892.1787 2831.5144 12.233701 255 255 255
-2934.667 -1360.741 -6.4843888 255 255 255
1160.4614 321.89978 1.7674093 255 255 255
-1349.0455 -396.73666 -2.6044359 255 255 255
7075.1597 3146.02 8.1975555 255 255 255
2779.8955 1532.9351 2.7956073 255 255 255
1238.0065 839.90552 1.5103735 255 255 255
3630.2402 1170.493 3.5313871 255 255 255
-7442.188 -3839.7729 -15.890796 255 255 255
1035.3896 634.9635 1.0853937 255 255 255
1035.1084 611.26038 0.96848375 255 255 255
-2383.8877 -809.46326 -4.135489 255 255 255
658.78394 356.81702 0.76695472 255 255 255
-1167.9454 -357.88345 -2.1210375 255 255 255
1074.1523 417.89014 1.1323951 255 255 255
13106.019 5700.9697 16.015774 255 255 255
840.24963 427.78104 1.3043337 255 255 255
401.62674 349.12396 0.47388923 255 255 255
808.38965 480.87524 0.74691892 255 255 255
-6575.665 -2434.2883 -8.4339771 255 255 255
-11932.786 -7786.7979 -17.257326 255 255 255
-31775.586 -17523.998 -38.474705 255 255 255
-818.47778 -123.15972 -1.8472788 255 255 255
2856.2693 857.36407 3.365247 255 255 255
770.43195 517.98193 0.81443942 255 255 255
1765.6024 1268.8479 3.0012352 255 255 255
8713.373 2686.6975 11.428516 255 255 255
8203.208 3973.4785 9.7526026 255 255 255
5129.2764 2930.2908 5.725534 255 255 255
1072.0948 645.00555 1.7031562 255 255 255
3210.7563 1264.7485 3.4165447 255 255 255
2799.6499 458.32645 2.9751348 255 255 255
1805.2253 697.97882 2.6155932 255 255 255
-5366.1606 -3147.8628 -8.7128582 255 255 255
1346.6089 584.60437 1.3626248 255 255 255
-14219.431 -8225.2969 -20.091915 255 255 255
-7755.1187 -635.84747 -8.2119207 255 255 255
-52172.09 -29386.58 -75.505898 255 255 255
671.60309 497.33093 0.81645679 255 255 255
-1730.8403 -546.68274 -3.1513469 255 255 255
-4154.9976 -1195.4148 -6.0545659 255 255 255
-1783.743 -441.65829 -3.8574464 255 255 255
4925.9385 2995.4036 5.9421902 255 255 255
7578.2573 2143.3618 11.147584 255 255 255
1519.9044 907.28668 1.4690667 255 255 255
2346.5034 1448.3672 2.7512858 255 255 255
3630.6934 1626.8281 3.4212246 255 255 255
10358.408 2782.3245 12.242797 255 255 255
-1381.0663 -464.18509 -2.3651965 255 255 255
2485.8059 1617.1494 3.0104554 255 255 255
878.12628 547.22968 0.94345236 255 255 255
-2676.1748 -936.28693 -4.0375247 255 255 255
2323.8347 2303.3862 4.1116767 255 255 255
1021.351 513.19281 0.98848087 255 255 255
5424.6006 3033.1519 5.8318939 255 255 255
8755.1211 4206.3848 8.1096516 255 255 255
535.77948 357.8204 0.62058598 255 255 255
9544.3242 4556.4946 16.77014 255 255 255
-2789.8103 -1025.3088 -4.5609179 255 255 255
831.45825 538.03442 0.92163473 255 255 255
37457.184 11260.53 36.532082 255 255 255
2207.9058 1224.5825 2.3506231 255 255 255
-19583.877 -11196.039 -30.007885 255 255 255
1299.7576 519.5058 1.605922 255 255 255
3318.8914 2327.3254 4.3945627 255 255 255
-7020.6943 -2488.1318 -11.535586 255 255 255
3756.7004 2554.4531 5.1515346 255 255 255
4584.2568 1505.5653 7.1288714 255 255 255
-1740.7762 -555.66785 -3.0224082 255 255 255
1411.0007 502.87 1.5068433 255 255 255
1488.6542 598.99445 1.7874273 255 255 255
-5771.7881 -1642.5154 -7.5599022 255 255 255
-11316.675 -3611.0676 -14.457249 255 255 255
8285.5391 2806.4458 13.823464 255 255 255
2104.0637 996.54547 2.2840545 255 255 255
3807.4495 2083.175 4.1533866 255 255 255
1362.1868 804.15674 1.5472389 255 255 255
1469.5455 588.70691 1.7809154 255 255 255
1453.1497 590.89746 1.7622643 255 255 255
3578.1929 2061.7791 3.8981361 255 255 255
1109.7723 807.56689 1.3390961 255 255 255
-1017.2803 -324.66824 -2.0720327 255 255 255
2500.7378 513.03217 2.7077096 255 255 255
492.68808 522.52692 0.68037915 255 255 255
2051.4126 1189.8536 3.8887637 255 255 255
215950.33 96185.859 244.72298 255 255 255
597.79181 312.12314 0.9839173 255 255 255
1253.5684 336.53912 1.8617048 255 255 255
10183.341 3469.335 10.934587 255 255 255
3424.5413 1985.1321 3.9211488 255 255 255
3962.303 2264.4521 4.9794331 255 255 255
1580.317 619.62817 1.8479774 255 255 255
2329.4331 996.29248 2.0207324 255 255 255
1825.4974 1211.2083 1.9485108 255 255 255
1093.2466 700.02386 1.3604271 255 255 255
-3704.5547 -778.64685 -5.2273059 255 255 255
-96746.633 -56983.949 -139.16843 255 255 255
16330.352 7396.355 18.209824 255 255 255
2572.2036 2177.5903 3.0004487 255 255 255
-1201.7717 -509.4895 -2.5165625 255 255 255
-1925.2446 -768.68048 -3.4730034 255 255 255
4985.1367 4725.1387 9.080678 255 255 255
1921.8645 336.41071 2.0926936 255 255 255
464.87949 195.90106 0.61872667 255 255 255
-1208.0385 -423.74103 -2.5875142 255 255 255
858.27765 420.04633 1.2606103 255 255 255
-2026.151 -889.11841 -4.0686836 255 255 255
14780.879 3780.1116 19.042757 255 255 255
1281.8341 545.16901 1.6381826 255 255 255
896.867 123.1738 0.97673249 255 255 255
6371.1025 1709.4559 9.674902 255 255 255
19159.195 9431.7598 24.421009 255 255 255
4402.479 1489.6448 7.072084 255 255 255
1705.366 364.8009 2.210218 255 255 255
4225.1758 2185.6868 4.7019548 255 255 255
-8127.8022 -2384.2993 -12.636857 255 255 255
-1427.756 -467.0228 -3.0018613 255 255 255
4087.0786 2708.5869 5.0003366 255 255 255
1104.389 678.41144 1.3289592 255 255 255
1248.1284 533.49432 1.6144036 255 255 255
-1865.2848 -751.57056 -3.7966011 255 255 255
1271.6687 539.13068 1.6328505 255 255 255
-2376.1292 -894.02893 -3.9952002 255 255 255
-8229.8799 -3222.7986 -10.277635 255 255 255
-11962.812 -7904.7085 -18.465799 255 255 255
2839.8076 484.04996 2.8842304 255 255 255
1003.4074 641.37274 1.1133951 255 255 255
1738.514 651.65259 1.9481281 255 255 255
-1871.6821 -692.57312 -3.2103317 255 255 255
-7475.0654 -3395.4722 -8.5578957 255 255 255
1657.0983 572.06055 1.7133566 255 255 255
1787.1733 659.28253 1.9790511 255 255 255
774.11426 388.7886 1.175747 255 255 255
1596.6652 1027.9135 1.6426284 255 255 255
-4699.3032 -1519.0819 -8.3679199 255 255 255
3912.4963 1400.6887 4.3268495 255 255 255
1216.036 968.05377 1.5483625 255 255 255
-2020.1908 -635.20007 -3.4120584 255 255 255
810.13617 400.60532 1.2134161 255 255 255
634.51025 280.41656 0.85044414 255 255 255
3115.427 936.92993 3.8649464 255 255 255
2163.3628 721.37225 2.1739428 255 255 255
6111.5195 3177.2798 6.764708 255 255 255
3043.5818 1775.3351 3.2434893 255 255 255
2164.9814 210.99693 1.9499984 255 255 255
1774.3024 657.68823 1.969667 255 255 255
673.59119 269.69165 0.79567611 255 255 255
6378.1143 1914.8765 6.8535538 255 255 255
1577.1552 931.79718 1.7314241 255 255 255
3592.7734 1685.7557 3.7531126 255 255 255
650.27039 337.07574 1.0423599 255 255 255
896.43811 936.61755 1.6947912 255 255 255
1225.0249 446.15848 1.321144 255 255 255
2197.3857 1413.6349 2.851964 255 255 255
2459.196 755.23016 2.3034942 255 255 255
1926.3461 1431.5282 2.3705351 255 255 255
1939.3815 682.59528 2.070473 255 255 255
646.23077 335.00967 1.0384978 255 255 255
3250.9136 1754.778 3.7698081 255 255 255
7912.5562 2824.0955 8.82479 255 255 255
1107.9546 305.2684 1.7198695 255 255 255
6186.25 3119.7209 6.7547264 255 255 255
780.2467 391.10974 1.1820171 255 255 255
3860.217 86.385704 4.6343045 255 255 255
6318.4268 3712.1602 8.4593678 255 255 255
637.08154 491.66104 0.79912901 255 255 255
421.957 347.28491 0.43663457 255 255 255
963.12958 671.34033 0.96875024 255 255 255
2003.1996 613.97803 1.8555261 255 255 255
2557.4392 1166.0104 2.5238998 255 255 255
-1491.6309 -559.48328 -2.5687501 255 255 255
-5329.6367 -2065.3555 -11.654595 255 255 255
843.52069 562.8313 1.0030493 255 255 255
1408.7349 576.0376 1.7356887 255 255 255
827.3996 236.43513 1.4085976 255 255 255
11407.51 4736.812 11.940404 255 255 255
1941.3199 686.86615 2.0633819 255 255 255
1704.1357 644.3938 1.92765 255 255 255
468.32391 384.24167 0.59819186 255 255 255
944.8689 449.34467 1.344192 255 255 255
1131.793 267.8063 1.8124949 255 255 255
908.37201 437.64612 1.3082399 255 255 255
3216.1023 29.476261 4.8563342 255 255 255
1541.229 1250.0664 1.8497646 255 255 255
-2508.7803 -668.47119 -4.0638633 255 255 255
-1694.347 -469.73349 -2.8064306 255 255 255
857.4704 583.21057 1.0245775 255 255 255
2033.5648 702.02869 2.1104412 255 255 255
8950.5957 4333.2642 13.438644 255 255 255
5122.8076 1766.9961 5.4840412 255 255 255
-1357.9126 -375.75797 -2.5622137 255 255 255
878.73877 426.80414 1.2807223 255 255 255
6379.3657 2673.094 6.9661255 255 255 255
345.43469 360.4281 0.49027374 255 255 255
2075.8657 829.82263 3.529963 255 255 255
-35595.418 -16393.641 -49.224354 255 255 255
619.59326 324.7251 1.0077612 255 255 255
1863.8235 441.0318 2.3593068 255 255 255
842.89771 412.49451 1.2469083 255 255 255
2121.1392 924.06244 2.8039997 255 255 255
-3730.3218 -1098.7 -4.7718778 255 255 255
-275.21655 -162.42201 -1.3947837 255 255 255
-3685.6523 -2241.8337 -5.5810847 255 255 255
2460.0132 753.83118 2.3054044 255 255 255
1150.9872 511.44611 1.529156 255 255 255
-2153.2109 -262.36267 -3.4712954 255 255 255
-1217.4486 -503.13626 -2.5170021 255 255 255
2437.6211 2105.9014 3.3873465 255 255 255
1758.9484 426.58884 2.2814288 255 255 255
1656.0494 631.09906 1.902795 255 255 255
1887.9969 675.13739 2.0392802 255 255 255
-2936.7661 -432.25851 -4.419733 255 255 255
2544.3042 767.83569 2.3325601 255 255 255
2578.7224 771.72229 2.3419363 255 255 255
1077.0917 692.92322 1.348634 255 255 255
560.17664 380.90842 0.56855357 255 255 255
59928.891 33622.086 80.277573 255 255 255
1189.6061 526.89594 1.5561101 255 255 255
1757.4714 651.55048 1.9642375 255 255 255
-3231.0532 -1553.3124 -5.3972812 255 255 255
1183.5934 525.37793 1.5513469 255 255 255
827.57733 612.85425 1.14473 255 255 255
7781.7754 4135.0088 9.7753201 255 255 255
1811.3206 661.62976 1.9947231 255 255 255
8532.6016 5097.9531 10.734868 255 255 255
-7340.4653 -2153.6562 -9.3949308 255 255 255
866.64062 494.83118 1.1125088 255 255 255
1659.5647 806.35028 1.8639328 255 255 255
-129.96341 206.15701 -0.3509163 255 255 255
801.57758 581.552 1.0457706 255 255 255
1858.3036 673.28583 2.0166943 255 255 255
1422.7122 579.90979 1.7432967 255 255 255
4322.1865 2436.5164 4.8814559 255 255 255
4348.2729 2129.1138 7.5101819 255 255 255
999.70154 220.96149 1.7064353 255 255 255
1348.1915 567.89459 1.6822791 255 255 255
1322.5483 561.86108 1.6637864 255 255 255
11518.091 6588.2407 14.555232 255 255 255
-1761.1005 -841.7655 -3.2376029 255 255 255
1450.6222 591.63531 1.7601043 255 255 255
-863.85876 -198.75375 -1.9504467 255 255 255
1574.4255 616.83466 1.8469621 255 255 255
-10324.78 -4943.7163 -12.477802 255 255 255
-2633.2988 -759.45996 -4.3886323 255 255 255
-3346.5269 -1020.7527 -6.0521832 255 255 255
-2086.9697 -718.48694 -3.265178 255 255 255
1565.5277 913.58429 1.629323 255 255 255
-342.37894 -200.92758 -1.7167754 255 255 255
2768.6479 443.24847 3.0097673 255 255 255
1482.7743 779.39282 1.6038063 255 255 255
-8874.6367 -3650.3052 -16.824123 255 255 255
2917.5454 928.93866 2.8461936 255 255 255
5668.7827 2772.4783 7.0130734 255 255 255
439.11374 235.96214 0.78499842 255 255 255
-3033.8413 -873.85339 -3.9812715 255 255 255
1380.9531 575.55457 1.7076782 255 255 255
5227.5908 1670.1656 5.2008119 255 255 255
1258.5391 726.72815 1.3691242 255 255 255
768.28479 384.47736 1.1712993 255 255 255
18310.693 4766.1021 27.179079 255 255 255
474.09628 251.54697 0.83153427 255 255 255
2309.532 1481.1709 2.8226886 255 255 255
1439.3149 311.47568 2.1387744 255 255 255
452.76169 344.09396 0.52213836 255 255 255
1072.7939 493.47119 1.4570897 255 255 255
1927.3954 684.974 2.0558381 255 255 255
1937.4695 686.63989 2.0603857 255 255 255
716.32953 363.61819 1.1170905 255 255 255
-22322.066 -14963.27 -32.377689 255 255 255
1813.3834 660.80988 1.9981068 255 255 255
1760.8608 849.27307 2.8408802 255 255 255
4965.5713 1525.6631 7.3875179 255 255 255
-1551.5671 -511.59253 -2.8917286 255 255 255
1412.7742 369.49872 2.0077009 255 255 255
2941.6851 1766.2986 3.6011291 255 255 255
20274.771 5754.2695 25.281418 255 255 255
1415.6614 583.86969 1.7339431 255 255 255
5569.7007 1493.991 6.3144994 255 255 255
921.6214 440.5033 1.3224317 255 255 255
-19108.396 -6767.6567 -31.098232 255 255 255
6768.1958 3882.3708 12.069301 255 255 255
723.68121 368.96045 1.122256 255 255 255
-273.73129 -190.52654 -1.4141568 255 255 255
10901.862 4667.8066 9.9352865 255 255 255
-6086.7017 -2174.363 -9.8996172 255 255 255
14513.675 9752.2422 24.167376 255 255 255
1233.494 932.88171 2.0118115 255 255 255
1172.7024 516.65198 1.5492268 255 255 255
450.7724 244.69395 0.79858989 255 255 255
1387.6974 337.01147 2.0257659 255 255 255
1333.7811 247.24023 1.8715701 255 255 255
1199.8068 522.2005 1.5734689 255 255 255
3245.3911 1683.0544 3.5955632 255 255 255
1005.0662 470.0441 1.3992162 255 255 255
1787.7059 431.61856 2.3020639 255 255 255
-3920.3943 -637.2652 -6.4134097 255 255 255
1110.4375 708.17078 1.3710886 255 255 255
-30744.086 -7289.9556 -48.022335 255 255 255
520.76514 451.5004 0.63231289 255 255 255
1760.3291 654.35626 1.9621222 255 255 255
5120.7715 3080.707 7.3122811 255 255 255
2596.6321 1761.1812 3.827728 255 255 255
1151.8967 827.00122 1.8615229 255 255 255
684.7854 622.8313 1.2643918 255 255 255
2632.4856 777.21729 4.5765581 255 255 255
1522.0775 607.85156 1.8090888 255 255 255
3792.3977 2726.2148 4.6153893 255 255 255
1512.5468 606.00085 1.8029673 255 255 255
642.63782 457.44214 0.72664446 255 255 255
-4239.4082 -2931.5503 -10.929821 255 255 255
2183.9067 485.3313 2.5479944 255 255 255
1352.2668 562.96356 1.6924621 255 255 255
1402.5419 366.25101 1.9998506 255 255 255
869.19836 424.79691 1.2703831 255 255 255
4415.8359 2575.5881 5.5694494 255 255 255
2100.0459 414.10287 2.6163847 255 255 255
1592.0104 861.69586 1.6745297 255 255 255
1650.7 709.26154 3.004539 255 255 255
438.87979 148.15654 0.43409613 255 255 255
2257.4019 1047.8164 2.533323 255 255 255
7722.7681 3733.856 14.467325 255 255 255
1601.2679 1082.8447 1.6170577 255 255 255
987.617 467.43579 1.3799195 255 255 255
873.40399 562.79602 0.96828562 255 255 255
2048.9976 701.72589 2.1217644 255 255 255
7008.062 2654.7502 11.626258 255 255 255
340.64133 242.41756 0.39970157 255 255 255
2203.2439 381.14108 2.3326924 255 255 255
810.12903 492.69797 0.92735058 255 255 255
1515.7589 602.96649 1.8080835 255 255 255
5385.8198 3087.1267 6.6211767 255 255 255
1870.5537 670.31152 2.0313694 255 255 255
1216.6924 629.00391 1.1345445 255 255 255
3550.3535 47.10928 4.8551283 255 255 255
991.86523 257.70416 1.6274577 255 255 255
9929.9033 3809.3179 11.839145 255 255 255
1736.2988 645.63531 1.954463 255 255 255
-1404.5009 -575.81354 -2.6279416 255 255 255
1812.1102 431.48236 2.3234107 255 255 255
-6034.7925 -1540.8909 -7.4647021 255 255 255
8928.501 4836.6294 12.758956 255 255 255
-622.23511 -683.05096 -2.1674187 255 255 255
974.96722 462.82452 1.3689488 255 255 255
1392.5302 571.74548 1.724736 255 255 255
1296.9663 1183.4391 2.1978273 255 255 255
2543.7244 735.89423 4.2996068 255 255 255
-2711.2983 -867.92242 -4.1823411 255 255 255
3304.9592 1161.5974 5.5653372 255 255 255
737.23364 374.61624 1.1371891 255 255 255
730.82867 372.07214 1.1295855 255 255 255
-1595.6425 -534.10315 -2.8913183 255 255 255
-582.43164 -141.90767 -1.6031866 255 255 255
-2340.5613 -1580.9104 -3.9962521 255 255 255
869.11902 418.43469 1.2761617 255 255 255
1489.7645 384.43707 2.0702202 255 255 255
-30778.219 -21117.865 -47.566441 255 255 255
-1197.7882 -400.84131 -2.2296829 255 255 255
-1504.8916 -525.99518 -2.5069728 255 255 255
4087.79 2255.8657 4.2043805 255 255 255
2413.9807 1112.2272 3.341069 255 255 255
4008.0654 1550.3734 3.935981 255 255 255
-98.776108 255.16316 -0.37510401 255 255 255
1228.2726 730.67871 1.2195429 255 255 255
791.35931 394.24323 1.1935127 255 255 255
2192.4697 725.78741 2.1865485 255 255 255
3216.1533 2258.324 4.9840384 255 255 255
935.10992 447.00195 1.3348485 255 255 255
2755.9482 787.55939 4.1016841 255 255 255
4808.376 1290.6013 7.0617571 255 255 255
-2328.0596 -807.09216 -3.4407899 255 255 255
469.14328 490.48291 0.66340989 255 255 255
479.14551 390.23746 0.64377582 255 255 255
3948.2678 57.897736 4.7558675 255 255 255
1043.3824 614.78485 1.1703248 255 255 255
1515.4221 518.57324 2.0184555 255 255 255
1052.3496 773.01709 1.3020681 255 255 255
-1928.6602 -698.11072 -3.920135 255 255 255
1236.9243 536.34607 1.5983796 255 255 255
2140.1926 748.87482 3.5278938 255 255 255
429.54562 233.09912 0.77038121 255 255 255
1336.9916 311.7804 1.4390404 255 255 255
5506.8716 1486.1981 5.8363452 255 255 255
-2997.5259 -1080.371 -4.822618 255 255 255
1015.3145 476.24973 1.4044052 255 255 255
2075.1143 1013.5656 1.8806412 255 255 255
1826.8488 1059.3826 3.4753752 255 255 255
809.38739 403.48862 1.211105 255 255 255
-2095.1414 -586.24072 -3.3407865 255 255 255
-3629.9675 -1191.6648 -5.4363608 255 255 255
-162.34268 211.84874 -0.55385363 255 255 255
498.6456 147.80952 0.59556329 255 255 255
2697.0928 503.12823 2.8241205 255 255 255
-8694.2334 -2752.8904 -14.362556 255 255 255
2794.0273 1711.8245 3.1089723 255 255 255
-937.86121 -263.99277 -1.937368 255 255 255
-2016.804 -442.12515 -3.1804204 255 255 255
553.53186 288.16336 0.87167919 255 255 255
691.61469 460.60074 1.0711712 255 255 255
2869.5354 796.13275 2.4370592 255 255 255
20427.17 5601.144 23.429167 255 255 255
97512.336 68662.586 178.54056 255 255 255
1627.9531 629.27179 1.8794014 255 255 255
1573.0127 862.91858 1.6599419 255 255 255
1819.6993 364.42496 1.9548914 255 255 255
1106.4016 704.78253 1.3691431 255 255 255
7680.8911 4342.9644 9.0984621 255 255 255
2784.9634 1163.8296 5.3038993 255 255 255
-1074.4246 -288.86234 -2.154942 255 255 255
2301.6653 737.271 2.2400537 255 255 255
1125.6896 388.21234 1.5354099 255 255 255
2855.5564 980.04565 2.9931529 255 255 255
2061.6309 1209.8085 2.3445415 255 255 255
-1135.3557 -566.25647 -2.4689732 255 255 255
727.14374 644.07544 1.0486903 255 255 255
2380.4438 463.33423 2.7227666 255 255 255
1215.6708 286.27524 1.5828146 255 255 255
2143.418 713.2818 2.171366 255 255 255
8790.3467 3321.1843 8.6876326 255 255 255
1365.0052 327.16174 2.0155156 255 255 255
1298.8667 775.07465 1.5005879 255 255 255
938.19373 450.59698 1.3349886 255 255 255
3843.3057 1573.2875 6.0492868 255 255 255
-26531.512 -4770.0713 -59.95084 255 255 255
2588.9343 1788.7863 3.2463408 255 255 255
1353.1633 862.27032 1.5464671 255 255 255
330.51651 -0.054520354 0.58444601 255 255 255
-16554.992 -5625.1152 -21.974573 255 255 255
1225.8799 528.10736 1.5952106 255 255 255
2544.7991 3064.374 3.9317763 255 255 255
-611.04791 -212.98268 -1.7452286 255 255 255
1887.1011 1272.2247 2.1129394 255 255 255
-172.63286 258.89056 -0.56181252 255 255 255
578.26733 402.23596 0.60985875 255 255 255
6704.0225 3114.0217 10.356593 255 255 255
751.23199 380.38306 1.15098 255 255 255
-2092.667 -597.0929 -4.0128856 255 255 255
-1218.4335 -473.90805 -2.4470997 255 255 255
-5765.6606 -1589.1202 -9.3555956 255 255 255
8072.4414 2440.0693 10.137691 255 255 255
-15642.771 -4961.9893 -23.291718 255 255 255
-5359.2334 -1656.0216 -9.6579618 255 255 255
-187.1817 339.81747 -0.41992739 255 255 255
1724.509 806.92267 1.8581922 255 255 255
2037.0444 431.52975 2.5262582 255 255 255
2982.3413 1413.2521 3.3766446 255 255 255
2045.4083 935.30597 1.915179 255 255 255
1486.6051 432.17783 1.8339767 255 255 255
-4911.6938 -2934.2893 -9.2975874 255 255 255
913.03833 544.26178 0.81858349 255 255 255
657.27386 598.29388 0.92826033 255 255 255
-1992.8718 -650.05225 -3.8443079 255 255 255
470.79938 249.56084 0.8276993 255 255 255
-4071.3311 -1096.7913 -6.1819382 255 255 255
-1299.8314 -478.51099 -2.480756 255 255 255
823.74591 444.76224 1.2012693 255 255 255
13471.222 4341.585 20.867765 255 255 255
2271.6453 1358.3854 2.2778151 255 255 255
-462.2869 -193.215 -1.6207494 255 255 255
4918.5771 2706.8291 5.9869704 255 255 255
1229.0336 633.4859 1.5732142 255 255 255
1133.5958 770.77124 1.3668033 255 255 255
3309.6494 1280.6031 4.0581059 255 255 255
2248.189 975.64612 3.1905613 255 255 255
-16576.012 -10790.945 -22.455088 255 255 255
2776.8801 1201.2217 2.5085254 255 255 255
681.51562 9.1786623 0.7812025 255 255 255
2613.9656 1426.7472 3.0133207 255 255 255
1472.7405 860.80798 1.7035643 255 255 255
1062.0391 688.43207 1.3880569 255 255 255
5202.1768 3157.7925 6.0594783 255 255 255
383.36206 423.22827 0.70999622 255 255 255
-2929.8237 -3195.0242 -6.4458981 255 255 255
2458.6838 758.68762 2.3007591 255 255 255
1058.4025 544.16138 1.7372491 255 255 255
2863.8132 1149.7296 4.425807 255 255 255
392.67023 410.81973 0.54604572 255 255 255
2111.2009 711.78119 2.1515138 255 255 255
3462.8718 944.16229 3.0655534 255 255 255
2014.1079 925.69678 1.9027412 255 255 255
458.02911 481.62228 0.7662102 255 255 255
2555.6304 763.53619 2.3427603 255 255 255
-3635.6936 -775.05957 -4.8986702 255 255 255
14250.833 8089.0669 17.076448 255 255 255
1790.5815 677.91284 1.9045887 255 255 255
-763.9458 -221.66115 -1.8307871 255 255 255
3463.3767 1817.5537 3.6364019 255 255 255
982.6709 455.49139 1.3856465 255 255 255
-2051.9211 -333.92093 -3.0054901 255 255 255
983.0675 162.0883 1.3904852 255 255 255
1830.2656 826.74658 2.0046623 255 255 255
2202.4131 484.00412 2.5670416 255 255 255
224553.66 54022.086 270.88406 255 255 255
-1546.6436 -361.33136 -2.7373466 255 255 255
1164.1951 840.00055 1.4480096 255 255 255
1821.9429 666.34998 1.9974399 255 255 255
652.3252 508.06644 0.7711637 255 255 255
8955.167 6265.23 12.686601 255 255 255
656.18109 466.95627 0.822429 255 255 255
50985.234 23730.326 51.40374 255 255 255
3442.3384 615.45532 3.44168 255 255 255
-2446.3521 -6081.4346 -15.060055 255 255 255
-3831.8088 -1514.4271 -4.9358592 255 255 255
-860.65027 -277.7572 -1.8474061 255 255 255
1273.1157 854.0517 2.1272001 255 255 255
3380.2864 2013.0054 3.5673842 255 255 255
-994.09827 -387.5632 -2.1894598 255 255 255
724.34528 471.83224 0.82928121 255 255 255
871.22723 657.93506 1.5319563 255 255 255
2968.6555 793.4823 2.4787374 255 255 255
1310.9417 552.33948 1.6609008 255 255 255
13372.901 3763.6838 21.177061 255 255 255
1009.5927 1317.6201 1.5479761 255 255 255
796.42432 394.38956 1.2014787 255 255 255
4314.3564 2780.4341 5.1373544 255 255 255
1566.4802 491.59427 1.4615009 255 255 255
4303.4351 1942.8284 4.5823197 255 255 255
-278.42676 -134.73651 -1.3006084 255 255 255
1813.754 961.61792 1.8664975 255 255 255
-1767.1293 -1249.8336 -3.4314947 255 255 255
-2082.1663 -714.86206 -4.1898756 255 255 255
3039.2749 2194.3147 3.9571688 255 255 255
-1287.3314 -658.33929 -2.8067112 255 255 255
-8375.752 -2901.0486 -14.261537 255 255 255
-2492.2795 -569.336 -4.1651835 255 255 255
8609.8574 5407.2383 9.8631487 255 255 255
-2203.4788 -1757.3887 -4.8544922 255 255 255
3892.7893 1112.3357 6.6454592 255 255 255
2944.6135 2046.0972 4.3120174 255 255 255
1220.1151 734.73065 1.4541287 255 255 255
-1079.2325 -368.55621 -2.3618588 255 255 255
-10219.725 -6878.083 -14.322352 255 255 255
4919.3696 2605.2197 5.5128226 255 255 255
4159.396 1283.9274 4.9349294 255 255 255
103042.99 71413.688 136.6445 255 255 255
-1943.0848 -1405.9873 -3.8240342 255 255 255
-2639.9365 19.926565 -4.2310596 255 255 255
1670.9011 636.06976 1.9107766 255 255 255
2690.2756 781.72321 2.3789172 255 255 255
657.24976 340.23294 1.0512372 255 255 255
1478.3679 907.22577 1.6624149 255 255 255
-64451.113 -32684.221 -74.988541 255 255 255
806.74347 402.59814 1.20839 255 255 255
1754.8961 742.53394 2.1118813 255 255 255
794.03131 397.42841 1.1952772 255 255 255
284.55557 -14.806036 0.53368372 255 255 255
-5987.8281 -2325.7937 -11.068692 255 255 255
1412.5454 660.96844 1.4968516 255 255 255
-1645.6511 -468.8136 -2.9764638 255 255 255
2578.7996 1698.2555 3.1546357 255 255 255
5655.9043 7292.7974 11.689018 255 255 255
457.88565 474.59848 0.60914618 255 255 255
-886.42212 -207.70996 -1.9272505 255 255 255
1033.754 756.4054 1.2910742 255 255 255
-11735.372 -12833.774 -25.048313 255 255 255
-10165.456 -3324.157 -17.657354 255 255 255
3235.9067 1740.5105 3.4088635 255 255 255
1141.916 779.04065 1.2344356 255 255 255
-2861.8518 -3236.1731 -6.4024038 255 255 255
1485.7023 827.33954 1.6167024 255 255 255
-965.26208 -1198.9592 -3.801445 255 255 255
525.37524 492.78955 0.62073898 255 255 255
-1614.4395 -580.28278 -3.6240134 255 255 255
507.90427 161.91948 0.55899411 255 255 255
-4913.6709 -1163.3639 -6.4035378 255 255 255
-1642.9741 -642.98859 -3.2069299 255 255 255
2200.8616 433.07648 2.6548467 255 255 255
683.64514 640.98706 0.87127352 255 255 255
1962.4121 1256.0781 2.1928296 255 255 255
833.86292 323.34262 0.93854296 255 255 255
687.6723 546.32166 0.87240928 255 255 255
650.52179 357.79282 0.62725365 255 255 255
-1156.908 -274.47287 -2.414746 255 255 255
16035.053 11435.614 20.639252 255 255 255
1863.7373 972.35767 2.0223808 255 255 255
-2846.6682 -935.26129 -4.529839 255 255 255
2136.3201 717.3125 2.1598551 255 255 255
784.1416 332.53876 0.88612336 255 255 255
2016.7942 1718.3688 3.6212909 255 255 255
4088.2092 1533.5312 4.7937207 255 255 255
-1285.5131 -246.90573 -2.1319489 255 255 255
7098.4873 4370.1206 9.6466341 255 255 255
6589.6016 3117.9236 8.3626165 255 255 255
2447.2898 1446.673 2.5363331 255 255 255
-18246.402 -3222.5168 -21.27602 255 255 255
-1501.3179 -391.10849 -2.7223914 255 255 255
3459.9355 2366.5459 8.9448652 255 255 255
-14021.737 -1588.6707 -23.938639 255 255 255
-32607.111 -17973.918 -38.385834 255 255 255
1892.6484 426.78058 2.4084387 255 255 255
9217.6562 6851.6631 12.167663 255 255 255
1505.2092 667.66669 1.770349 255 255 255
378.90775 126.2353 0.53771722 255 255 255
9268.4355 1654.3025 9.4939013 255 255 255
-859.47406 -329.22595 -2.1601441 255 255 255
-1758.3301 -320.03607 -2.7139614 255 255 255
709.31226 737.85095 1.3411851 255 255 255
2136.6187 717.21832 2.1601305 255 255 255
1411.8081 370.01437 2.0051663 255 255 255
-4180.2798 -2945.8301 -7.4742599 255 255 255
4828.1499 1637.0745 5.0670738 255 255 255
2912.876 543.90051 2.8423078 255 255 255
-1638.5776 -627.93152 -3.403933 255 255 255
1196.241 720.61548 1.4384331 255 255 255
3300.397 1199.921 4.7466097 255 255 255
1108.1163 503.32251 1.4881606 255 255 255
1191.1158 527.49609 1.5582155 255 255 255
645.90894 335.04733 1.0380597 255 255 255
2608.1125 428.56677 2.9526937 255 255 255
1166.8207 765.15027 1.3964071 255 255 255
1546.1627 993.67242 1.7445463 255 255 255
2789.6667 443.51105 3.017297 255 255 255
-5322.3359 -1792.3903 -10.015549 255 255 255
451.10281 244.84148 0.79926509 255 255 255
1358.5823 566.94006 1.6940949 255 255 255
34794.672 8373.002 39.981747 255 255 255
494.32645 371.13422 0.66066706 255 255 255
11734.13 2471.9724 14.822869 255 255 255
3232.0085 1751.9196 5.4736948 255 255 255
3379.3611 2012.2544 3.8122947 255 255 255
-2022.2111 -578.62939 -3.432585 255 255 255
1313.546 473.33569 1.6546117 255 255 255
779.96332 610.83905 0.92845315 255 255 255
1188.8999 737.21637 1.4262109 255 255 255
3533.6821 2040.2936 3.9485924 255 255 255
1450.0853 591.19678 1.7596958 255 255 255
836.56769 603.92627 1.0809247 255 255 255
1185.9719 522.36078 1.5578235 255 255 255
2300.2974 1400.0725 2.6380606 255 255 255
477.84787 367.69031 0.55404937 255 255 255
728.84802 645.75922 1.0512545 255 255 255
1711.5414 644.8075 1.9346532 255 255 255
2397.5457 2055.0007 3.2419233 255 255 255
-1744.1201 -464.36621 -3.8943577 255 255 255
-298.17725 -94.69371 -1.4051514 255 255 255
1036.7166 480.34625 1.4275428 255 255 255
3167.239 2076.5583 3.6882138 255 255 255
6943.0732 4877.8643 9.1678438 255 255 255
3960.3408 2249.0537 4.655695 255 255 255
1471.0828 951.69794 1.8128852 255 255 255
2873.1641 791.03979 2.4456131 255 255 255
2238.6072 415.48819 2.7266021 255 255 255
-1447.9573 -507.91748 -3.0218694 255 255 255
608.35962 352.22229 0.61619079 255 255 255
799.2254 721.40546 1.0776612 255 255 255
20515.4 4928.582 30.7932 255 255 255
1900.3456 676.18011 2.0421844 255 255 255
-3624.0374 -890.96741 -5.9070883 255 255 255
5515.0186 1940.9609 6.0143094 255 255 255
1587.4222 621.54462 1.853667 255 255 255
681.34601 349.62741 1.077579 255 255 255
715.04114 363.03708 1.115181 255 255 255
1018.4652 674.34998 1.1832982 255 255 255
-47180.688 -16981.852 -54.223942 255 255 255
-2060.1099 -577.4726 -3.2976277 255 255 255
730.09302 404.25516 1.0391378 255 255 255
7808.4468 4347.7759 8.6868391 255 255 255
-1741.5197 -647.44037 -2.9313786 255 255 255
-4997.7935 -2045.8405 -9.302124 255 255 255
-3048.0229 -811.86346 -6.3942108 255 255 255
1474.3 831.14874 1.6073281 255 255 255
650.38226 336.9176 1.0428921 255 255 255
3549.6284 1828.0056 3.8672154 255 255 255
733.82898 372.00009 1.1342697 255 255 255
6771.04 3319.6794 10.365187 255 255 255
5064.7388 3417.5603 7.5559998 255 255 255
1817.1251 1383.7247 2.176841 255 255 255
1109.8508 807.58807 1.3394015 255 255 255
423.03455 142.0737 0.43199179 255 255 255
1056.8739 720.76337 1.2598627 255 255 255
-1529.6106 -392.29816 -2.5660801 255 255 255
1193.892 727.47498 1.4352118 255 255 255
1761.3628 654.99292 1.9635534 255 255 255
-2050.001 -332.91095 -3.0037923 255 255 255
-3143.0396 -2008.6307 -5.7837954 255 255 255
2198.1455 725.72906 2.1894915 255 255 255
17716.961 6422.3701 17.802544 255 255 255
1043.6207 484.30496 1.4314793 255 255 255
650.06598 565.93036 0.87825561 255 255 255
3420.2542 2034.8771 3.7406893 255 255 255
999.55042 220.78918 1.7061189 255 255 255
1001.9576 467.78561 1.3970581 255 255 255
975.54333 463.29291 1.3699095 255 255 255
1718.6659 1121.5574 2.2140982 255 255 255
1574.1818 616.54651 1.8473567 255 255 255
-883.0542 -541.51117 -2.7684968 255 255 255
-1117.606 -297.02792 -2.4184136 255 255 255
-2684.231 -351.15616 -4.9774122 255 255 255
-8646.2578 -9870.8682 -19.55143 255 255 255
2530.655 1240.7057 2.5698118 255 255 255
140061.53 52573.895 165.4017 255 255 255
3849.0049 86.399124 4.6200013 255 255 255
736.06842 373.88248 1.1351209 255 255 255
-271.32428 -229.06427 -1.444381 255 255 255
-1770.6392 -478.095 -3.0461895 255 255 255
1074.6517 807.54108 1.3129319 255 255 255
10628.591 6574.8574 14.579443 255 255 255
2517.6394 513.5636 2.7175157 255 255 255
-288.64896 -169.65646 -1.4465626 255 255 255
18677.588 7513.3091 18.596857 255 255 255
929.77814 315.17694 0.95772088 255 255 255
2119.5544 553.39954 3.8679655 255 255 255
594.1441 379.71695 0.5843668 255 255 255
-1101.5316 -274.67258 -2.2785025 255 255 255
780.9704 391.2019 1.1830236 255 255 255
1987.7621 374.08917 2.6180823 255 255 255
1574.2336 863.59338 1.661378 255 255 255
2779.5151 726.54437 4.2668586 255 255 255
1561.8727 911.60022 1.626298 255 255 255
-86017.422 -42210.738 -137.13635 255 255 255
1187.4209 799.19226 1.40038 255 255 255
4748.2969 1214.7998 6.2140827 255 255 255
3440.8474 2174.1736 3.7526684 255 255 255
-8054.2661 -1781.9592 -8.9453611 255 255 255
959.10065 410.59137 0.98435068 255 255 255
-730.33289 -656.98981 -2.2713964 255 255 255
2696.0747 497.07208 2.834255 255 255 255
179589.84 114909.39 286.30594 255 255 255
-479.36444 -609.21887 -1.8837583 255 255 255
5304.9785 3709.3562 6.9625287 255 255 255
1831.4286 396.4472 2.3873789 255 255 255
1063.8127 668.21204 1.2029749 255 255 255
1093.701 497.13828 1.4779888 255 255 255
2536.6643 733.07458 4.3254867 255 255 255
1203.7546 585.4566 1.336517 255 255 255
1012.7982 432.10043 1.8546702 255 255 255
12847.523 4008.7764 17.087191 255 255 255
5734.6963 1102.6644 5.0815549 255 255 255
-2811.0974 -679.20599 -3.9651909 255 255 255
-277.23413 -156.50397 -1.3984317 255 255 255
3423.6414 1685.7833 5.1870308 255 255 255
1251.7064 539.0213 1.6122979 255 255 255
647.62091 464.81537 0.75313932 255 255 255
14924.378 3357.5049 20.998119 255 255 255
4079.8848 790.09589 4.4567399 255 255 255
2246.5439 413.79761 2.7389538 255 255 255
538.28809 244.47867 0.74496222 255 255 255
2750.6738 780.04956 2.4099088 255 255 255
1077.2902 692.98755 1.3490449 255 255 255
2181.1465 485.16568 2.544584 255 255 255
813.13324 498.68738 0.76391184 255 255 255
4889.4961 1991.2528 6.1126189 255 255 255
92342.586 22340.859 89.825081 255 255 255
2090.6633 955.1449 1.9267702 255 255 255
-1079.4397 -457.73367 -2.3072493 255 255 255
2360.9597 480.96704 2.677892 255 255 255
3362.5991 1187.7517 3.6475248 255 255 255
4662.5586 1870.7528 5.7469673 255 255 255
3174.6687 1742.8539 3.9853768 255 255 255
990.08417 257.65634 1.6243117 255 255 255
1407.4001 581.51605 1.7276806 255 255 255
1254.0201 337.2403 1.8630346 255 255 255
3482.2458 1886.7032 4.3282914 255 255 255
846.35431 383.72641 1.0408078 255 255 255
3325.6758 1063.3386 3.2713077 255 255 255
-560.66681 -139.78195 -1.5456471 255 255 255
-1253.8639 -436.06631 -2.5936611 255 255 255
-192.41624 240.18253 -0.64274347 255 255 255
15018.892 7984.0361 15.998381 255 255 255
3654.3545 1385.6372 5.375114 255 255 255
-1810.1123 -450.92126 -2.8334277 255 255 255
1434.7793 587.78302 1.7476225 255 255 255
-3148.1206 -927.17487 -4.5534606 255 255 255
76100.242 41250 173.11467 255 255 255
344.03464 229.22353 0.41643173 255 255 255
1454.5336 592.28241 1.7620648 255 255 255
4276.2148 1989.0789 4.3931851 255 255 255
1789.9095 658.01978 1.9828726 255 255 255
-2150363.2 -660392.5 -2158.3794 255 255 255
4351.9365 2151.3635 6.2642546 255 255 255
-1479.4811 -580.73621 -2.6846123 255 255 255
1209.7743 532.48718 1.5732437 255 255 255
-565.60559 -601.31 -1.9748744 255 255 255
1716.1599 646.50134 1.9358208 255 255 255
960.95471 710.86194 1.2717332 255 255 255
1495.7627 797.54407 2.4786417 255 255 255
-299.1983 -112.90149 -1.3683293 255 255 255
-2096.1069 -2172.2058 -4.4381061 255 255 255
1515.5763 602.91229 1.8075124 255 255 255
2186.5396 1456.6011 2.6219218 255 255 255
1536.6309 607.26385 1.8220335 255 255 255
-4571.48 -1642.339 -7.6139722 255 255 255
1160.5011 563.38904 1.6972018 255 255 255
14510.633 6304.7124 19.574064 255 255 255
3327.6123 1341.49 3.4896193 255 255 255
6320.3042 2189.6401 6.8380432 255 255 255
662.96899 519.19989 1.007013 255 255 255
-2322.6211 -675.90887 -3.9963136 255 255 255
757.74451 563.24017 1.0876796 255 255 255
1065.978 485.17953 1.4572629 255 255 255
-898.88269 -320.31799 -1.9818358 255 255 255
963.53857 415.3544 1.240606 255 255 255
-590.70325 -97.372681 -1.5721759 255 255 255
767.74664 384.19528 1.1705368 255 255 255
1736.1981 645.87354 1.9544053 255 255 255
-666.01794 -208.29419 -1.719496 255 255 255
-16858.975 -7437.5444 -20.239586 255 255 255
727.08264 652.56055 0.96576971 255 255 255
961.78766 844.39417 1.4224119 255 255 255
1668.3076 889.9812 1.7033378 255 255 255
867.74554 409.79068 1.2500265 255 255 255
2162.0723 720.53424 2.172276 255 255 255
-4488.2563 -2018.1156 -7.2726712 255 255 255
-512.78595 -665.8786 -1.9872789 255 255 255
-1885.0411 -394.25253 -3.0730956 255 255 255
2168.9902 722.20422 2.1762183 255 255 255
-1564.6312 -557.20453 -2.9490871 255 255 255
966.06573 155.5452 1.3487636 255 255 255
3156.8828 1069.5762 4.0737028 255 255 255
822.76099 464.6069 1.0319155 255 255 255
8019.4131 2997.7649 13.307599 255 255 255
5391.2495 1712.1666 5.3444295 255 255 255
1963.5964 530.04279 2.138674 255 255 255
1275.8059 431.23624 1.6978137 255 255 255
600.3252 657.71729 1.1969504 255 255 255
2314.8208 988.15686 2.0183613 255 255 255
2135.1572 482.61362 2.5169265 255 255 255
-558.38062 -640.47144 -1.9991394 255 255 255
5823.8218 3157.8008 6.1036272 255 255 255
722.00568 146.29349 0.81557298 255 255 255
26846.145 12795.043 33.130074 255 255 255
-1562.1266 -441.52515 -2.8522506 255 255 255
-1224.7184 -189.55843 -2.0887187 255 255 255
1163.4276 789.07471 1.5127916 255 255 255
-6823.8169 -2602.4534 -10.78708 255 255 255
1815.6929 432.1257 2.3279712 255 255 255
1835.9082 939.88806 1.9818715 255 255 255
2282.3577 736.68628 2.2271333 255 255 255
-2967.6116 -371.35883 -3.9299662 255 255 255
828.36664 459.61203 1.2488267 255 255 255
1387.7887 569.9408 1.7215111 255 255 255
6863.0439 2465.0068 7.6932549 255 255 255
-65006.191 -36404.059 -86.904083 255 255 255
-1761.3627 -308.60458 -2.8928878 255 255 255
6909.6353 3620.6064 6.6997561 255 255 255
-4793.8838 -1393.3574 -8.0484657 255 255 255
-4068.2041 -2287.585 -6.0861378 255 255 255
2357.998 773.92102 2.3422222 255 255 255
-6234.4043 -2115.7004 -8.6246719 255 255 255
5625.0474 2703.3933 6.5452781 255 255 255
2383.1133 1515.4918 2.6127136 255 255 255
-13797.286 -2711.918 -15.00894 255 255 255
-3651.9219 -1036.7928 -5.5068183 255 255 255
-6236.6001 -2490.5823 -10.847625 255 255 255
3554.8252 47.254791 4.8618407 255 255 255
3715.051 1157.8312 3.5702584 255 255 255
1629.6057 530.19958 1.5768949 255 255 255
-2400.3071 -840.78687 -3.7769666 255 255 255
-1320.2809 -423.23035 -2.3223941 255 255 255
3196.2351 375.23511 3.606344 255 255 255
2169.3118 718.35254 2.1775072 255 255 255
6957.8589 3903.3569 7.6398206 255 255 255
-4876.707 -2300.0981 -6.6113014 255 255 255
1001.8814 159.65242 1.1728296 255 255 255
1782.0164 653.45837 1.9843806 255 255 255
5439.0664 1712.1272 5.3738847 255 255 255
1708.3247 823.52075 1.9974575 255 255 255
1890.9359 944.34155 1.8851534 255 255 255
1249.2581 533.89429 1.6160899 255 255 255
5349.8833 1675.3339 5.8095632 255 255 255
7421.2617 2351.4336 10.587124 255 255 255
7688.9829 3775.3643 14.567602 255 255 255
1173.2928 516.33917 1.5502979 255 255 255
-2253.3931 -473.52716 -3.7035751 255 255 255
-8582.376 -5309.9619 -16.713015 255 255 255
-2436.4465 -978.06464 -5.1192055 255 255 255
2659.592 1262.303 2.5825725 255 255 255
2052.7578 378.96576 2.6507623 255 255 255
1094.5206 493.40234 1.4569066 255 255 255
1401.1249 365.47086 1.9974508 255 255 255
1700.7827 636.67035 1.9354533 255 255 255
1487.0234 590.9325 1.7953491 255 255 255
3684.6726 1511.8566 4.6192946 255 255 255
4121.2388 27.770226 4.9032326 255 255 255
1552.7467 613.64545 1.8297626 255 255 255
2241.5042 1366.5403 2.5377269 255 255 255
1701.7104 419.76309 2.2383177 255 255 255
1455.6741 588.87378 1.7671603 255 255 255
6235.1191 4406.6694 7.9791236 255 255 255
3938.8689 1111.5791 5.6338286 255 255 255
15518.609 10294.002 22.158524 255 255 255
591.44678 457.1236 0.83926356 255 255 255
1514.1432 597.07013 1.8157616 255 255 255
3015.2825 1802.6433 3.0730786 255 255 255
10027.434 5941.7881 13.725022 255 255 255
1085.7955 676.33868 1.1279321 255 255 255
147.5457 118.35054 0.2050613 255 255 255
2495.0972 957.27356 2.6777689 255 255 255
2584.1636 767.51282 2.3503094 255 255 255
2456.595 758.07544 2.298511 255 255 255
1570.2463 614.60956 1.8459229 255 255 255
717.57159 396.60223 0.79073381 255 255 255
1780.521 1033.6998 1.7296882 255 255 255
3991.6858 59.401657 4.7410851 255 255 255
1653.9327 625.99792 1.9074225 255 255 255
3695.7644 1113.746 3.4443285 255 255 255
751.20978 380.53525 1.1513582 255 255 255
1206.4431 592.685 1.3423486 255 255 255
2641.1365 1466.0923 2.8694651 255 255 255
1142.374 503.13181 1.5267836 255 255 255
1058.7769 496.2887 1.138206 255 255 255
-7033.7881 -3465.3188 -12.259669 255 255 255
2387.0134 1269.7911 2.5571907 255 255 255
3466.5352 1013.3489 6.8887453 255 255 255
6747.7422 2668.2988 11.483877 255 255 255
2330.9814 996.77112 2.022367 255 255 255
-616.98291 -790.21051 -2.4456506 255 255 255
-5571.9761 -1544.6178 -8.1400528 255 255 255
569.59106 385.89206 0.63084024 255 255 255
2539.2275 767.32672 2.328069 255 255 255
1009.4415 474.72464 1.4006681 255 255 255
337.28458 109.45064 0.47466415 255 255 255
1094.5858 700.68359 1.3619412 255 255 255
-1891.5344 -917.02844 -3.1061594 255 255 255
1482.802 779.33588 1.6037819 255 255 255
-3564.9897 -451.6095 -4.2967482 255 255 255
740.61853 552.12805 0.80484605 255 255 255
1562.5104 958.18958 2.3335187 255 255 255
-4187.7598 -993.2851 -5.4883485 255 255 255
2581.0073 772.15668 2.343822 255 255 255
-4730.5098 -1374.5975 -7.511477 255 255 255
-1876.937 -561.15833 -2.9106541 255 255 255
550.79407 533.7746 1.046526 255 255 255
687.97681 559.0976 1.019087 255 255 255
3171.0642 1654.4309 3.5882676 255 255 255
2478.2363 211.4872 4.7408576 255 255 255
670.82629 460.99661 0.70643622 255 255 255
2034.3134 431.08258 2.522553 255 255 255
-2627.0752 -716.47803 -4.8184772 255 255 255
7973.4233 3913.9727 8.4733572 255 255 255
828.15979 236.84486 1.4102412 255 255 255
7491.6509 2286.5122 7.2515111 255 255 255
-8604.9199 -4894.4468 -10.787251 255 255 255
1036.5234 733.39661 1.1620735 255 255 255
1104.2908 761.93799 1.3466815 255 255 255
-1002.9766 -400.47922 -2.1995745 255 255 255
650.52551 274.91882 0.63057256 255 255 255
1430.6251 231.82597 1.5397455 255 255 255
-6372.7173 -2194.885 -10.830438 255 255 255
1576.4318 618.48676 1.847255 255 255 255
8981.4834 2892.6855 14.304702 255 255 255
988.29437 466.91708 1.3806596 255 255 255
-3808.4197 -975.54272 -6.2144318 255 255 255
1770.3043 408.75629 2.3223286 255 255 255
907.62311 115.46465 1.0718471 255 255 255
695.71851 368.42453 0.72863305 255 255 255
2786.1968 443.8132 3.0192802 255 255 255
1920.5712 683.35535 2.0517232 255 255 255
2487.8608 510.76468 2.7025759 255 255 255
19802.143 9898.5176 24.178501 255 255 255
2195.6968 1270.1567 2.3381681 255 255 255
-391.94681 -82.562958 -1.4540436 255 255 255
584.43872 148.54776 0.57000518 255 255 255
675.55981 349.12375 1.0712695 255 255 255
4898.896 2491.5239 5.0233436 255 255 255
1405.3328 482.03656 1.4083208 255 255 255
2306.0422 1541.3005 2.6546657 255 255 255
4678.9614 2168.7131 5.9666882 255 255 255
822.50482 524.76257 0.80729163 255 255 255
-1696.1083 -366.78741 -2.8066072 255 255 255
754.08728 651.41028 1.0329043 255 255 255
3302.7615 930.3515 2.8743722 255 255 255
1869.8993 683.73065 2.0115209 255 255 255
692.71301 546.88452 1.0253222 255 255 255
-812.21204 -196.12703 -2.171351 255 255 255
-978.74951 -295.93994 -2.0308466 255 255 255
698.48779 702.5434 0.84370339 255 255 255
-2455.1089 -760.98108 -3.860559 255 255 255
-2330.019 -418.047 -3.3797481 255 255 255
675.42542 475.3125 0.87739539 255 255 255
1171.1924 811.83197 1.385586 255 255 255
803.75153 588.24524 1.1276389 255 255 255
899.16217 430.11819 1.3043327 255 255 255
2741.9734 496.12317 2.8575318 255 255 255
806.20673 598.32123 1.0417558 255 255 255
-869.59332 -656.19672 -2.3951569 255 255 255
22669.445 13313.104 29.144707 255 255 255
-580.25183 -652.75452 -2.1053264 255 255 255
4802.6597 988.68256 4.7086444 255 255 255
4938.3716 3116.9238 5.9476995 255 255 255
1133.3032 726.33032 1.3844109 255 255 255
1887.8469 1822.947 3.4654524 255 255 255
