ply
format ascii 1.0
comment PCL generated
element vertex 1082
property float x
property float y
property float z
property uchar red
property uchar green
property uchar blue
element face 0
element camera 0
property float view_px
property float view_py
property float view_pz
property float x_axisx
property float x_axisy
property float x_axisz
property float y_axisx
property float y_axisy
property float y_axisz
property float z_axisx
property float z_axisy
property float z_axisz
property float focal
property float scalex
property float scaley
property float centerx
property float centery
property int viewportx
property int viewporty
property float k1
property float k2
end_header
59.26223 75.685089 -0.70316774 255 255 255
112.1256 53.708874 -0.72150308 255 255 255
105.29218 59.578739 -0.76385534 255 255 255
83.01445 69.175194 -0.75916165 255 255 255
112.32353 55.471798 -0.74187148 255 255 255
155.71632 19.658899 -0.54924709 255 255 255
90.677177 75.613693 -0.77057946 255 255 255
105.26648 57.744411 -0.72769052 255 255 255
123.12318 56.13274 -0.75015849 255 255 255
181.16095 24.743374 -0.69759351 255 255 255
102.94021 60.989697 -0.7678951 255 255 255
82.208557 80.395592 -0.84703851 255 255 255
104.35289 67.783524 -0.81372696 255 255 255
97.052406 66.174965 -0.73309344 255 255 255
107.45911 66.703232 -0.83910954 255 255 255
120.76265 74.683487 -0.7383253 255 255 255
183.24261 27.788948 -0.63188595 255 255 255
112.48904 53.568233 -0.65455139 255 255 255
111.5751 41.32531 -0.62455368 255 255 255
139.99792 41.55024 -0.70373118 255 255 255
77.210999 102.22051 -0.81263244 255 255 255
49.134014 68.836601 -0.58551997 255 255 255
103.47751 60.897717 -0.77080113 255 255 255
105.76324 50.018562 -0.6609351 255 255 255
57.029121 104.24442 -0.80417907 255 255 255
49.205242 95.384125 -0.8186419 255 255 255
96.378365 35.932507 -0.53886116 255 255 255
78.757233 61.485558 -0.63183141 255 255 255
113.71527 72.708054 -0.78634691 255 255 255
127.46187 42.642433 -0.63480777 255 255 255
85.446632 88.760918 -0.69948405 255 255 255
66.625694 70.335434 -0.67843878 255 255 255
133.93045 49.54916 -0.74733263 255 255 255
113.49637 91.112732 -0.7326417 255 255 255
68.797821 86.546669 -0.80094594 255 255 255
81.133957 87.492813 -0.79690963 255 255 255
112.30659 61.162621 -0.79082805 255 255 255
108.6807 62.133625 -0.7049495 255 255 255
90.227745 76.362663 -0.84390074 255 255 255
108.34698 63.179264 -0.71936768 255 255 255
102.60054 56.971424 -0.69644034 255 255 255
92.002556 73.442268 -0.84009761 255 255 255
101.78693 64.82399 -0.76039839 255 255 255
87.910278 71.860474 -0.80726117 255 255 255
102.69826 56.94611 -0.69668734 255 255 255
83.595688 78.89772 -0.83956182 255 255 255
98.563782 72.782776 -0.80596322 255 255 255
133.52309 51.055786 -0.71497321 255 255 255
72.896713 96.022614 -0.80608088 255 255 255
80.095604 62.237186 -0.71139973 255 255 255
149.94899 44.760372 -0.68849176 255 255 255
176.21567 27.226442 -0.74139518 255 255 255
95.938881 66.33223 -0.77598584 255 255 255
102.94363 50.722252 -0.60033548 255 255 255
63.103313 83.810699 -0.80518746 255 255 255
49.88348 107.45388 -0.76865029 255 255 255
182.60431 23.829178 -0.57012284 255 255 255
103.2658 63.49136 -0.77406406 255 255 255
127.77861 53.946331 -0.7717312 255 255 255
104.75217 66.389175 -0.7670508 255 255 255
97.720131 64.109001 -0.78179955 255 255 255
114.65158 56.560299 -0.75189978 255 255 255
26.191862 78.458611 -0.54568511 255 255 255
67.496773 87.126953 -0.79921865 255 255 255
72.043327 68.883781 -0.71444649 255 255 255
132.74361 57.159389 -0.74600929 255 255 255
67.450462 44.098991 -0.53848934 255 255 255
76.981888 86.940681 -0.79019797 255 255 255
128.33722 58.542587 -0.74948716 255 255 255
79.361412 66.819672 -0.75856131 255 255 255
47.459446 77.420036 -0.7236771 255 255 255
82.30706 88.097313 -0.7702142 255 255 255
95.09462 74.524796 -0.72731966 255 255 255
91.139671 67.960587 -0.74670845 255 255 255
147.379 100.34686 -0.69984841 255 255 255
149.35562 51.656487 -0.7198146 255 255 255
74.537117 72.932777 -0.75613976 255 255 255
131.38802 57.063309 -0.67696363 255 255 255
105.59105 56.937164 -0.71558362 255 255 255
114.08224 56.445049 -0.69508129 255 255 255
57.611122 93.217377 -0.79103392 255 255 255
55.873619 78.580536 -0.73982722 255 255 255
138.89215 57.866718 -0.76768267 255 255 255
55.242939 66.454102 -0.64255589 255 255 255
58.538754 62.70842 -0.64259535 255 255 255
113.00896 58.750774 -0.82138479 255 255 255
137.96529 41.557858 -0.61349601 255 255 255
70.371925 103.84419 -0.81513768 255 255 255
81.059349 80.973763 -0.78599977 255 255 255
128.36301 61.125828 -0.72149509 255 255 255
81.584686 74.655426 -0.80022037 255 255 255
73.103111 76.502083 -0.7729454 255 255 255
48.941006 38.791462 -0.40135628 255 255 255
56.045864 95.006905 -0.8397705 255 255 255
47.945492 79.577713 -0.73640656 255 255 255
101.27726 50.261093 -0.58981287 255 255 255
102.69984 85.641022 -0.8135674 255 255 255
86.404907 68.343849 -0.72852296 255 255 255
93.619583 80.191872 -0.85665756 255 255 255
51.001106 87.555077 -0.77072668 255 255 255
88.777657 76.573959 -0.80884647 255 255 255
82.751381 93.464211 -0.80903423 255 255 255
91.460373 58.986351 -0.6607669 255 255 255
79.985077 69.923653 -0.6396035 255 255 255
117.56572 55.513779 -0.74956942 255 255 255
99.930862 60.155533 -0.72937262 255 255 255
64.688583 97.32856 -0.83532923 255 255 255
117.0458 60.871727 -0.75644749 255 255 255
74.446091 83.685875 -0.83433884 255 255 255
206.55873 10.313626 -0.69483423 255 255 255
70.678497 86.239258 -0.858585 255 255 255
135.26663 40.814819 -0.64113516 255 255 255
78.328819 70.350136 -0.67522758 255 255 255
55.208256 92.017761 -0.7965579 255 255 255
133.8573 56.652008 -0.80929446 255 255 255
129.94113 38.106194 -0.74725521 255 255 255
54.401096 62.186771 -0.59808117 255 255 255
149.09354 32.714752 -0.65964526 255 255 255
98.36779 56.207047 -0.65883023 255 255 255
73.442055 84.691048 -0.79820186 255 255 255
56.530426 106.32961 -0.8014819 255 255 255
95.35006 84.800613 -0.64194727 255 255 255
86.590981 72.997078 -0.81024688 255 255 255
114.25916 52.321472 -0.7457636 255 255 255
81.084595 82.243317 -0.85795695 255 255 255
88.115891 73.978462 -0.69561797 255 255 255
92.74836 62.885174 -0.72459596 255 255 255
68.713562 85.619209 -0.80365062 255 255 255
116.87424 75.066475 -0.7924121 255 255 255
100.84061 72.156364 -0.84629661 255 255 255
132.61543 42.931908 -0.66285431 255 255 255
84.192497 73.573326 -0.73739719 255 255 255
75.384415 84.397148 -0.84799367 255 255 255
104.14671 77.408409 -0.79411507 255 255 255
105.02673 48.621544 -0.6736564 255 255 255
84.180267 58.023163 -0.61405939 255 255 255
69.286163 96.041344 -0.79161108 255 255 255
65.594711 88.142464 -0.83767951 255 255 255
88.389877 45.835976 -0.55324006 255 255 255
59.752537 43.856964 -0.4023968 255 255 255
46.856842 40.807919 -0.4447259 255 255 255
105.20897 59.937084 -0.76779187 255 255 255
72.108238 88.023285 -0.821859 255 255 255
117.76574 60.505772 -0.78230315 255 255 255
72.174339 80.987488 -0.82221812 255 255 255
122.22871 62.342655 -0.81749439 255 255 255
78.21402 65.223541 -0.69644493 255 255 255
141.37677 67.176689 -0.74539393 255 255 255
64.092995 83.020958 -0.77552962 255 255 255
146.40866 58.030571 -0.7501893 255 255 255
132.03572 47.507427 -0.76387882 255 255 255
88.480644 78.800468 -0.85186195 255 255 255
103.59575 65.91877 -0.7204017 255 255 255
41.466148 94.442871 -0.79013115 255 255 255
55.889076 85.625671 -0.81232375 255 255 255
75.134048 68.64222 -0.67698759 255 255 255
81.249023 83.201378 -0.81469071 255 255 255
174.05556 35.172302 -0.74560964 255 255 255
81.873833 59.341961 -0.61998111 255 255 255
97.855957 73.127083 -0.83019572 255 255 255
67.961945 121.64549 -0.81412375 255 255 255
150.86336 53.992279 -0.75430918 255 255 255
117.75406 59.575672 -0.75593805 255 255 255
100.68827 74.923256 -0.7230655 255 255 255
82.221771 91.180939 -0.78635484 255 255 255
75.173843 68.180046 -0.70977014 255 255 255
89.609741 67.83596 -0.78415632 255 255 255
87.015137 72.167831 -0.74474561 255 255 255
66.859932 92.848244 -0.83274388 255 255 255
78.646919 58.430912 -0.67534262 255 255 255
40.836899 100.98168 -0.81593168 255 255 255
101.76142 61.697971 -0.77148438 255 255 255
47.52393 79.884827 -0.69020122 255 255 255
109.86884 63.860455 -0.77250761 255 255 255
137.84167 57.628853 -0.79475588 255 255 255
96.38192 63.680294 -0.65694046 255 255 255
77.234985 74.552834 -0.74636924 255 255 255
75.30571 77.309998 -0.75582933 255 255 255
83.040634 88.087608 -0.82276505 255 255 255
65.341019 74.281334 -0.64958411 255 255 255
103.79373 63.227955 -0.77625871 255 255 255
132.48097 64.825211 -0.78761894 255 255 255
85.900841 56.05444 -0.59729052 255 255 255
96.034645 64.389397 -0.77293628 255 255 255
108.54852 52.89114 -0.60474354 255 255 255
92.208817 53.92115 -0.66837549 255 255 255
70.879196 86.096161 -0.80532569 255 255 255
114.26377 56.22747 -0.75393754 255 255 255
102.27483 62.13768 -0.67163354 255 255 255
128.73528 52.519463 -0.61861187 255 255 255
95.15963 70.472061 -0.81588763 255 255 255
96.867302 62.498276 -0.74675405 255 255 255
113.32017 51.998188 -0.70460314 255 255 255
76.772095 85.022675 -0.84566027 255 255 255
80.569267 60.509201 -0.59712237 255 255 255
65.399872 78.759048 -0.77056623 255 255 255
75.184364 85.145851 -0.73189372 255 255 255
109.08195 67.720703 -0.82339662 255 255 255
78.12236 72.728378 -0.75066578 255 255 255
77.918449 78.940849 -0.75645429 255 255 255
67.143898 89.611031 -0.83176053 255 255 255
36.437286 88.564507 -0.71075124 255 255 255
108.39062 84.079094 -0.84447998 255 255 255
84.846016 88.843735 -0.80775017 255 255 255
111.06467 49.705387 -0.71845478 255 255 255
174.36424 28.934134 -0.6220814 255 255 255
129.31888 29.494381 -0.55416965 255 255 255
80.209839 82.457512 -0.74232179 255 255 255
125.97571 66.939285 -0.76054263 255 255 255
86.830002 80.632034 -0.86153805 255 255 255
126.21266 35.395912 -0.60477155 255 255 255
94.471291 62.266346 -0.76458633 255 255 255
138.24855 52.60413 -0.65529525 255 255 255
93.263741 53.918022 -0.60229319 255 255 255
130.49957 60.895233 -0.81480718 255 255 255
105.25902 70.205261 -0.78208512 255 255 255
100.42496 54.103138 -0.63979292 255 255 255
74.221916 91.346939 -0.76599634 255 255 255
100.5974 74.542709 -0.80926138 255 255 255
109.65231 53.746037 -0.71507382 255 255 255
74.560326 84.193321 -0.83310515 255 255 255
85.17617 63.6875 -0.63029957 255 255 255
105.69268 37.572777 -0.58133692 255 255 255
93.24408 66.508339 -0.78842306 255 255 255
99.121582 70.699226 -0.80854118 255 255 255
80.422028 80.595055 -0.77101284 255 255 255
123.65839 63.079243 -0.70781249 255 255 255
98.126717 80.932243 -0.77040273 255 255 255
97.886772 53.535583 -0.61872053 255 255 255
121.88991 31.80644 -0.50499874 255 255 255
51.255222 95.252838 -0.84006971 255 255 255
99.33036 63.224007 -0.77916384 255 255 255
124.84363 32.946995 -0.57250464 255 255 255
102.73425 64.26326 -0.80313045 255 255 255
88.823677 78.476616 -0.8010658 255 255 255
127.77497 55.242271 -0.75291568 255 255 255
53.932865 104.60659 -0.83715028 255 255 255
119.98597 58.218571 -0.74057782 255 255 255
94.402245 68.669937 -0.80482233 255 255 255
110.00672 89.664818 -0.74868643 255 255 255
45.668446 68.579124 -0.6099931 255 255 255
52.926514 77.522285 -0.69190347 255 255 255
57.475628 65.917519 -0.61916471 255 255 255
83.36248 75.847504 -0.81530041 255 255 255
137.85178 59.565941 -0.71882182 255 255 255
156.95927 49.695259 -0.67129809 255 255 255
52.332249 129.56606 -0.73710775 255 255 255
102.64265 52.561436 -0.65533417 255 255 255
47.560909 107.74472 -0.81914914 255 255 255
92.162331 69.225311 -0.76463521 255 255 255
39.734959 82.231926 -0.70892549 255 255 255
70.78286 77.735161 -0.79827577 255 255 255
85.158005 87.517944 -0.85011148 255 255 255
133.13916 60.85815 -0.66564196 255 255 255
63.173111 60.407761 -0.64228565 255 255 255
89.985733 88.732857 -0.84580106 255 255 255
103.69766 60.701874 -0.76904517 255 255 255
108.6244 69.775543 -0.8220585 255 255 255
99.779938 77.979393 -0.82604223 255 255 255
118.92706 42.648777 -0.5636307 255 255 255
90.666832 75.826782 -0.79318172 255 255 255
104.27081 57.478565 -0.71524507 255 255 255
131.01718 58.728619 -0.80369556 255 255 255
71.427521 81.068863 -0.83055431 255 255 255
59.163841 76.079369 -0.74171484 255 255 255
103.533 63.444393 -0.72536743 255 255 255
46.589851 90.756668 -0.81815886 255 255 255
93.412514 71.904114 -0.81311858 255 255 255
208.05806 37.02095 -0.71424752 255 255 255
105.53672 78.948967 -0.78016472 255 255 255
132.64256 26.891962 -0.5067516 255 255 255
32.280602 75.453468 -0.55977857 255 255 255
91.554886 72.370255 -0.69928682 255 255 255
127.89083 60.71838 -0.7638734 255 255 255
125.73292 56.589191 -0.76559877 255 255 255
125.03217 53.94133 -0.73237228 255 255 255
129.89479 63.347672 -0.76935607 255 255 255
65.705688 97.776299 -0.80967194 255 255 255
146.29066 41.242928 -0.69724858 255 255 255
98.403313 65.363708 -0.78366143 255 255 255
76.359581 86.711411 -0.81046051 255 255 255
48.154236 100.92358 -0.84488857 255 255 255
87.90757 58.301868 -0.634076 255 255 255
33.475895 52.869244 -0.40709332 255 255 255
77.491882 85.419632 -0.80144262 255 255 255
99.621765 60.14986 -0.72705877 255 255 255
109.16058 57.631321 -0.757465 255 255 255
150.25809 37.801144 -0.69447637 255 255 255
133.36018 47.900482 -0.79205751 255 255 255
77.757164 76.905266 -0.78451407 255 255 255
80.375359 77.144485 -0.82718909 255 255 255
73.252373 85.921204 -0.79819244 255 255 255
61.221577 97.335327 -0.85212165 255 255 255
113.18537 63.073032 -0.76753253 255 255 255
116.35777 65.596161 -0.75845122 255 255 255
130.1546 52.213856 -0.7371707 255 255 255
90.734825 57.459717 -0.6368413 255 255 255
121.69698 67.502792 -0.73100996 255 255 255
91.821541 67.140625 -0.76469946 255 255 255
95.17878 73.187782 -0.85223031 255 255 255
143.29372 39.678425 -0.69588405 255 255 255
105.06216 57.645908 -0.72395509 255 255 255
41.65226 107.87207 -0.78749663 255 255 255
96.083504 80.602333 -0.74262875 255 255 255
147.15918 30.536049 -0.52203006 255 255 255
74.529922 88.663033 -0.76000196 255 255 255
129.99263 52.166885 -0.70102775 255 255 255
94.300926 66.267456 -0.79248476 255 255 255
193.19121 17.445572 -0.57171267 255 255 255
83.929855 69.650375 -0.77842879 255 255 255
104.32466 84.135834 -0.81670296 255 255 255
-65.236282 113.68072 -0.82274067 255 255 255
93.498238 54.604553 -0.66432947 255 255 255
102.24372 80.382149 -0.81242102 255 255 255
84.511559 72.466118 -0.79317951 255 255 255
124.40742 60.932293 -0.78150529 255 255 255
69.961662 81.716515 -0.82317358 255 255 255
121.83978 56.217255 -0.7467739 255 255 255
81.742958 74.411514 -0.80927277 255 255 255
87.402153 71.146584 -0.76658255 255 255 255
78.821732 72.262383 -0.80382627 255 255 255
47.03986 89.584808 -0.67231804 255 255 255
65.777954 86.347656 -0.81179267 255 255 255
89.306488 80.98407 -0.78578657 255 255 255
111.84123 56.53611 -0.75953203 255 255 255
63.41098 89.52121 -0.79435718 255 255 255
119.68526 66.973793 -0.7410183 255 255 255
77.379753 86.360695 -0.82532561 255 255 255
69.335762 86.559471 -0.82751077 255 255 255
103.11311 74.685471 -0.82638407 255 255 255
127.57259 51.847149 -0.68741244 255 255 255
58.123482 90.541832 -0.80981469 255 255 255
138.1069 42.594414 -0.70920199 255 255 255
95.440727 57.02161 -0.65456682 255 255 255
87.230194 70.993324 -0.76206535 255 255 255
49.624031 92.787331 -0.82328415 255 255 255
99.380905 66.700432 -0.80105901 255 255 255
93.8946 76.415268 -0.83376831 255 255 255
88.194893 76.168663 -0.69990236 255 255 255
106.47167 69.202698 -0.74150604 255 255 255
103.75915 70.11261 -0.61483067 255 255 255
73.291328 86.304611 -0.81055242 255 255 255
83.460846 47.898785 -0.6025756 255 255 255
70.849922 73.615318 -0.74114889 255 255 255
138.77634 47.086987 -0.7369194 255 255 255
71.786766 85.65892 -0.80286694 255 255 255
71.968147 101.34859 -0.83891439 255 255 255
48.023571 94.790787 -0.80689824 255 255 255
138.35649 42.387341 -0.70695251 255 255 255
39.631584 86.264297 -0.71760273 255 255 255
120.69681 75.319679 -0.72248292 255 255 255
72.78067 88.726776 -0.74220634 255 255 255
132.0901 55.169117 -0.76673466 255 255 255
76.663795 88.671501 -0.81909585 255 255 255
116.24257 45.2631 -0.66308135 255 255 255
96.804039 58.912148 -0.67692828 255 255 255
93.242432 57.753128 -0.62850493 255 255 255
102.54784 79.270157 -0.77231807 255 255 255
82.236282 50.602894 -0.61005497 255 255 255
105.48415 73.435257 -0.84976161 255 255 255
113.60613 59.758987 -0.75761843 255 255 255
68.686951 90.230194 -0.78933483 255 255 255
95.425911 64.727852 -0.77422106 255 255 255
67.230888 85.998779 -0.77308643 255 255 255
105.9378 57.448135 -0.72752851 255 255 255
139.69809 46.138943 -0.71994787 255 255 255
112.82542 64.09272 -0.75670564 255 255 255
162.33669 60.43821 -0.80300397 255 255 255
43.553226 58.176849 -0.47824943 255 255 255
100.7426 61.899582 -0.76641697 255 255 255
109.4177 70.133415 -0.74218649 255 255 255
98.490356 74.331177 -0.8035208 255 255 255
83.637085 80.149002 -0.75599825 255 255 255
88.376785 65.583038 -0.73655355 255 255 255
40.687481 107.50764 -0.81050342 255 255 255
61.286125 55.89978 -0.60421306 255 255 255
64.579071 91.373589 -0.77258527 255 255 255
39.807648 103.44284 -0.81368566 255 255 255
220.25061 26.588125 -0.61304951 255 255 255
87.178658 49.863129 -0.60968935 255 255 255
91.671089 87.105484 -0.76364106 255 255 255
100.5153 61.007858 -0.77043939 255 255 255
116.02627 67.284683 -0.76359504 255 255 255
84.351234 91.076225 -0.81499279 255 255 255
57.615414 85.522339 -0.78952438 255 255 255
65.934242 75.397522 -0.73960942 255 255 255
110.21705 68.826813 -0.79855746 255 255 255
127.05273 68.105095 -0.78517091 255 255 255
97.570259 51.534924 -0.59045339 255 255 255
67.822906 69.204803 -0.70987892 255 255 255
79.368637 80.346565 -0.7943719 255 255 255
87.12719 66.672867 -0.69036782 255 255 255
92.626411 80.108421 -0.83923262 255 255 255
104.06702 67.409561 -0.77051419 255 255 255
152.98473 36.589966 -0.64758611 255 255 255
126.59763 54.284637 -0.74926466 255 255 255
83.94931 87.430466 -0.84061629 255 255 255
114.74532 45.007626 -0.57888108 255 255 255
90.418564 69.677086 -0.80101174 255 255 255
113.04353 69.379776 -0.81404048 255 255 255
93.425812 62.645061 -0.76918268 255 255 255
93.208206 67.260071 -0.7048738 255 255 255
96.749092 60.717834 -0.71636409 255 255 255
63.84235 101.43896 -0.83200216 255 255 255
69.479729 72.893501 -0.74073726 255 255 255
119.52374 56.683338 -0.7628938 255 255 255
186.6655 24.008146 -0.58351177 255 255 255
78.926567 74.695267 -0.76894975 255 255 255
75.157005 90.378754 -0.82708007 255 255 255
66.068291 76.542046 -0.78177541 255 255 255
75.477402 81.690308 -0.80098695 255 255 255
100.41033 55.990826 -0.66738886 255 255 255
159.66454 23.006239 -0.65821129 255 255 255
71.43206 70.39817 -0.7423197 255 255 255
149.64679 65.603989 -0.80566621 255 255 255
121.36751 64.112 -0.72418785 255 255 255
151.34509 30.556393 -0.648206 255 255 255
66.718979 95.92556 -0.83275235 255 255 255
89.438942 69.682114 -0.7851131 255 255 255
54.101234 86.576004 -0.7324425 255 255 255
129.97256 47.905109 -0.74887204 255 255 255
125.36594 59.886494 -0.79420829 255 255 255
80.836708 79.768578 -0.82002479 255 255 255
70.472298 75.10051 -0.77064848 255 255 255
109.20882 64.509926 -0.7652427 255 255 255
77.281677 79.200409 -0.80493915 255 255 255
77.425316 82.397148 -0.83328247 255 255 255
144.13347 51.521973 -0.66513944 255 255 255
89.94278 70.884933 -0.71654344 255 255 255
68.558922 98.939285 -0.82002717 255 255 255
138.91049 53.932579 -0.71131951 255 255 255
130.52007 47.646954 -0.74876118 255 255 255
135.58093 55.798073 -0.81499851 255 255 255
95.066483 72.435303 -0.75594079 255 255 255
97.195648 63.773327 -0.77134615 255 255 255
94.235962 84.954193 -0.83050078 255 255 255
96.567848 64.016632 -0.77054083 255 255 255
73.653648 87.17746 -0.84161252 255 255 255
75.978813 64.165855 -0.68994141 255 255 255
141.6035 21.760454 -0.5184136 255 255 255
77.521057 92.588554 -0.84238207 255 255 255
90.604591 59.488136 -0.66312617 255 255 255
115.30039 56.131508 -0.74032497 255 255 255
88.193474 63.413059 -0.67266905 255 255 255
79.190331 78.348282 -0.79407519 255 255 255
79.518791 72.974609 -0.72576326 255 255 255
59.142006 60.257347 -0.62604249 255 255 255
98.591171 52.181911 -0.61216408 255 255 255
181.71342 90.577332 -0.64552546 255 255 255
126.69711 56.62072 -0.77509212 255 255 255
129.05724 57.560043 -0.73497397 255 255 255
141.01801 48.653454 -0.73424453 255 255 255
118.15222 54.051498 -0.73300147 255 255 255
135.28743 46.351772 -0.72624511 255 255 255
109.13539 67.721321 -0.74473131 255 255 255
136.74222 48.406342 -0.68420613 255 255 255
92.888069 77.126381 -0.72913206 255 255 255
101.11272 53.683365 -0.63734853 255 255 255
119.84129 58.825119 -0.797916 255 255 255
174.0294 38.95216 -0.65433747 255 255 255
111.64063 89.084488 -0.80572134 255 255 255
89.251091 56.249126 -0.64683163 255 255 255
62.476604 77.521545 -0.7668699 255 255 255
96.748871 64.486427 -0.78077853 255 255 255
59.871624 90.910889 -0.82336485 255 255 255
130.14354 39.281635 -0.56732541 255 255 255
107.22847 56.608089 -0.76207101 255 255 255
102.95885 61.253914 -0.77306169 255 255 255
111.46358 58.960621 -0.69830114 255 255 255
88.624893 74.305862 -0.6980679 255 255 255
73.840408 55.834015 -0.6333403 255 255 255
90.010201 75.613289 -0.79855621 255 255 255
102.31532 62.792122 -0.75544244 255 255 255
69.922203 99.439453 -0.80691504 255 255 255
70.675224 54.136654 -0.60931164 255 255 255
147.21989 40.322193 -0.7162708 255 255 255
163.42201 43.557446 -0.70318687 255 255 255
121.44686 68.430283 -0.74855375 255 255 255
117.67225 69.578606 -0.7018711 255 255 255
56.139355 63.77692 -0.6236093 255 255 255
136.08897 57.892838 -0.77674979 255 255 255
117.72161 71.166504 -0.74734968 255 255 255
101.72887 72.663376 -0.82223505 255 255 255
71.629585 74.318665 -0.75034177 255 255 255
115.00774 60.123932 -0.78515542 255 255 255
55.482624 101.35045 -0.81620097 255 255 255
135.26666 66.376694 -0.81748986 255 255 255
75.454453 83.994751 -0.82982981 255 255 255
140.18933 44.232494 -0.77981555 255 255 255
102.80977 60.291393 -0.70247525 255 255 255
139.79509 56.647171 -0.71375209 255 255 255
91.79303 73.142426 -0.80584288 255 255 255
94.154236 76.038445 -0.84166247 255 255 255
105.59941 77.503075 -0.74223989 255 255 255
131.82668 54.516109 -0.75841153 255 255 255
77.049789 55.785164 -0.66369206 255 255 255
92.32621 71.535278 -0.79324645 255 255 255
87.082428 73.500023 -0.78801924 255 255 255
40.458019 59.099644 -0.56408328 255 255 255
68.144112 69.811859 -0.63734919 255 255 255
66.255226 107.74001 -0.77617776 255 255 255
73.944885 82.014618 -0.79918414 255 255 255
155.77838 43.696682 -0.75109005 255 255 255
112.12111 71.620941 -0.74813122 255 255 255
147.69786 38.87154 -0.69873118 255 255 255
107.00665 68.871841 -0.85562646 255 255 255
69.247124 85.60511 -0.83001882 255 255 255
126.23922 86.540657 -0.70952642 255 255 255
149.63106 34.754143 -0.66476792 255 255 255
102.83524 61.194893 -0.770913 255 255 255
120.29727 46.717186 -0.7185514 255 255 255
82.002548 51.161919 -0.63229895 255 255 255
99.363182 63.204094 -0.77917165 255 255 255
54.613689 98.995819 -0.81407803 255 255 255
96.435562 83.103012 -0.82192111 255 255 255
111.19537 49.519466 -0.63162798 255 255 255
44.770187 97.982124 -0.78033561 255 255 255
47.118546 41.134464 -0.35465565 255 255 255
89.934555 66.724541 -0.76015115 255 255 255
69.537506 107.5651 -0.80992061 255 255 255
133.30975 50.025982 -0.75473422 255 255 255
98.191498 66.557083 -0.74556392 255 255 255
83.11132 89.487595 -0.83057564 255 255 255
81.223404 85.930229 -0.83054227 255 255 255
63.354073 91.085564 -0.82359594 255 255 255
108.11807 70.015358 -0.82647419 255 255 255
105.14629 57.901966 -0.72974902 255 255 255
84.276207 83.173897 -0.83306688 255 255 255
66.644966 78.250862 -0.75049663 255 255 255
35.485371 102.13555 -0.79872715 255 255 255
121.97731 51.595032 -0.71818101 255 255 255
101.06664 70.998856 -0.81307191 255 255 255
102.66824 68.317329 -0.7748071 255 255 255
70.843079 61.619938 -0.68520457 255 255 255
55.979748 96.3302 -0.83507949 255 255 255
70.067207 82.106056 -0.8079806 255 255 255
123.31298 60.611237 -0.72832745 255 255 255
118.18926 53.932232 -0.7429297 255 255 255
110.84952 64.959038 -0.78255117 255 255 255
87.41301 47.651127 -0.6084308 255 255 255
101.15144 50.801819 -0.62844199 255 255 255
131.10718 45.91114 -0.71542484 255 255 255
67.562195 100.47005 -0.80870908 255 255 255
131.18448 45.834179 -0.71420008 255 255 255
117.0428 44.351768 -0.65649968 255 255 255
123.24227 50.081753 -0.71919858 255 255 255
118.38457 80.698845 -0.74212396 255 255 255
58.150532 89.775391 -0.82896107 255 255 255
160.33461 14.699179 -0.52618665 255 255 255
74.459778 85.979218 -0.86128461 255 255 255
122.00717 59.230862 -0.73706025 255 255 255
69.294174 86.751129 -0.8111887 255 255 255
168.70537 25.112438 -0.63446224 255 255 255
111.9939 62.093765 -0.74934894 255 255 255
88.046967 76.128044 -0.70585608 255 255 255
97.281502 63.699306 -0.77063417 255 255 255
153.09866 41.586803 -0.72953349 255 255 255
177.89508 51.988956 -0.5059433 255 255 255
126.54212 62.146408 -0.77432978 255 255 255
103.39992 69.242714 -0.75387198 255 255 255
75.332504 78.153038 -0.7826637 255 255 255
96.784401 60.688847 -0.71634793 255 255 255
81.546593 51.904339 -0.62086022 255 255 255
92.077484 79.067917 -0.823039 255 255 255
130.774 66.66478 -0.81502956 255 255 255
101.13941 61.727829 -0.76657414 255 255 255
138.50159 64.942169 -0.7864061 255 255 255
105.1889 57.54929 -0.72338444 255 255 255
102.36146 79.310593 -0.72924292 255 255 255
61.03841 90.672691 -0.80748594 255 255 255
99.233597 65.770668 -0.78847605 255 255 255
124.5142 56.351669 -0.74290955 255 255 255
72.478363 74.265823 -0.76784527 255 255 255
79.466034 76.287315 -0.8155008 255 255 255
91.087463 79.886726 -0.83890647 255 255 255
120.65581 67.716949 -0.76417696 255 255 255
92.205467 74.349983 -0.76341337 255 255 255
69.583549 83.104187 -0.78921294 255 255 255
65.274673 79.83802 -0.78411824 255 255 255
96.742867 64.525925 -0.78153461 255 255 255
129.41689 49.618019 -0.7352469 255 255 255
77.265129 89.679871 -0.75220019 255 255 255
84.567116 74.970161 -0.79625928 255 255 255
113.33076 54.016018 -0.74853688 255 255 255
148.19867 44.280689 -0.64371175 255 255 255
29.337151 67.621742 -0.54174191 255 255 255
92.920883 68.016876 -0.79282552 255 255 255
78.930077 76.080574 -0.73186213 255 255 255
199.51959 13.941099 -0.60099739 255 255 255
122.97234 65.704544 -0.76128656 255 255 255
98.796951 73.472633 -0.84076875 255 255 255
103.69417 60.691559 -0.76894152 255 255 255
74.627602 85.283134 -0.85893869 255 255 255
71.189346 96.245354 -0.83641511 255 255 255
117.44959 72.087006 -0.75406176 255 255 255
100.00685 66.551071 -0.74899852 255 255 255
74.280411 77.31572 -0.80534488 255 255 255
80.087265 48.018074 -0.54913682 255 255 255
111.17901 71.152527 -0.83309156 255 255 255
169.12164 46.206615 -0.69163382 255 255 255
116.37989 65.853035 -0.67600954 255 255 255
106.23966 58.95853 -0.75740874 255 255 255
109.65517 69.579536 -0.83564597 255 255 255
86.382332 75.609543 -0.84401679 255 255 255
123.58708 48.711952 -0.74517125 255 255 255
174.43216 23.403828 -0.61070776 255 255 255
147.73123 40.275826 -0.76854247 255 255 255
99.90461 60.169781 -0.72932905 255 255 255
66.511909 85.795448 -0.8318879 255 255 255
86.781532 51.223045 -0.65433246 255 255 255
97.412468 75.109322 -0.84316307 255 255 255
103.85709 57.647507 -0.76891708 255 255 255
102.52919 55.626804 -0.65165406 255 255 255
142.78874 63.190456 -0.75827003 255 255 255
110.60724 60.740437 -0.77024877 255 255 255
104.25732 60.454109 -0.76936942 255 255 255
108.31782 53.249054 -0.73807478 255 255 255
103.3713 61.096184 -0.77387089 255 255 255
138.03287 42.631638 -0.70930308 255 255 255
85.442535 72.009041 -0.53492016 255 255 255
53.464725 98.495789 -0.82415944 255 255 255
144.12363 25.820858 -0.50826025 255 255 255
101.90038 64.853867 -0.7241084 255 255 255
103.02534 70.053268 -0.76742464 255 255 255
94.056755 64.239006 -0.76489049 255 255 255
37.906368 97.45195 -0.78622198 255 255 255
96.165489 82.906693 -0.82637364 255 255 255
95.404739 56.991184 -0.65425617 255 255 255
92.371635 57.999973 -0.65242952 255 255 255
88.645439 81.146454 -0.85593575 255 255 255
102.95425 60.981033 -0.76785451 255 255 255
74.030106 67.102715 -0.71505791 255 255 255
42.968193 98.746315 -0.82105637 255 255 255
135.06712 51.637135 -0.75480556 255 255 255
60.306564 78.046104 -0.67480165 255 255 255
118.06658 80.169334 -0.83259887 255 255 255
75.908745 78.722252 -0.76389998 255 255 255
83.186668 69.414574 -0.7603063 255 255 255
74.512779 64.004845 -0.6428529 255 255 255
51.575928 92.529457 -0.78476685 255 255 255
72.382805 64.74794 -0.62344259 255 255 255
101.73782 86.248383 -0.78697759 255 255 255
83.603935 76.311447 -0.80467165 255 255 255
80.490913 71.103012 -0.75224489 255 255 255
89.243652 94.090385 -0.82371342 255 255 255
69.332405 83.474716 -0.71535569 255 255 255
55.5284 92.905312 -0.82869107 255 255 255
63.010094 78.572037 -0.70928663 255 255 255
130.49248 47.658634 -0.74871725 255 255 255
44.601189 96.171021 -0.80354559 255 255 255
86.582314 75.277054 -0.82876611 255 255 255
98.135101 74.304626 -0.82774353 255 255 255
105.18165 56.766926 -0.761581 255 255 255
97.198502 63.781631 -0.77141339 255 255 255
99.457748 77.553452 -0.76561493 255 255 255
108.26722 58.014927 -0.75692445 255 255 255
99.595352 63.121384 -0.77963644 255 255 255
83.806511 97.434937 -0.81876576 255 255 255
113.57487 57.621555 -0.75068575 255 255 255
128.21806 55.671726 -0.73977399 255 255 255
44.756695 99.026237 -0.82015222 255 255 255
143.18671 56.939892 -0.8398478 255 255 255
83.687904 19.652918 -0.3339214 255 255 255
105.68069 66.976341 -0.82847166 255 255 255
81.407425 77.040962 -0.83487201 255 255 255
132.45616 42.985928 -0.66294259 255 255 255
103.47204 60.903419 -0.77074242 255 255 255
158.90466 16.127731 -0.52256984 255 255 255
170.36238 30.146734 -0.66515833 255 255 255
113.29749 66.145294 -0.75764316 255 255 255
101.94781 61.052418 -0.77230757 255 255 255
80.269218 82.048851 -0.82506818 255 255 255
82.715332 59.496918 -0.61392826 255 255 255
82.971481 68.896881 -0.75346172 255 255 255
105.44022 72.058594 -0.7947467 255 255 255
105.72868 56.89465 -0.7158497 255 255 255
64.883308 78.596985 -0.75149947 255 255 255
122.75766 68.187439 -0.68356216 255 255 255
62.970566 62.597057 -0.58144653 255 255 255
101.09506 68.086861 -0.76949459 255 255 255
91.534378 58.138046 -0.64978451 255 255 255
142.03055 38.911156 -0.62481779 255 255 255
92.256783 57.505253 -0.71029842 255 255 255
65.160614 76.910576 -0.76814818 255 255 255
121.53911 48.353527 -0.68086642 255 255 255
86.386429 75.231445 -0.77757221 255 255 255
97.417122 68.45005 -0.81524646 255 255 255
123.41814 29.523954 -0.50382304 255 255 255
122.6021 55.539738 -0.71773767 255 255 255
98.257698 69.810371 -0.7672016 255 255 255
84.031853 89.511177 -0.77949411 255 255 255
55.792694 85.352592 -0.69452763 255 255 255
85.425461 72.913353 -0.81936389 255 255 255
99.245354 54.786217 -0.61416876 255 255 255
143.24545 37.320293 -0.60657036 255 255 255
86.913345 64.995544 -0.73345906 255 255 255
116.75472 61.441063 -0.78440827 255 255 255
153.96236 50.24892 -0.75871915 255 255 255
68.932236 88.630974 -0.84874964 255 255 255
98.996674 62.816349 -0.76848382 255 255 255
107.37583 63.368668 -0.73367149 255 255 255
101.84064 61.664505 -0.77165842 255 255 255
96.691048 64.196587 -0.77473354 255 255 255
196.21304 30.34981 -0.65449572 255 255 255
131.63731 68.70208 -0.76405406 255 255 255
55.683868 78.81424 -0.70980984 255 255 255
45.474293 92.080727 -0.80759311 255 255 255
126.2391 40.004837 -0.55308062 255 255 255
89.880875 57.892029 -0.63854754 255 255 255
50.856335 60.372822 -0.51943785 255 255 255
114.34904 68.021568 -0.83394027 255 255 255
99.785736 62.976131 -0.77850252 255 255 255
56.338837 92.622826 -0.82758528 255 255 255
95.671249 66.940529 -0.79068959 255 255 255
105.60676 56.923698 -0.71544713 255 255 255
84.939774 75.247353 -0.73928231 255 255 255
75.591034 61.541855 -0.61943948 255 255 255
112.05316 47.135849 -0.59800261 255 255 255
114.29859 59.947361 -0.730905 255 255 255
69.511971 92.591995 -0.84934568 255 255 255
112.71706 63.535736 -0.80272985 255 255 255
89.762665 66.965546 -0.76945901 255 255 255
117.21325 63.510597 -0.82649124 255 255 255
113.59911 46.746986 -0.59936738 255 255 255
111.72102 42.346729 -0.61215872 255 255 255
40.676922 96.415298 -0.79351872 255 255 255
54.55381 105.77128 -0.84247655 255 255 255
85.896622 56.051929 -0.59716743 255 255 255
76.54528 83.210968 -0.84106404 255 255 255
71.244522 56.422314 -0.57760185 255 255 255
110.21124 46.541584 -0.57931453 255 255 255
-69.815933 116.34658 -0.81241107 255 255 255
97.866364 51.458855 -0.74744111 255 255 255
118.62453 70.742928 -0.7893762 255 255 255
181.11443 24.749271 -0.69744498 255 255 255
157.80008 38.310272 -0.63368434 255 255 255
88.068771 80.806183 -0.75771672 255 255 255
102.90854 56.032856 -0.68353051 255 255 255
91.426514 80.991508 -0.82036316 255 255 255
68.855598 84.413452 -0.83473301 255 255 255
59.919308 96.933655 -0.7446987 255 255 255
79.53511 77.945854 -0.81264102 255 255 255
103.46657 38.478825 -0.55241305 255 255 255
44.175343 106.02953 -0.82890248 255 255 255
52.722343 61.522961 -0.63615996 255 255 255
91.781158 70.600182 -0.80190748 255 255 255
65.186325 70.451134 -0.67280525 255 255 255
129.92828 55.166916 -0.72511864 255 255 255
94.317947 66.258423 -0.79248476 255 255 255
108.2082 64.100876 -0.79279727 255 255 255
71.49054 89.978989 -0.80127513 255 255 255
56.109825 86.855721 -0.81931251 255 255 255
106.03667 45.890503 -0.55004466 255 255 255
94.586639 56.009968 -0.68407995 255 255 255
54.408134 98.749695 -0.81590253 255 255 255
101.51159 70.886536 -0.80935788 255 255 255
90.48204 64.46077 -0.74009722 255 255 255
89.31086 70.466255 -0.76997519 255 255 255
97.141869 75.778381 -0.75866306 255 255 255
97.295105 78.169518 -0.82851928 255 255 255
144.75809 39.963223 -0.61583906 255 255 255
126.46229 56.782818 -0.83734804 255 255 255
92.937408 73.550903 -0.82504398 255 255 255
64.6437 69.460114 -0.65931493 255 255 255
75.662056 82.583755 -0.80151826 255 255 255
117.33784 62.241047 -0.80201077 255 255 255
118.45884 50.921333 -0.71041685 255 255 255
95.391449 64.365303 -0.77169025 255 255 255
77.924538 73.933304 -0.75887054 255 255 255
90.050415 64.997787 -0.73967028 255 255 255
105.21557 59.931435 -0.76774287 255 255 255
71.969994 86.445168 -0.84090978 255 255 255
102.6179 56.944141 -0.69634926 255 255 255
101.02498 70.895767 -0.79862815 255 255 255
106.9718 58.985538 -0.76476347 255 255 255
95.621651 50.44352 -0.67339897 255 255 255
70.571884 60.987373 -0.59312248 255 255 255
114.92996 66.015327 -0.75955474 255 255 255
105.9502 57.424644 -0.72743076 255 255 255
66.382492 89.638733 -0.78416878 255 255 255
82.139854 81.250435 -0.81605649 255 255 255
124.24999 52.721909 -0.74803072 255 255 255
76.552963 83.286491 -0.85388893 255 255 255
91.881805 63.016304 -0.72088552 255 255 255
107.91715 60.365208 -0.7636947 255 255 255
106.20299 55.366611 -0.72190708 255 255 255
86.836876 79.444885 -0.80205745 255 255 255
66.570183 70.351944 -0.67835373 255 255 255
118.81809 52.538612 -0.73898101 255 255 255
129.74364 48.063389 -0.7505033 255 255 255
70.662346 78.306274 -0.79259872 255 255 255
145.39484 51.885834 -0.73969388 255 255 255
121.32923 65.759392 -0.83200735 255 255 255
78.261215 83.852219 -0.83714592 255 255 255
116.74078 63.686886 -0.74503833 255 255 255
61.381397 78.978546 -0.76612127 255 255 255
126.44227 59.305031 -0.75432122 255 255 255
157.06868 45.545029 -0.70513457 255 255 255
126.88524 49.164455 -0.68843955 255 255 255
107.48887 48.774445 -0.59869689 255 255 255
72.194443 64.961441 -0.60268581 255 255 255
110.48417 61.77953 -0.77211827 255 255 255
85.900139 89.175903 -0.81979984 255 255 255
66.561951 85.045235 -0.80274785 255 255 255
126.15098 33.977299 -0.59981287 255 255 255
56.253616 105.30708 -0.83310944 255 255 255
87.079811 64.263496 -0.77757841 255 255 255
107.94025 71.355843 -0.79199308 255 255 255
101.13273 80.456039 -0.76254404 255 255 255
115.57507 60.659328 -0.76812088 255 255 255
136.51013 46.129673 -0.78394389 255 255 255
94.057747 65.799858 -0.78320593 255 255 255
93.677811 62.506405 -0.72483146 255 255 255
127.52136 48.311775 -0.66363591 255 255 255
79.981392 91.635895 -0.73933238 255 255 255
75.881371 86.489479 -0.83327371 255 255 255
116.85526 77.710571 -0.5418759 255 255 255
118.74044 60.579029 -0.74874383 255 255 255
77.882538 76.26535 -0.69560486 255 255 255
141.50258 40.014038 -0.73784572 255 255 255
135.27406 40.821442 -0.64127719 255 255 255
230.4003 -1.3630581 -0.72468644 255 255 255
121.70577 43.223713 -0.58981889 255 255 255
102.63284 61.238453 -0.7664513 255 255 255
98.269203 59.046101 -0.726403 255 255 255
84.0261 74.966911 -0.77706337 255 255 255
111.83386 70.378304 -0.79333884 255 255 255
88.76107 62.564892 -0.74309629 255 255 255
112.5112 57.085754 -0.68284208 255 255 255
71.958366 69.979126 -0.71209902 255 255 255
68.202972 103.90702 -0.82284772 255 255 255
70.372375 88.912216 -0.78125846 255 255 255
93.306244 42.640808 -0.57245481 255 255 255
111.75001 72.12014 -0.8358832 255 255 255
114.97343 58.957653 -0.75845212 255 255 255
105.66713 58.800549 -0.74993116 255 255 255
98.555771 74.341263 -0.72522014 255 255 255
95.225395 65.608223 -0.75206393 255 255 255
77.241943 95.432968 -0.78196192 255 255 255
-86.290092 120.6778 -0.78325808 255 255 255
-56.270451 114.37984 -0.81562269 255 255 255
90.518333 71.694099 -0.77574223 255 255 255
90.976364 69.238052 -0.78938168 255 255 255
95.052383 92.352577 -0.76538211 255 255 255
105.63684 62.423958 -0.72342998 255 255 255
77.933617 89.366882 -0.8413071 255 255 255
64.696037 85.565712 -0.76544756 255 255 255
105.23749 57.60088 -0.7247895 255 255 255
126.80621 69.125717 -0.76243043 255 255 255
104.06553 58.438168 -0.74230963 255 255 255
77.619415 88.480324 -0.83712715 255 255 255
78.333115 78.937538 -0.79681295 255 255 255
92.266876 73.862457 -0.83473819 255 255 255
111.91401 50.346558 -0.67613262 255 255 255
74.630409 94.169907 -0.84834051 255 255 255
76.428658 90.648407 -0.82743049 255 255 255
67.348656 82.007141 -0.78694957 255 255 255
67.817497 89.854416 -0.82552987 255 255 255
110.16392 69.82914 -0.74359268 255 255 255
144.77631 87.573936 -0.70102119 255 255 255
92.23938 66.418747 -0.78260684 255 255 255
62.466717 77.509392 -0.76674902 255 255 255
94.268387 65.395905 -0.77719963 255 255 255
102.35245 61.443752 -0.77138048 255 255 255
54.600967 103.91334 -0.83378303 255 255 255
113.59641 91.425163 -0.72752798 255 255 255
136.21217 30.975035 -0.59007365 255 255 255
104.5174 57.881176 -0.72448933 255 255 255
73.446693 60.939236 -0.60360241 255 255 255
86.716782 67.6166 -0.73899204 255 255 255
63.396149 93.809547 -0.80351698 255 255 255
115.15617 54.884155 -0.74743414 255 255 255
81.383003 81.846466 -0.82703131 255 255 255
116.34754 59.740856 -0.66856825 255 255 255
55.274246 62.571709 -0.63018739 255 255 255
128.83221 53.293839 -0.7464658 255 255 255
57.554905 80.724609 -0.75095022 255 255 255
66.125969 77.935387 -0.77859962 255 255 255
111.7539 60.784233 -0.76663011 255 255 255
84.573875 73.790474 -0.78646708 255 255 255
94.118652 74.826385 -0.78727847 255 255 255
118.85589 58.700748 -0.74460822 255 255 255
46.692673 97.622154 -0.81795931 255 255 255
84.307289 74.124451 -0.81263036 255 255 255
85.402077 70.241539 -0.79276079 255 255 255
122.98804 57.951458 -0.83774096 255 255 255
71.783112 82.357742 -0.81129593 255 255 255
73.860527 85.784721 -0.82564354 255 255 255
48.716488 62.862202 -0.54676419 255 255 255
93.246475 53.91074 -0.60229379 255 255 255
116.9494 83.390717 -0.79394913 255 255 255
92.010918 58.07576 -0.6513992 255 255 255
100.23576 31.099192 -0.44815075 255 255 255
76.90049 82.580589 -0.80237079 255 255 255
115.2645 56.640873 -0.74418229 255 255 255
118.51245 57.59745 -0.77460361 255 255 255
75.867584 86.393806 -0.8274619 255 255 255
72.277046 85.775978 -0.82848549 255 255 255
79.833122 87.148315 -0.83154994 255 255 255
80.534302 90.247375 -0.82685989 255 255 255
96.3452 78.799713 -0.76802897 255 255 255
68.945801 78.643532 -0.79491246 255 255 255
99.388275 56.655815 -0.67113179 255 255 255
109.41547 57.893593 -0.76549757 255 255 255
143.39207 54.474617 -0.72697765 255 255 255
124.40948 71.197891 -0.73384029 255 255 255
83.515144 93.461601 -0.77604723 255 255 255
163.74489 43.395435 -0.69252187 255 255 255
101.82447 61.344318 -0.71786082 255 255 255
93.524376 61.425766 -0.68990397 255 255 255
104.11496 59.688557 -0.73836809 255 255 255
102.16847 67.992508 -0.66987062 255 255 255
119.22994 103.73975 -0.71297771 255 255 255
98.079048 71.318695 -0.73761505 255 255 255
71.755928 69.625473 -0.63521427 255 255 255
47.655331 41.332493 -0.35726956 255 255 255
118.73097 65.040375 -0.72893786 255 255 255
71.242851 103.51581 -0.81479144 255 255 255
82.492958 74.163956 -0.80053365 255 255 255
89.88459 68.559883 -0.7494933 255 255 255
127.46193 57.497253 -0.68567908 255 255 255
99.593803 54.676388 -0.60243285 255 255 255
93.352089 96.017685 -0.82083857 255 255 255
100.11378 81.716812 -0.82074881 255 255 255
105.99996 58.837387 -0.75298798 255 255 255
171.90945 87.241417 -0.60638165 255 255 255
57.022579 137.74469 -0.78507775 255 255 255
122.091 88.06395 -0.78755295 255 255 255
69.608696 73.725723 -0.67062742 255 255 255
63.592415 55.971981 -0.59820747 255 255 255
80.475609 76.628891 -0.81448883 255 255 255
54.396427 89.494469 -0.74020016 255 255 255
80.362938 81.314651 -0.81907463 255 255 255
137.60953 49.634174 -0.70782447 255 255 255
70.702568 80.06076 -0.80586457 255 255 255
113.71544 82.16333 -0.77014726 255 255 255
119.37778 61.722347 -0.81750512 255 255 255
63.526699 101.79277 -0.80187041 255 255 255
110.42075 79.479263 -0.78400087 255 255 255
46.859768 80.908073 -0.69578105 255 255 255
96.939812 75.743042 -0.83346295 255 255 255
108.10257 66.357216 -0.79441929 255 255 255
78.750862 61.495743 -0.63198233 255 255 255
100.27986 62.058712 -0.73041886 255 255 255
87.61734 78.492592 -0.84798014 255 255 255
85.07589 80.720886 -0.7678805 255 255 255
104.82487 100.26631 -0.76683295 255 255 255
66.239883 85.579346 -0.77531278 255 255 255
86.809128 86.970932 -0.67240524 255 255 255
100.87579 56.869057 -0.74186051 255 255 255
76.492241 77.181915 -0.78099531 255 255 255
104.66073 98.437027 -0.78936911 255 255 255
52.33252 93.368622 -0.83120245 255 255 255
94.618721 81.742378 -0.82436734 255 255 255
96.632042 64.906677 -0.78729737 255 255 255
-59.876698 117.74352 -0.84981406 255 255 255
89.187935 83.41671 -0.77484679 255 255 255
67.067299 43.877251 -0.52703619 255 255 255
84.641258 66.100708 -0.74675131 255 255 255
83.135628 78.466721 -0.80769432 255 255 255
172.72847 32.736294 -0.74029964 255 255 255
50.303047 122.49339 -0.81726605 255 255 255
79.657593 77.473801 -0.76452994 255 255 255
102.94372 61.258953 -0.77304339 255 255 255
153.33827 51.257683 -0.78045821 255 255 255
57.604088 83.818336 -0.75782984 255 255 255
91.30986 67.52108 -0.79045635 255 255 255
69.350143 87.401604 -0.84031355 255 255 255
64.15667 81.806328 -0.80325991 255 255 255
87.846092 61.200279 -0.67249793 255 255 255
145.37891 33.604279 -0.66692978 255 255 255
95.332329 85.41256 -0.82959688 255 255 255
97.627083 72.52594 -0.78162026 255 255 255
95.561203 68.578033 -0.7381587 255 255 255
149.67628 39.813984 -0.78521198 255 255 255
75.735847 84.2612 -0.78132838 255 255 255
56.832428 94.443092 -0.82293963 255 255 255
94.822235 79.610725 -0.77831894 255 255 255
62.974228 59.635529 -0.63859081 255 255 255
85.421959 71.624382 -0.77889508 255 255 255
74.33812 70.39151 -0.75663823 255 255 255
92.521492 76.495415 -0.82503337 255 255 255
99.81636 76.899773 -0.85420889 255 255 255
102.29908 73.491264 -0.82755703 255 255 255
92.767769 74.215111 -0.82879329 255 255 255
75.590302 83.989151 -0.84149212 255 255 255
110.79484 71.480133 -0.77892113 255 255 255
138.03662 42.625366 -0.70926726 255 255 255
53.792267 104.29768 -0.77796602 255 255 255
66.570038 70.368454 -0.6783734 255 255 255
118.46695 60.108704 -0.78232604 255 255 255
90.52269 83.614067 -0.85330611 255 255 255
135.23486 40.862946 -0.64144611 255 255 255
117.26366 53.252605 -0.5838902 255 255 255
116.89944 75.600639 -0.80629325 255 255 255
66.871071 100.04095 -0.80712897 255 255 255
83.246346 72.344063 -0.80793422 255 255 255
91.567307 58.114777 -0.64975804 255 255 255
105.71532 58.793221 -0.74990594 255 255 255
113.08488 38.825932 -0.59793431 255 255 255
141.58719 163.16928 -0.57152879 255 255 255
130.6284 46.31052 -0.72055292 255 255 255
105.60672 56.925972 -0.71551317 255 255 255
112.48652 70.639702 -0.73870647 255 255 255
92.368233 79.170631 -0.82600743 255 255 255
120.50004 45.314266 -0.70601332 255 255 255
230.40463 -1.3608537 -0.72470057 255 255 255
98.490883 47.679684 -0.62634331 255 255 255
92.026024 58.040436 -0.6511122 255 255 255
82.44149 80.786339 -0.8331449 255 255 255
71.692749 78.345619 -0.76176065 255 255 255
128.42932 60.782234 -0.74994105 255 255 255
73.787239 60.344048 -0.68897074 255 255 255
57.031227 106.96333 -0.7984581 255 255 255
81.284401 86.403191 -0.81446344 255 255 255
70.036346 60.607414 -0.586968 255 255 255
54.292164 106.24824 -0.84348238 255 255 255
111.88684 66.619644 -0.76630461 255 255 255
109.92441 30.859856 -0.57561678 255 255 255
94.598267 62.658939 -0.73663139 255 255 255
132.49059 42.991863 -0.66295296 255 255 255
76.008278 75.72921 -0.71107793 255 255 255
103.76985 60.636139 -0.76872647 255 255 255
68.207771 71.103264 -0.74157447 255 255 255
94.175789 92.23391 -0.83693928 255 255 255
92.573547 76.822159 -0.84286565 255 255 255
92.277657 74.393707 -0.83769351 255 255 255
93.194283 65.407822 -0.76869941 255 255 255
106.05636 58.808937 -0.75304776 255 255 255
81.134949 79.055542 -0.80224693 255 255 255
107.80565 55.197449 -0.70179701 255 255 255
91.229584 83.018867 -0.85141253 255 255 255
51.650379 56.089996 -0.48498192 255 255 255
81.619614 82.955849 -0.76552773 255 255 255
118.82816 53.786629 -0.69196218 255 255 255
65.4403 83.725052 -0.83012408 255 255 255
125.88879 65.577888 -0.79502475 255 255 255
116.77892 58.142941 -0.73509794 255 255 255
100.04613 56.038849 -0.72899824 255 255 255
-14.735203 103.58021 -0.80642456 255 255 255
112.03466 65.675735 -0.76001602 255 255 255
96.586319 64.013443 -0.77050084 255 255 255
96.352097 69.087349 -0.81148976 255 255 255
110.91821 65.490303 -0.76007318 255 255 255
99.756836 63.09763 -0.78072387 255 255 255
84.31765 83.941032 -0.84187657 255 255 255
76.109169 89.502762 -0.82324588 255 255 255
51.626839 82.605133 -0.81036967 255 255 255
50.247307 106.39064 -0.76289225 255 255 255
69.633698 80.578987 -0.79354912 255 255 255
98.446045 63.508804 -0.69332832 255 255 255
121.69694 56.106689 -0.75579333 255 255 255
170.35168 32.878586 -0.69874227 255 255 255
126.26852 73.665749 -0.80389452 255 255 255
107.35682 48.461426 -0.66716498 255 255 255
63.577305 94.658745 -0.81862187 255 255 255
130.88956 50.467522 -0.71997309 255 255 255
117.18422 61.813534 -0.78933281 255 255 255
100.70837 76.541512 -0.82445198 255 255 255
131.74222 45.731468 -0.71750385 255 255 255
76.698006 77.690811 -0.8175317 255 255 255
17.296442 68.236633 -0.58923405 255 255 255
115.00208 60.040848 -0.7745856 255 255 255
52.010258 98.232651 -0.81517488 255 255 255
97.232681 63.773804 -0.77148539 255 255 255
90.831314 81.362335 -0.81763756 255 255 255
88.859306 80.743271 -0.82186377 255 255 255
95.025917 72.361404 -0.75951964 255 255 255
116.09975 70.397308 -0.78645998 255 255 255
63.707699 92.630463 -0.79021472 255 255 255
91.045013 77.574677 -0.82219017 255 255 255
100.7062 52.220161 -0.68193167 255 255 255
94.623947 70.664665 -0.79201913 255 255 255
101.10829 56.410416 -0.72762674 255 255 255
125.87867 66.554153 -0.80949265 255 255 255
109.25886 59.585258 -0.72480094 255 255 255
96.793648 76.6138 -0.82677275 255 255 255
118.49016 68.859741 -0.77799088 255 255 255
102.60603 73.48748 -0.83656305 255 255 255
120.80632 68.093277 -0.72722274 255 255 255
90.786804 57.853756 -0.64250892 255 255 255
42.93716 97.007042 -0.81797463 255 255 255
