ply
format ascii 1.0
comment PCL generated
element vertex 1094
property float x
property float y
property float z
property uchar red
property uchar green
property uchar blue
element face 0
element camera 0
property float view_px
property float view_py
property float view_pz
property float x_axisx
property float x_axisy
property float x_axisz
property float y_axisx
property float y_axisy
property float y_axisz
property float z_axisx
property float z_axisy
property float z_axisz
property float focal
property float scalex
property float scaley
property float centerx
property float centery
property int viewportx
property int viewporty
property float k1
property float k2
end_header
5105.5229 1396.9452 5.1620698 255 255 255
-3761.7966 960.15344 -8.0979719 255 255 255
-15782.609 458.89285 -32.551968 255 255 255
-124.91999 366.04535 -0.2744031 255 255 255
4187.335 1699.4767 3.355154 255 255 255
-130.86914 -147.54521 -1.2690088 255 255 255
-3933.0972 958.49719 -5.0698552 255 255 255
1521.5333 108.61253 1.3459418 255 255 255
117.80576 33.448372 0.21909715 255 255 255
1754.8483 113.8149 1.8900732 255 255 255
-10097.002 -8024.7148 -19.162998 255 255 255
-3138.76 675.97754 -5.5544415 255 255 255
360.57758 431.51492 0.82985824 255 255 255
3198.021 607.13409 4.4703646 255 255 255
-150.89972 224.95914 -0.48436439 255 255 255
-13668.432 344.3652 -14.891815 255 255 255
-87.944794 296.72183 -0.45708564 255 255 255
-3943.3838 -4247.3452 -8.4854622 255 255 255
12115.233 327.96069 21.715366 255 255 255
-4817.3315 572.68372 -8.5721121 255 255 255
-24.40715 164.06784 -0.13724644 255 255 255
86.236755 102.46822 0.25480318 255 255 255
-270.80591 -293.46515 -2.512116 255 255 255
-3609.6167 713.25891 -5.3560247 255 255 255
1980.0879 934.72662 1.5761068 255 255 255
8891.2998 885.18494 9.020402 255 255 255
-3428.8762 889.16034 -4.6932011 255 255 255
-5858.0894 651.00653 -8.4429655 255 255 255
778.59363 585.79626 1.0767184 255 255 255
-347.13834 374.97687 -0.43036976 255 255 255
122.51132 -28.912994 0.17565595 255 255 255
-3611.551 792.36841 -5.1203241 255 255 255
224.59668 366.69879 0.62608522 255 255 255
6114.8779 -1697.8015 9.9935017 255 255 255
732.84723 366.24951 0.58488184 255 255 255
151.27438 103.32195 0.1359479 255 255 255
-66.727989 441.07758 -0.54615581 255 255 255
3320.2212 502.63449 5.0330567 255 255 255
-4925.7129 480.4913 -8.5287962 255 255 255
-6502.7798 369.09415 -13.368073 255 255 255
-3428.4312 761.39197 -4.995635 255 255 255
-45.211407 100.55779 -0.099381417 255 255 255
144361.47 3108.5103 190.89798 255 255 255
-5592.374 513.22089 -7.1340308 255 255 255
-2684.0439 623.57654 -4.447927 255 255 255
3069.8948 323.01953 5.4481435 255 255 255
-65.334503 148.73793 -0.17325944 255 255 255
-4198.4478 531.6485 -7.0148911 255 255 255
-6418.5215 742.54999 -8.5290661 255 255 255
-2985.0962 936.07343 -4.1371107 255 255 255
-129.64412 289.41263 -0.50489932 255 255 255
116.69794 39.16724 0.095044158 255 255 255
143.92163 110.7766 0.29536182 255 255 255
167.74025 63.804859 0.15417358 255 255 255
-37797.609 152.59525 -49.434753 255 255 255
-3854.3098 504.51913 -6.6755614 255 255 255
4599.064 1459.6332 4.5527349 255 255 255
-78.192467 372.20728 -0.60335016 255 255 255
-2789.2766 802.33868 -4.1552916 255 255 255
-5603.2451 666.45868 -8.0340652 255 255 255
-4056.0752 464.27765 -7.2836623 255 255 255
-1239.4727 -26.228506 -2.4134352 255 255 255
-14324.243 586.15973 -18.14168 255 255 255
-7566.603 -1272.4237 -9.0028315 255 255 255
-49.072922 444.76816 -0.48042911 255 255 255
95.05658 90.782936 0.2301503 255 255 255
6251.0234 2263.9971 7.5573363 255 255 255
-6826.0195 589.57336 -8.9302578 255 255 255
-4114.2856 810.69183 -5.6417298 255 255 255
883.58557 99.046425 0.75061458 255 255 255
-7100.4185 895.49359 -8.435111 255 255 255
-8463.1348 1151.35 -8.5718966 255 255 255
7734.6479 892.4527 15.385835 255 255 255
-3463.2231 744.42957 -5.0838256 255 255 255
-3312.8013 633.59625 -5.2554154 255 255 255
-4515.7471 773.19501 -5.6023865 255 255 255
-1174.9128 -669.65515 -2.4627118 255 255 255
-458.28271 -28.810997 -1.6300504 255 255 255
-1984.588 403.34387 -4.147274 255 255 255
-223.13445 -250.6507 -1.4433956 255 255 255
-4219.0356 939.40021 -5.4009056 255 255 255
-7014.2212 676.01642 -9.6295023 255 255 255
317.36441 275.41107 0.54791021 255 255 255
151.57228 202.6192 0.33840284 255 255 255
-14878.493 636.5307 -17.396442 255 255 255
-13281.342 598.5379 -16.969786 255 255 255
-3355.2754 668.75409 -5.1839657 255 255 255
-1406.2062 178.08055 -2.7222121 255 255 255
-3377.9055 799.19922 -4.8386955 255 255 255
-1003.0053 -745.47974 -2.829855 255 255 255
-9053.1182 611.01691 -12.599722 255 255 255
1730.7778 2370.7209 3.9225318 255 255 255
9275.1201 -623.88623 12.253296 255 255 255
13571.093 18407.668 36.061958 255 255 255
-130.01802 -145.62589 -1.2421783 255 255 255
-6594.354 463.97665 -11.391953 255 255 255
-20595.143 -16023.021 -31.271965 255 255 255
-3474.8794 857.11896 -4.8080411 255 255 255
83.409889 104.32139 0.2192315 255 255 255
1867.9375 1640.1169 3.9494669 255 255 255
1795.1638 322.93359 3.0903285 255 255 255
-3228.8682 342.6662 -3.8716984 255 255 255
-2298.3794 558.58972 -4.1061368 255 255 255
-1790.6987 -874.41357 -2.996645 255 255 255
-2841.3933 570.51306 -4.8408589 255 255 255
-2599.5205 302.87897 -3.3853238 255 255 255
-36.27713 103.87687 -0.080022007 255 255 255
-50491.605 -58682.809 -185.08771 255 255 255
-4892.8057 970.47552 -5.999701 255 255 255
-1325.873 14.718287 -2.5816746 255 255 255
-824.90137 -768.06989 -2.4759374 255 255 255
-1736.3643 -830.3092 -2.9173372 255 255 255
-2395.979 480.70908 -3.3768818 255 255 255
-962.11987 -40.30323 -1.9715909 255 255 255
-66.979599 136.72928 -0.1644647 255 255 255
-7032.3804 732.30835 -9.272893 255 255 255
-2400.7524 834.77905 -3.6624608 255 255 255
-3730.8298 911.74902 -4.965642 255 255 255
-2450.3447 363.18149 -4.9496703 255 255 255
-5567.5469 900.1142 -6.8976531 255 255 255
-3851768.8 16697.807 -7109.7334 255 255 255
-1482.8623 -124.31618 -2.5511775 255 255 255
19849.588 1104.2784 25.847277 255 255 255
-3626.0076 686.36652 -5.4669213 255 255 255
-0.15354794 446.44571 -0.54737014 255 255 255
-3626.3162 -374.06439 -5.0071845 255 255 255
4605.894 249.73541 8.9121256 255 255 255
5666.5122 946.41321 6.8548002 255 255 255
-94.489876 174.62657 -0.25308669 255 255 255
-5402.6377 984.76904 -6.4609566 255 255 255
960.75134 154.61697 1.1072164 255 255 255
-2651.8098 524.29926 -4.7388878 255 255 255
-24494.092 366.95724 -29.393278 255 255 255
-1674.2349 -845.77924 -3.8456388 255 255 255
27548.887 780.74268 41.184116 255 255 255
4548.8857 274.05029 5.695735 255 255 255
-5355.8096 41.401779 -7.1196089 255 255 255
-1920.5675 189.11154 -2.8062761 255 255 255
-346.21378 -328.10965 -1.6849778 255 255 255
-3429.6399 423.81091 -6.5551333 255 255 255
-3318.1226 598.33051 -5.3989358 255 255 255
-2951.498 549.14789 -4.8175883 255 255 255
-6210.7964 1050.6554 -7.0287457 255 255 255
70.929367 80.190063 0.14778189 255 255 255
3942.6973 508.7919 7.7750092 255 255 255
154.29953 75.262268 0.11454725 255 255 255
-2433.3743 -78.325623 -3.3669941 255 255 255
-2085.7473 581.00873 -3.748333 255 255 255
-949.76221 -1060.4965 -5.4190969 255 255 255
-7404.707 614.29218 -10.656778 255 255 255
-18.87089 489.65436 -0.41831484 255 255 255
-31.684195 78.230965 -0.49260277 255 255 255
2287.9856 11.183592 2.6708255 255 255 255
178.79567 191.25418 0.34684846 255 255 255
-11000.058 628.96313 -14.406835 255 255 255
364.17783 -78.185234 0.3764855 255 255 255
-2985.4421 709.57245 -4.6001039 255 255 255
-4766.6685 -450.47668 -7.8739953 255 255 255
-2424.5916 -2640.3892 -6.1632066 255 255 255
57.144367 38.294533 0.10227594 255 255 255
-6608.8115 830.69904 -8.2417707 255 255 255
-17456.34 4371.0137 -21.995718 255 255 255
-1881.5789 507.82758 -3.6367979 255 255 255
-1346.5031 81.82296 -2.5625832 255 255 255
4562.4287 1039.067 5.2132845 255 255 255
-2900.2593 773.84613 -4.3407063 255 255 255
-58.503464 132.63046 -0.15321217 255 255 255
45100.875 1678.0923 57.409283 255 255 255
-2511.1997 840.5329 -3.7772868 255 255 255
-42.976425 152.15697 -0.23016542 255 255 255
-1933.1653 -300.29633 -2.9737651 255 255 255
3688.2917 592.42242 5.2594018 255 255 255
-84.067795 141.00125 -0.78669697 255 255 255
5972.0767 1083.0504 6.8441138 255 255 255
1574.9835 -104.10713 1.8439196 255 255 255
101.47406 37.611443 0.17136605 255 255 255
-2075.502 -306.6405 -3.9452002 255 255 255
-4716.564 830.37488 -6.2434855 255 255 255
-2295.0923 685.79614 -3.7962749 255 255 255
-11572.217 591.36517 -15.610486 255 255 255
347.87732 160.62111 0.56587762 255 255 255
-3084.2046 1007.8123 -4.1282263 255 255 255
-4038.5154 408.22522 -6.0325689 255 255 255
-64.529678 103.934 -0.11366181 255 255 255
-3667.7961 478.48035 -6.5566683 255 255 255
14238.274 1631.5201 15.055438 255 255 255
-4907.54 1064.6519 -5.7918549 255 255 255
-4475.4141 -298.897 -7.4549093 255 255 255
280.43857 174.41177 0.50903517 255 255 255
-1222.5367 125.27966 -2.3405981 255 255 255
123.24909 41.808331 0.23291864 255 255 255
89949.312 -10131.19 109.99783 255 255 255
-2235.4548 557.75433 -4.0179639 255 255 255
149.95938 194.72531 0.39421493 255 255 255
-76.347061 127.36898 -0.71219486 255 255 255
-3110.7039 904.17639 -4.3223324 255 255 255
-5376.4097 682.25909 -7.6690345 255 255 255
-6910.4341 919.5166 -8.1520386 255 255 255
-1856.3016 -622.42883 -2.7842929 255 255 255
-5241.9976 685.96301 -7.4750352 255 255 255
-2390.928 896.5307 -3.5668049 255 255 255
-9648.5166 884.31171 -14.501978 255 255 255
4395.1104 645.19507 6.1256423 255 255 255
-1973.1143 37.485519 -3.6076455 255 255 255
56.391422 20.696762 0.10176788 255 255 255
-2997.3567 625.0481 -4.86516 255 255 255
-3248.4902 716.81647 -4.8988609 255 255 255
-48203.789 859.29211 -48.28022 255 255 255
-7402.6748 18.924654 -11.170574 255 255 255
-55.429035 114.26869 -0.18632017 255 255 255
10146.442 -161.33012 14.053497 255 255 255
-28.923382 159.65662 -0.15449946 255 255 255
65.613441 40.812103 0.17092097 255 255 255
-1617.1722 160.21986 -2.7676747 255 255 255
40.003998 41.637104 0.023287805 255 255 255
285.28391 82.064659 0.57019454 255 255 255
-2429.1743 199.45107 -4.9101133 255 255 255
-43.01228 103.38129 -0.18785526 255 255 255
-2780.2434 303.36975 -3.5590341 255 255 255
6391.5493 -963.6853 7.3663616 255 255 255
96.882301 112.28721 0.20512328 255 255 255
711.42676 895.48761 1.5501601 255 255 255
-71.316132 127.07198 -0.13115443 255 255 255
431.0332 139.97934 0.8293221 255 255 255
-28.048113 112.14886 -0.14264885 255 255 255
-316.61703 411.55469 -0.37150311 255 255 255
4780.2651 1442.1335 4.753458 255 255 255
130.22337 -47.657185 0.15532412 255 255 255
-3609.3899 1089.5017 -4.5176411 255 255 255
-2490.6697 606.34857 -4.2386808 255 255 255
8480.1875 1026.6194 10.294471 255 255 255
101.66182 65.6903 0.17499693 255 255 255
-4583.5723 796.61285 -7.2709336 255 255 255
-169.06203 384.36935 -0.57762796 255 255 255
85.045525 143.39584 0.43965724 255 255 255
83.152847 88.074463 0.17002714 255 255 255
134.92725 180.24474 0.39745679 255 255 255
-76.9123 126.54211 -0.091435127 255 255 255
1960.3909 659.61694 1.5860825 255 255 255
150.61813 246.10452 0.58042884 255 255 255
-1283.5936 200.37524 -2.4509666 255 255 255
-5259.9263 721.11652 -8.7424898 255 255 255
-3471.522 -262.5051 -5.2947531 255 255 255
-1841.7057 394.1264 -2.9997036 255 255 255
-4117.1655 923.60101 -5.342968 255 255 255
-46.987957 121.7007 -0.17127329 255 255 255
-993.35052 242.90036 -2.0346568 255 255 255
-2541.6914 369.95544 -3.6907349 255 255 255
-2221.437 554.71466 -4.0077767 255 255 255
-5479.4321 827.72327 -7.0854082 255 255 255
53561.078 234.53775 96.003708 255 255 255
1492.0345 -46.991795 1.8161999 255 255 255
322.02026 214.8596 0.58650684 255 255 255
-1144.5277 -28.849949 -2.3633385 255 255 255
-5545.127 668.89368 -7.9568157 255 255 255
-10655.421 1115.2714 -10.287788 255 255 255
-16154.696 -17549.424 -35.296753 255 255 255
491.86176 274.93835 0.81642002 255 255 255
-1481.9576 547.76306 -2.972801 255 255 255
-7562.0034 992.70673 -8.4409151 255 255 255
-8318.0381 990.14526 -9.1181822 255 255 255
-4975.3071 1316.2612 -5.3664722 255 255 255
-1583.8444 326.6438 -2.5220609 255 255 255
4618.9106 249.39729 8.9377899 255 255 255
314.15527 268.92499 0.54401207 255 255 255
70.15535 66.002319 0.14327332 255 255 255
-226.85965 -209.47612 -1.456408 255 255 255
-86.881569 144.06421 -0.80847502 255 255 255
-5221.8564 742.64685 -7.1661139 255 255 255
11968.551 210.99309 23.299112 255 255 255
-633.01093 -513.53552 -1.9589438 255 255 255
83.13195 68.486099 0.1911594 255 255 255
-489.93021 -147.16293 -1.5937032 255 255 255
140.8726 148.35913 0.30325454 255 255 255
-39.768559 148.83603 -0.79281694 255 255 255
-64.254211 125.87397 -0.10652749 255 255 255
-2509.4758 786.44775 -3.8658578 255 255 255
31612.236 50940.543 85.652596 255 255 255
-1817.6289 709.24719 -3.1672146 255 255 255
-1231.3438 -205.75639 -2.2421134 255 255 255
-3878.937 677.41681 -5.8264737 255 255 255
331.84143 70.51561 0.68362421 255 255 255
781.91864 591.1936 1.0787829 255 255 255
4603.4146 1581.2913 3.4916055 255 255 255
-10642.319 -9928.5234 -20.2453 255 255 255
-92.559029 165.49629 -0.11311883 255 255 255
863.21997 551.38849 9.1728735 255 255 255
123.77084 115.42222 0.58968914 255 255 255
5944.8091 1593.9331 5.7479701 255 255 255
-32.145203 436.54547 -0.47710544 255 255 255
75.354744 95.080399 0.1686421 255 255 255
-4869.1357 473.25635 -7.1306834 255 255 255
289.88733 274.92899 1.737146 255 255 255
3963.2476 1321.0674 4.0498824 255 255 255
-45.986362 136.748 -0.67272156 255 255 255
-126471.46 845.87653 -228.84348 255 255 255
122.35387 134.71101 0.2516776 255 255 255
-128.4825 275.23178 -0.53130478 255 255 255
263.07123 92.759079 0.51498681 255 255 255
38.952404 40.57468 0.075012602 255 255 255
2470.0852 -449.81366 3.3558793 255 255 255
-1526.9398 213.29933 -2.5092449 255 255 255
360.24112 185.87531 0.65048224 255 255 255
-2906.0095 579.63623 -4.8977299 255 255 255
-39.071609 307.85373 -0.048393317 255 255 255
70.602287 85.149788 0.22142395 255 255 255
1144.3994 149.2592 3.8354797 255 255 255
230.17039 254.08585 0.55868965 255 255 255
-1985.1177 516.30896 -3.7652154 255 255 255
-3885.9324 432.45691 -7.2786541 255 255 255
432.29514 139.51768 0.8329103 255 255 255
-28731.023 1362.0892 -39.114025 255 255 255
272.16208 88.649178 0.53709167 255 255 255
-1852.9891 127.88903 -2.671545 255 255 255
-7818.7178 675.77802 -10.559058 255 255 255
-15590.563 453.1666 -32.14484 255 255 255
-3451.6692 322.49622 -7.6268468 255 255 255
42220.625 1372.1522 56.350014 255 255 255
95.690376 84.313583 0.17584363 255 255 255
-2524.6802 830.39539 -3.8055427 255 255 255
431.97263 133.55739 0.83980721 255 255 255
98.504189 79.861252 0.19293478 255 255 255
-58.020969 263.53683 -0.23445122 255 255 255
111.20168 148.61516 0.2559101 255 255 255
245.51343 204.51958 2.2573454 255 255 255
-2303.3083 574.55145 -4.0674324 255 255 255
778.25311 585.5733 1.0761434 255 255 255
-2960.3352 869.36145 -4.2254677 255 255 255
893.44177 487.71918 0.94155139 255 255 255
5222.0659 1407.4401 5.277957 255 255 255
-2902.9199 933.15393 -4.0573645 255 255 255
84.037437 86.408875 0.1648318 255 255 255
-10420.912 -2137.4172 -12.884897 255 255 255
264.16562 253.85669 0.51631945 255 255 255
145.91681 130.18967 0.31713751 255 255 255
-4126.0806 917.13141 -5.3711243 255 255 255
-2404.0674 691.38037 -3.917346 255 255 255
-844.92963 -720.49402 -2.464968 255 255 255
-4280.7803 916.62128 -5.521266 255 255 255
130.22073 64.447792 0.10182485 255 255 255
-31348.494 594.33698 -62.748074 255 255 255
-17375.168 554.23126 -27.220829 255 255 255
-32.574528 85.19593 -0.4180938 255 255 255
2294.415 -107.90067 3.134594 255 255 255
-1859.3462 132.71875 -2.6755869 255 255 255
-19738.973 480.57932 -39.983822 255 255 255
-7017.9751 730.59106 -9.2530718 255 255 255
-18254.332 -24241.391 -44.788975 255 255 255
3481.8352 4142.7437 7.2788744 255 255 255
-30921.289 -32374.246 -64.492928 255 255 255
-19392.973 647.40991 -19.036308 255 255 255
116.72004 118.33454 0.24124902 255 255 255
-260.16534 393.84415 -0.3131983 255 255 255
17457.49 222.08456 32.840202 255 255 255
12058.037 328.728 21.610912 255 255 255
-63.52953 127.3563 -0.1054766 255 255 255
134273.52 4893.9023 156.39763 255 255 255
-1875.7325 459.77777 -2.7954466 255 255 255
-2977.5105 -170.57527 -3.911551 255 255 255
321.72247 -26.348322 0.29415929 255 255 255
3701.6189 1909.8138 4.0253148 255 255 255
-1457.3669 -70.296349 -2.4459314 255 255 255
-263.68094 -30.763687 -1.3219271 255 255 255
-152.5764 455.69391 -0.54698688 255 255 255
496.99991 758.98029 1.1970965 255 255 255
120.14523 114.77385 0.2463288 255 255 255
1796.4768 323.58328 3.0929832 255 255 255
-226.77971 411.16626 -0.33904293 255 255 255
-4586.1196 783.03979 -6.2670069 255 255 255
50909.352 24437.59 83.274788 255 255 255
-1825.0331 481.89954 -3.6197436 255 255 255
2893.8667 4085.7158 6.5709786 255 255 255
-1548.0322 -135.73503 -2.5314915 255 255 255
3323.4946 1306.3066 3.1318991 255 255 255
-146.03769 -115.0629 -1.2148756 255 255 255
2362.3311 328.44519 4.1127529 255 255 255
284.08719 251.17911 1.6889545 255 255 255
135.00308 176.25674 0.30155998 255 255 255
2801.3594 12.103694 3.7345772 255 255 255
508.82916 147.86435 0.98682153 255 255 255
-8582.084 709.01562 -11.078616 255 255 255
-29.571976 420.97794 -0.49213406 255 255 255
-3412.5144 421.76392 -6.5593352 255 255 255
-18101.945 677.11182 -18.058744 255 255 255
39.866547 41.089661 0.088193201 255 255 255
351.17462 72.938362 0.72652245 255 255 255
-53.911057 116.54662 -0.24892895 255 255 255
-269.26602 518.43372 -0.37080279 255 255 255
2676.1367 -345.81772 3.1953523 255 255 255
-5149.5088 998.41949 -6.4260941 255 255 255
-2400.4714 835.85138 -3.6622424 255 255 255
6910.0615 672.03851 9.2353697 255 255 255
-1292.3953 77.023514 -2.4232862 255 255 255
-3223.677 951.83484 -4.361712 255 255 255
308.85477 268.06058 0.53640693 255 255 255
277.92346 171.89227 0.50545424 255 255 255
81.226555 60.737988 0.14907604 255 255 255
103.74229 130.11142 0.22945355 255 255 255
-3550.4443 694.37897 -5.3456821 255 255 255
-4634.1323 793.9201 -6.288187 255 255 255
4659.3906 257.77005 8.9168415 255 255 255
8775.3145 -351.35257 9.677269 255 255 255
311.27988 272.70618 0.53984922 255 255 255
315.65601 274.88388 0.54547906 255 255 255
1907.1451 649.53137 1.5649908 255 255 255
-2552.6052 623.04156 -4.2739444 255 255 255
1922.2809 1656.0389 4.0445185 255 255 255
-1348.9899 -132.84341 -2.3716125 255 255 255
-3759.6169 723.15936 -5.5097737 255 255 255
3343.5073 1304.344 3.1522765 255 255 255
-46.000031 110.70802 -0.18605599 255 255 255
280.13266 174.12007 0.50825 255 255 255
-2360.5664 553.0307 -4.2096958 255 255 255
-18659.678 675.98022 -18.189445 255 255 255
-2969.3843 623.17059 -4.8374977 255 255 255
-2619.604 619.5567 -4.3749332 255 255 255
-4066.5469 809.64056 -5.5930204 255 255 255
312.36911 171.33276 0.84105021 255 255 255
15790.54 3952.2104 18.316246 255 255 255
-3483.2373 761.89612 -4.9373178 255 255 255
-3149.0784 483.67584 -4.6619072 255 255 255
-1529.0422 554.25415 -3.0275829 255 255 255
-1430.8474 576.53223 -2.858675 255 255 255
2799.8291 3558.1379 6.5523992 255 255 255
39163.266 1356.4382 52.068333 255 255 255
2485.2478 703.43262 3.210681 255 255 255
-105.56251 225.70361 -0.70294553 255 255 255
-2868.5999 351.94382 -6.0943289 255 255 255
122.7374 144.20824 0.2976526 255 255 255
191.43333 277.30933 0.51132715 255 255 255
707.55634 974.987 1.5734375 255 255 255
-1204.0171 -531.81726 -2.259958 255 255 255
-419.72534 -107.621 -1.3672191 255 255 255
57.495823 39.48185 0.11888081 255 255 255
-2924.1111 516.99054 -5.1884475 255 255 255
485.40982 360.6636 1.5310189 255 255 255
450.76587 138.1351 0.87428099 255 255 255
-2681.2234 489.37311 -4.93325 255 255 255
313.18427 279.59747 0.5422951 255 255 255
509.32666 146.96414 0.98975062 255 255 255
-3475.7568 857.69208 -4.8097491 255 255 255
-195.10374 594.10126 -0.4094432 255 255 255
138.63951 135.34885 0.26990622 255 255 255
-3135.1406 688.65796 -4.8395495 255 255 255
-4224.5039 939.2627 -5.4098039 255 255 255
-2251.0762 339.94632 -4.9935455 255 255 255
-2299.6587 546.28729 -4.1407351 255 255 255
-172.20862 220.40453 -0.6261006 255 255 255
114.716 125.391 0.27911666 255 255 255
-2262.3367 338.53442 -5.0175519 255 255 255
-22986.824 -13921.443 -32.236637 255 255 255
-2579.8933 645.29572 -4.2520952 255 255 255
-205.31236 448.80075 -0.40000221 255 255 255
-2479.1594 670.91998 -4.0567288 255 255 255
-2220.8076 823.21606 -3.4790483 255 255 255
7808.48 525.96039 12.243749 255 255 255
9512.8115 269.08798 17.874577 255 255 255
-6061.4019 970.68573 -7.1430826 255 255 255
5268.5493 1409.1121 5.3215227 255 255 255
357.46381 188.43015 0.62875599 255 255 255
-2534.4946 -959.65845 -3.9582632 255 255 255
-2296.3518 686.56775 -3.7971952 255 255 255
110.63409 122.52534 0.3174113 255 255 255
2369.1184 574.0874 1.8795708 255 255 255
-263.78394 24.999012 -1.5044196 255 255 255
-3770.4817 691.29126 -5.514153 255 255 255
95.768005 98.717636 0.2347085 255 255 255
-35.29192 81.877464 -0.43691146 255 255 255
-20.440836 63.348942 -0.24568294 255 255 255
-58.628208 97.945053 -0.85449415 255 255 255
229.13797 379.60361 0.58075982 255 255 255
-71.853157 147.06808 -0.12185814 255 255 255
51.057014 38.633457 0.093651839 255 255 255
-5170.2148 953.77441 -6.3270636 255 255 255
115.30789 36.527149 0.21574265 255 255 255
118.672 -6.5335102 0.10557585 255 255 255
3201.0818 608.43213 4.4748735 255 255 255
778.41119 589.69421 1.0762489 255 255 255
427.17508 199.9693 0.7592783 255 255 255
-1886.6666 560.89667 -3.5160472 255 255 255
431.81772 518.24567 0.86810988 255 255 255
2216.9873 -15.379039 1.9243391 255 255 255
-3562.2288 1134.8318 -4.4073038 255 255 255
-71.87545 113.56528 -0.084690258 255 255 255
-49738.977 -84282.461 -142.30589 255 255 255
1929.4506 1262.0996 2.4224374 255 255 255
74.408752 10.359504 0.063975714 255 255 255
74.490158 106.82819 0.17782071 255 255 255
430.88455 205.53773 0.7624585 255 255 255
3873.3 3617.6479 5.9382119 255 255 255
106.66176 9.7096472 0.092404731 255 255 255
-7243.2915 -4564.2705 -13.160479 255 255 255
-13.12945 98.741913 -0.39461687 255 255 255
-97.802444 156.76535 -0.15040818 255 255 255
251.4418 354.7431 0.69345474 255 255 255
1152.4972 -147.69519 1.3553185 255 255 255
-3423.3958 -1693.3583 -5.365315 255 255 255
240.69476 320.36826 0.54246312 255 255 255
-71.191406 158.69591 -0.093106054 255 255 255
256.90356 94.665375 0.50106621 255 255 255
-130.29718 -145.83014 -1.2423695 255 255 255
-5212.7871 890.77783 -6.5648789 255 255 255
96.353302 100.53259 0.19196694 255 255 255
-52.92218 153.64195 -0.73127615 255 255 255
158.23567 205.70888 0.322391 255 255 255
-140.75481 218.34416 -0.71616906 255 255 255
-1602.9928 6.748764 -2.9104476 255 255 255
146987.11 3175.7417 194.32903 255 255 255
-67.071564 120.57606 -0.1733726 255 255 255
2208.5713 560.56079 1.7551416 255 255 255
-2669.0881 658.1828 -4.3384566 255 255 255
-281.53854 426.58627 -0.33320969 255 255 255
-1989.1661 -2149.23 -4.862288 255 255 255
109.49262 44.776989 0.20804556 255 255 255
5026.6719 1533.3552 4.8972783 255 255 255
209.94835 147.91035 0.35418379 255 255 255
4645.936 2023.6554 4.0821071 255 255 255
-5890.3267 -623.2121 -8.9402733 255 255 255
3166.6301 1591.0099 2.932734 255 255 255
33497.82 30568.346 67.003639 255 255 255
18.115894 368.49704 -0.46006203 255 255 255
-198.33231 415.64175 -0.32954419 255 255 255
-3088.3286 -3485.1812 -7.2100968 255 255 255
-1600.762 -186.78522 -3.0305161 255 255 255
2758.4824 1367.2562 4.6134343 255 255 255
2321.8042 564.05615 1.846119 255 255 255
109.231 128.0287 0.28796256 255 255 255
4109.502 -133.15652 3.856775 255 255 255
-8230.0947 -9638.7461 -17.401871 255 255 255
-2869.9023 -3125.2175 -23.867493 255 255 255
-3067.2432 340.5119 -6.6264634 255 255 255
-77.343582 129.69443 -0.16091524 255 255 255
214.77505 64.256569 0.411948 255 255 255
406.33994 120.4145 0.69228297 255 255 255
-2668.7546 264.88821 -4.3427577 255 255 255
1596.6759 529.28137 2.2541041 255 255 255
-3620.1731 814.76959 -5.0758457 255 255 255
-1821.5317 -432.16086 -2.8828683 255 255 255
101.28709 108.85537 0.28718153 255 255 255
219.66161 124.20603 0.17023149 255 255 255
-4147.8145 805.1076 -5.7007022 255 255 255
559.81781 43.862461 1.1537079 255 255 255
-1308.918 40.22887 -2.228045 255 255 255
-6263.6421 814.20166 -7.9875221 255 255 255
207.11476 183.84113 1.0725069 255 255 255
-1191.7303 157.47678 -2.0617185 255 255 255
-1768.6196 -163.36296 -3.311377 255 255 255
-2677.6245 651.07166 -4.3611016 255 255 255
6957.3081 9882.4443 16.51572 255 255 255
-285.29282 386.47583 -0.37371236 255 255 255
-21798.154 420.98553 -28.412142 255 255 255
8.3185511 95.212105 -0.066231467 255 255 255
5941.6411 502.85547 9.3096066 255 255 255
-3994.4026 693.91443 -5.9097953 255 255 255
2806.3562 -276.64487 3.8084979 255 255 255
-2676.0693 991.82135 -3.7418933 255 255 255
-3490.1099 686.6673 -5.2989535 255 255 255
-2358.5935 377.21182 -3.1010873 255 255 255
2276.7888 772.34894 1.8667361 255 255 255
-5063.897 1241.5632 -5.5714798 255 255 255
-9512.6094 -7996.9165 -18.26531 255 255 255
796.21283 922.62195 1.5873277 255 255 255
4049.6743 499.84875 6.2244306 255 255 255
-280.51831 392.99716 -0.36903477 255 255 255
-8689.6631 1115.8652 -8.883812 255 255 255
-129.18933 466.92957 -0.52214742 255 255 255
3464.6306 558.11896 5.0354939 255 255 255
74.553062 84.108986 0.16008627 255 255 255
1726.0664 349.95697 2.866256 255 255 255
-4842 -318.28262 -6.8431211 255 255 255
-3450.7285 954.91791 -4.5914083 255 255 255
109.98194 43.318192 0.20385689 255 255 255
-247.11234 371.32227 -0.35356838 255 255 255
-3370.9895 742.85321 -4.9787931 255 255 255
178.51497 190.70697 0.34610164 255 255 255
-182.06987 -22.381723 -1.1664089 255 255 255
-6410.4087 742.45215 -8.5177727 255 255 255
151.53633 137.68654 0.32781848 255 255 255
-6564.2817 756.99402 -8.5992575 255 255 255
-75.904053 170.83603 -0.8077876 255 255 255
-18086.447 2648.3379 -21.361195 255 255 255
1066.4904 590.82904 1.1019216 255 255 255
-2079.1467 788.93793 -3.3671601 255 255 255
104.92271 50.184235 0.20159982 255 255 255
1005.5314 1021.6765 2.169605 255 255 255
343.70007 477.22803 0.97881687 255 255 255
10401.356 8040.5557 18.752617 255 255 255
-10692.075 1119.0146 -10.321073 255 255 255
-1521.6815 -48.105671 -2.930321 255 255 255
222.29944 75.894524 0.38802838 255 255 255
-60.342499 114.60787 -0.8182072 255 255 255
-3442.8872 735.8667 -4.8414855 255 255 255
-3564.6804 521.13354 -6.1265354 255 255 255
-3598.2117 756.17566 -5.2062106 255 255 255
-280.64285 -119.84319 -1.3255142 255 255 255
-694.72467 -456.00793 -2.0310254 255 255 255
-17244.855 474.95636 -35.676243 255 255 255
-317.64047 -64.258209 -1.3711317 255 255 255
-5201.0254 978.82208 -6.2809567 255 255 255
-296.59976 -125.81632 -1.3463434 255 255 255
-6432.9409 365.54965 -13.417405 255 255 255
-2199.3643 520.29126 -4.0775423 255 255 255
3225.3047 609.69202 4.5031729 255 255 255
875.08282 623.56342 1.1811788 255 255 255
2662.5784 -28.537291 3.8157969 255 255 255
-3581.1067 717.92297 -5.3056474 255 255 255
-24629.42 371.51385 -29.549316 255 255 255
-4978.3687 125.47479 -6.0226665 255 255 255
-3084.7017 1008.5331 -4.1287475 255 255 255
-5301.2856 780.76367 -7.0845156 255 255 255
9836.1943 423.70676 16.590485 255 255 255
-12304.525 628.77734 -15.62756 255 255 255
-11267.729 619.07489 -14.780633 255 255 255
913.46472 -160.769 1.0101436 255 255 255
-113.04924 340.71423 -0.40595311 255 255 255
-67.073143 155.44505 -0.24233288 255 255 255
-3966.8606 480.28619 -7.0127206 255 255 255
-15850.783 2137.3113 -59.761887 255 255 255
-37734.75 2839.4387 -62.112778 255 255 255
-2628.9746 -150.01648 -4.6758404 255 255 255
-59.555195 102.61861 -0.47386792 255 255 255
-5296.228 772.66589 -7.124217 255 255 255
20901.131 -6898.1953 27.97998 255 255 255
-2364.6194 418.93057 -3.6355667 255 255 255
-3240.9504 941.18579 -4.3982987 255 255 255
-10125.629 673.79987 -12.974762 255 255 255
1999.2092 2725.7195 4.7536535 255 255 255
-2480.6172 708.31171 -3.9834161 255 255 255
11870.192 1645.173 12.192196 255 255 255
2642.6052 954.41455 4.3046641 255 255 255
-3108.8081 904.28046 -4.3197393 255 255 255
-348.75403 -453.54953 -1.9442489 255 255 255
-2489.1445 -970.7301 -4.0890031 255 255 255
-12079.961 3125.6304 -20.606926 255 255 255
-267.36371 -162.60181 -1.3713732 255 255 255
203.38383 202.78163 0.43586543 255 255 255
1152.3754 38.435413 1.2757816 255 255 255
-7573.1738 773.28198 -9.5625219 255 255 255
-1742.8549 209.53009 -2.9413126 255 255 255
-5425.4185 1099.3214 -6.1821952 255 255 255
1465.0264 -132.48438 1.7122382 255 255 255
-2234.5203 557.36389 -4.016057 255 255 255
-84.842407 321.93588 -0.34135708 255 255 255
-83.287231 188.91869 -0.67463583 255 255 255
-6755.0356 572.68353 -10.254514 255 255 255
197.35349 147.46159 0.35522854 255 255 255
-1484.2399 548.73871 -2.9758327 255 255 255
-6337.5522 1918.1128 -7.5125766 255 255 255
-22465.021 -374.68954 -36.762859 255 255 255
-155.43027 -56.376678 -1.1247808 255 255 255
-23657.08 -7519.6948 -45.48806 255 255 255
-6010.7798 713.91486 -8.2174807 255 255 255
-43.479225 106.96745 -0.82086986 255 255 255
6706.7041 1617.4011 6.9376154 255 255 255
-13427.407 519.19061 -27.364313 255 255 255
-1428.061 -1574.4084 -3.7337377 255 255 255
154.58513 200.10048 0.31618264 255 255 255
83.287025 116.60103 0.19703114 255 255 255
2475.3201 1322.3051 1.9218391 255 255 255
-222133.41 -37397.598 -369.20981 255 255 255
2428.7122 590.89825 1.9233416 255 255 255
-3135.9729 686.01129 -4.8435254 255 255 255
77.997902 96.623215 0.16459177 255 255 255
2640.8264 1681.4445 2.5094247 255 255 255
95.806091 46.158421 0.16303122 255 255 255
-230.05148 471.84317 -0.36318117 255 255 255
223.63191 124.1925 0.17368066 255 255 255
5152.5938 1397.1851 5.2195406 255 255 255
98.594368 113.81975 0.22024165 255 255 255
-3453.3276 322.60782 -7.634254 255 255 255
51865.18 1541.96 69.134926 255 255 255
1644.6984 146.96867 3.5641184 255 255 255
309.49789 274.15543 0.53716069 255 255 255
4003.9956 1330.829 4.0817881 255 255 255
130.0287 129.57146 0.26074907 255 255 255
-1230.3756 -998.75916 -3.2386262 255 255 255
50347.43 50115.125 89.496666 255 255 255
61029.547 1778.4387 80.713722 255 255 255
113.7429 144.80936 0.26203242 255 255 255
1811.6671 1783.8945 3.4445915 255 255 255
3986.667 1330.3884 4.067019 255 255 255
-3140.323 689.58191 -4.8476858 255 255 255
-117.50769 223.52257 -0.72226393 255 255 255
70.276932 116.69936 0.0721258 255 255 255
147.25476 152.4435 0.1687849 255 255 255
14791.802 1802.0781 12.441125 255 255 255
1070.0042 181.76178 2.1294692 255 255 255
776.33368 810.25922 1.5546976 255 255 255
331.13605 70.569672 0.68199849 255 255 255
-3358.9026 668.55151 -5.1902528 255 255 255
-88.391663 322.97473 -0.68563217 255 255 255
-2049.084 430.54196 -4.1593919 255 255 255
3552.8989 1531.9371 2.8128333 255 255 255
1930.3488 1662.9957 4.0579662 255 255 255
-12.899058 391.26572 -0.57854635 255 255 255
123.92227 46.487366 0.22272572 255 255 255
63.591652 66.897614 0.12638563 255 255 255
-340.77563 70.176575 -1.5780113 255 255 255
-1424.7057 573.54242 -2.8537502 255 255 255
-67.474358 138.41493 -0.1119726 255 255 255
-240.47302 -174.9171 -1.439485 255 255 255
108.68191 135.77681 0.22904554 255 255 255
3815.5171 1709.8975 3.5504329 255 255 255
180.94014 236.57639 0.54881388 255 255 255
278.92386 355.20633 0.61919767 255 255 255
267.15268 90.056107 0.52504188 255 255 255
-259.8002 472.68512 -0.34469208 255 255 255
948.92853 -66.963165 0.86629987 255 255 255
-71.791763 405.3053 -0.36046401 255 255 255
84.612564 35.406502 0.14733776 255 255 255
-137.96387 210.82468 -0.73910302 255 255 255
-130.09169 202.00038 -0.15279037 255 255 255
-2666.3179 657.74213 -4.3339872 255 255 255
7117.043 792.48077 6.1611071 255 255 255
313.56821 279.67255 0.54281062 255 255 255
484.46091 359.41052 1.5277678 255 255 255
2343.4004 -87.742401 2.079972 255 255 255
811.45782 244.72511 1.4356906 255 255 255
112.64041 141.90625 0.24108453 255 255 255
-318.56378 36.983559 -1.3920026 255 255 255
-48970.793 -63.692764 -63.827557 255 255 255
11752.424 343.6644 20.895716 255 255 255
2165.9089 737.71423 2.7228782 255 255 255
6112.5864 2099.8689 5.2520185 255 255 255
866.7359 934.13043 1.7886569 255 255 255
-78.090759 283.60938 -0.20548475 255 255 255
221.45616 123.03123 0.1871554 255 255 255
430.19342 205.23317 0.76019514 255 255 255
2434.9829 887.99371 2.0080268 255 255 255
508.35822 148.05434 0.98609209 255 255 255
-2699.0103 659.17902 -4.3681545 255 255 255
3792.7368 1696.8036 3.5390584 255 255 255
-1633.6813 -566.40936 -3.1716633 255 255 255
-309.0755 440.86264 -0.36904779 255 255 255
4680.3975 260.70645 8.9574404 255 255 255
5103.1816 -247.82506 5.6154084 255 255 255
5819.2837 1392.3124 4.8024201 255 255 255
-58.809319 170.94266 -0.08463341 255 255 255
-2762.251 666.82642 -4.4289322 255 255 255
315.72687 274.9856 0.54544944 255 255 255
90.783813 115.97372 0.21779838 255 255 255
767.52386 581.32721 1.0654454 255 255 255
202.66232 123.25524 0.55854565 255 255 255
-644.03314 -251.22218 -1.7412713 255 255 255
-44.880371 101.13697 -0.07803119 255 255 255
-195.24486 403.96805 -0.32598951 255 255 255
5364.9717 1419.5188 5.4145198 255 255 255
258.93842 243.25204 1.5563362 255 255 255
272.37085 88.796844 0.53746378 255 255 255
-99.169739 226.15079 -0.4423365 255 255 255
157.81845 187.72971 0.33598965 255 255 255
-111.53554 377.82828 -0.5883171 255 255 255
-48.476723 89.43679 -0.066007711 255 255 255
-162.90314 515.30328 -0.34245318 255 255 255
7427.4155 11239.542 19.999977 255 255 255
62.575748 76.736481 0.33465296 255 255 255
145.28098 133.89278 0.27699792 255 255 255
-4388.6929 316.51413 -9.5273924 255 255 255
2338.584 593.15839 1.807466 255 255 255
-236.00256 -147.36694 -1.395901 255 255 255
309.00705 268.3414 0.53669393 255 255 255
-787.68372 -656.59503 -2.3447556 255 255 255
-246.11711 -149.00131 -1.4098758 255 255 255
173.92659 211.88841 0.35088944 255 255 255
449.13669 137.74524 0.87156916 255 255 255
2023.3179 2777.0276 4.8290677 255 255 255
1607.9182 827.25 1.9300516 255 255 255
-486.18839 -146.83551 -1.5834221 255 255 255
23723.287 30730.926 57.666061 255 255 255
-91.974556 141.89362 -0.39631423 255 255 255
4089.939 1649.9319 3.84776 255 255 255
34.593803 126.7905 0.0011156723 255 255 255
-142.2943 255.26524 -0.65179908 255 255 255
-18014.941 680.09937 -17.979591 255 255 255
-151.28183 366.68826 -0.36655316 255 255 255
-76.2295 186.34035 -0.7876423 255 255 255
314.039 269.54962 0.54408234 255 255 255
285.25641 366.9158 0.87061787 255 255 255
253.94789 126.36515 0.47882867 255 255 255
2555.6091 1207.719 2.6828477 255 255 255
-70.985741 184.45529 -0.28667375 255 255 255
3186.3398 1517.4503 3.0897682 255 255 255
355.2261 142.40555 0.27358678 255 255 255
316.87787 173.99586 0.76612765 255 255 255
-1449.4181 354.05707 -3.3796589 255 255 255
-94.490982 372.08566 -0.37779412 255 255 255
112.49514 73.575951 0.08500427 255 255 255
-286.57474 411.97244 -0.34455225 255 255 255
156.74895 104.12572 0.1206659 255 255 255
-5220.9663 892.08783 -6.5743809 255 255 255
164.79242 87.324165 0.13052328 255 255 255
41990.277 1375.7174 56.042038 255 255 255
-112.0441 -110.97937 -1.3417951 255 255 255
-1942.837 -271.91498 -3.6767137 255 255 255
433.75717 139.82816 0.83538687 255 255 255
1058.2878 522.62811 1.4770069 255 255 255
188.76181 186.77608 0.41496649 255 255 255
865.22522 628.54016 1.1671965 255 255 255
75.783882 70.856148 0.15404798 255 255 255
-54.697651 155.80646 -0.7439301 255 255 255
7398.4043 2281.4646 6.3163896 255 255 255
-95.504303 199.97026 -0.12401748 255 255 255
-18693.174 660.17078 -18.391354 255 255 255
7420.8896 2282.0059 6.3433542 255 255 255
49115.887 1551.2102 65.013481 255 255 255
-251.22231 88.133408 -0.95450741 255 255 255
3070.9924 1077.0944 3.3721924 255 255 255
132.73729 115.0899 0.25070009 255 255 255
-125.17391 299.483 -0.30120438 255 255 255
115.98857 128.84476 0.2489969 255 255 255
3348.6521 1307.0336 3.1574423 255 255 255
280.56644 174.63449 0.50901252 255 255 255
-1390.4248 -1136.7267 -3.674211 255 255 255
95.879448 98.849205 0.20600237 255 255 255
-2618.3904 619.58466 -4.3750315 255 255 255
3721.2478 -623.67542 5.1349711 255 255 255
155.93336 135.98637 0.31268132 255 255 255
4476.4321 1037.8527 5.1030278 255 255 255
-1612.5276 374.99274 -3.6113892 255 255 255
139.30409 113.17221 0.7730248 255 255 255
135.43782 114.63134 0.26758561 255 255 255
-10759.602 1318.1948 -14.158183 255 255 255
256.98572 94.697495 0.50126034 255 255 255
2794.1487 955.79401 2.2903814 255 255 255
5103.0723 1396.6416 5.1590424 255 255 255
139.02831 68.940193 0.1029641 255 255 255
114.23457 59.969372 0.22119761 255 255 255
480.69968 67.082481 0.87737966 255 255 255
-59.779396 253.83911 -0.59635651 255 255 255
-131.89325 -145.72816 -1.2733419 255 255 255
-3404.6511 420.23602 -6.5451651 255 255 255
589.13641 348.89651 2.8580012 255 255 255
-2408.7048 692.48389 -3.9242594 255 255 255
2313.4387 331.85419 4.0143781 255 255 255
877.88354 436.22333 0.794236 255 255 255
-2961.2363 621.46875 -4.8254485 255 255 255
-60.896957 110.00114 -0.16842878 255 255 255
-2852.3152 839.29199 -4.154706 255 255 255
-2143.2642 348.62012 -3.8723125 255 255 255
610.82965 869.16583 1.4467953 255 255 255
284.27234 -38.868256 0.31534117 255 255 255
5826.5156 317.6434 10.521536 255 255 255
93.669304 117.30811 0.21350871 255 255 255
-1758.9557 -535.43549 -3.3240321 255 255 255
115.54094 36.408222 0.216078 255 255 255
-1569.0699 -380.4201 -2.7464979 255 255 255
-508.88092 -209.31546 -1.5005029 255 255 255
262.5062 128.13928 0.49416155 255 255 255
-30.61887 66.994881 -0.36820647 255 255 255
-9868.3369 428.17587 -14.462214 255 255 255
-2744.1829 -94.106911 -3.956038 255 255 255
-2883.531 354.04184 -6.1266141 255 255 255
-1576.2504 146.65445 -2.4377885 255 255 255
5837.5239 2018.5453 5.1514168 255 255 255
-2178.0964 830.54254 -3.4220734 255 255 255
166.69106 87.915146 0.13039914 255 255 255
-58.739529 126.22789 -0.85630542 255 255 255
-11173.019 664.70209 -14.120322 255 255 255
-84.311493 141.2567 -0.7863667 255 255 255
-57.170341 108.81715 -0.88038248 255 255 255
-2481.4878 670.6922 -4.0606918 255 255 255
-31322.1 590.38721 -62.71796 255 255 255
102.79915 113.22772 0.2431944 255 255 255
113.33782 60.987247 0.21974754 255 255 255
-2959.96 868.97418 -4.2256384 255 255 255
79.607674 108.1716 0.21704173 255 255 255
2602.1199 316.86014 4.6094389 255 255 255
1090.7964 532.2981 1.8452801 255 255 255
-95.814835 -80.348351 -1.1551317 255 255 255
117.33505 41.834061 0.19182104 255 255 255
-2294.9883 686.04254 -3.7959609 255 255 255
451.96317 278.21475 1.4033 255 255 255
12176.423 17120.576 28.778584 255 255 255
-130.04645 205.90515 -0.16360548 255 255 255
501.25491 47.934155 0.58090663 255 255 255
-287.01016 -171.41983 -1.5137166 255 255 255
79.882156 105.51833 0.18063428 255 255 255
84.015396 45.039841 0.10953885 255 255 255
-1529.9724 554.19702 -3.0286527 255 255 255
-277.52975 -203.52808 -1.4207414 255 255 255
-33.2187 408.18732 -0.5081901 255 255 255
-6179.0264 1051.0101 -7.001348 255 255 255
-4227.75 940.96509 -5.4164581 255 255 255
-144.13289 218.00719 -0.67887795 255 255 255
-52.525845 306.26144 -0.33851749 255 255 255
8133.0708 302.2774 15.041508 255 255 255
11801.485 16356.97 27.677647 255 255 255
-3474.8806 855.58575 -4.8112931 255 255 255
2519.2361 4338.7808 8.1947699 255 255 255
-5749.1377 -1490.5756 -7.4694772 255 255 255
-9971.1094 673.42224 -12.789472 255 255 255
192.80334 151.81206 0.86642033 255 255 255
94.32164 33.739231 0.17571008 255 255 255
-85.403015 158.07362 -0.73515922 255 255 255
-371.0274 -64.411354 -1.3951585 255 255 255
3059.4443 -276.27002 10.795324 255 255 255
-3624.448 270.85754 -6.2979918 255 255 255
-3639.6848 689.38239 -5.4879646 255 255 255
-23.762087 67.523079 -0.28295729 255 255 255
-20076.281 498.81549 -40.677174 255 255 255
-49.261684 110.79011 -0.2002815 255 255 255
-19492.58 279.10431 -27.672539 255 255 255
-4195.4785 353.00513 -8.7778397 255 255 255
5671.8081 384.82141 9.7486715 255 255 255
44.143063 40.238083 0.094083257 255 255 255
505.47723 148.45198 0.97858745 255 255 255
2376.4355 1336.8868 4.1721258 255 255 255
-3169.1079 741.98566 -4.7331905 255 255 255
3300.603 1553.0099 5.4912314 255 255 255
469.263 -38.788486 3.5613358 255 255 255
120.10084 121.17548 0.24382165 255 255 255
-255.16714 -229.26764 -1.4568154 255 255 255
12136.89 335.50821 21.755711 255 255 255
-79.914871 147.75491 -0.10462858 255 255 255
-2575.7524 644.81427 -4.2458568 255 255 255
-260.4537 -151.64084 -1.3136095 255 255 255
-4946.3711 935.10876 -6.1530423 255 255 255
-145.28491 -118.63912 -1.2243128 255 255 255
-1557.0018 377.26016 -3.4995093 255 255 255
3497.7178 565.51135 5.084631 255 255 255
-1800.4297 201.35353 -2.6624341 255 255 255
-4125.0811 1035.9027 -5.5206347 255 255 255
1585.5996 524.77502 2.2405136 255 255 255
424.9324 340.78024 0.69000655 255 255 255
-4575.3843 781.14526 -6.2568541 255 255 255
-6769.5972 381.58493 -9.2019854 255 255 255
1581.1471 678.57324 2.6353843 255 255 255
-2493.4097 216.50232 -3.3088951 255 255 255
460.74701 135.04037 0.90092731 255 255 255
1794.0374 322.39996 3.0890119 255 255 255
410.23138 147.94534 1.0999323 255 255 255
-4110.0312 912.92676 -5.3546271 255 255 255
-321.9512 -330.36542 -1.6646844 255 255 255
-5298.0405 772.96863 -7.1280608 255 255 255
-153.85347 -38.822861 -1.1720703 255 255 255
-12179.92 623.14594 -15.481771 255 255 255
12.687366 143.02463 -0.54356843 255 255 255
1875.0312 665.66504 2.4375033 255 255 255
6156.6279 252.8537 9.9547396 255 255 255
91.840645 108.00429 0.18186204 255 255 255
-61.403709 -72.729996 -1.1288022 255 255 255
3835.6738 1592.1094 4.4332809 255 255 255
-69.790115 98.408325 -0.85306627 255 255 255
83.935165 114.7346 0.23680811 255 255 255
-136.28969 -151.86003 -1.27563 255 255 255
83.13002 71.468086 0.17128401 255 255 255
-4252.5361 831.25616 -5.7267814 255 255 255
98.586433 48.768963 0.19805188 255 255 255
-75.785828 257.448 -0.4777585 255 255 255
-1630.4225 -493.52222 -3.0781682 255 255 255
107.46549 57.625561 0.18194498 255 255 255
117.61049 130.15802 0.30169821 255 255 255
-1754.8596 -539.10681 -11.989279 255 255 255
81.62767 50.555882 0.17566794 255 255 255
70.048393 59.498055 0.13363586 255 255 255
147.25313 173.86935 0.29827449 255 255 255
-7942.3354 1194.5647 -8.0216513 255 255 255
2143.7712 -30.328495 3.0308845 255 255 255
-2723.0161 436.01788 -3.3078997 255 255 255
360.61926 107.65322 0.69129831 255 255 255
179.91437 238.69101 0.70139307 255 255 255
1852.8815 157.63356 2.8908815 255 255 255
-435.9791 -276.56213 -2.0547581 255 255 255
-1491.6104 46.140194 -2.4378283 255 255 255
175.99866 211.67912 0.34767959 255 255 255
-2400.0608 835.16254 -3.6618774 255 255 255
-239.71147 -33.149673 -1.4786695 255 255 255
-2957.0317 805.065 -4.3414202 255 255 255
16077.379 -4234.1055 25.431341 255 255 255
2629.325 -242.87283 3.1129088 255 255 255
-2991.3066 939.82257 -4.1377745 255 255 255
-3562.0149 1134.2418 -4.4078803 255 255 255
111.58413 121.89265 0.23088619 255 255 255
4044.8621 500.2702 6.2183275 255 255 255
-4085.6279 962.89343 -5.2151322 255 255 255
-1897.0186 90.776184 -2.5191538 255 255 255
-433.61066 -370.13013 -2.103523 255 255 255
-31.155518 56.833336 -0.31819192 255 255 255
-2506.71 786.08044 -3.862139 255 255 255
-289.19089 -74.341652 -1.2379016 255 255 255
-2305.8447 258.38861 -3.3138366 255 255 255
-2502.3892 436.32599 -3.8139658 255 255 255
-3084.5342 276.47708 -3.8816545 255 255 255
-57.721622 131.14262 -0.18222058 255 255 255
20246.898 473.14505 33.656281 255 255 255
-1830.0719 774.22241 -3.1011736 255 255 255
-2681.8999 993.41565 -3.7492101 255 255 255
-18422.645 691.73578 -17.981342 255 255 255
52629.562 1573.2684 70.12941 255 255 255
-4444.7598 -2396.6421 -8.1280994 255 255 255
313.22464 279.39755 0.54236627 255 255 255
58295.523 1683.6646 77.08532 255 255 255
-2680.4766 652.74945 -4.3648629 255 255 255
-37883.445 162.79945 -49.539101 255 255 255
-141.88596 295.3735 -0.31538334 255 255 255
-1136.5868 -673.49799 -6.3757167 255 255 255
-53.432858 99.271263 -0.52173036 255 255 255
90.5205 103.9078 0.22493073 255 255 255
25589.561 19528.01 36.138432 255 255 255
-509.40527 -264.4295 -1.6140202 255 255 255
428.66467 204.87845 0.75751454 255 255 255
119.34371 128.08147 0.24514519 255 255 255
192.70068 271.44943 0.44490576 255 255 255
18122.248 323.61755 32.308647 255 255 255
173.69492 -4.0581489 0.65207762 255 255 255
-231.4137 411.3125 -0.31645575 255 255 255
431.67838 207.2532 0.76141143 255 255 255
200.76691 61.321896 0.94829202 255 255 255
-11222.211 -15744.075 -27.34516 255 255 255
5608.5205 1607.1659 5.3920355 255 255 255
-1279.5636 -569.44849 -6.1222844 255 255 255
-900.51105 -526.89502 -2.8270726 255 255 255
-47.625301 139.12675 -0.21103281 255 255 255
3185.2866 1516.4584 3.0891142 255 255 255
-1586.618 -446.46762 -3.0980997 255 255 255
2020.554 2616.469 4.5323749 255 255 255
57.788769 77.676567 0.13678586 255 255 255
168.64502 205.22043 0.33626467 255 255 255
1069.5664 181.30013 2.1296301 255 255 255
4644.7227 2018.3531 4.0841308 255 255 255
91.423363 82.329605 0.18275799 255 255 255
1826.5079 2418.2556 4.143672 255 255 255
254.26059 126.63765 0.47954807 255 255 255
16.19116 15.931906 0.03406832 255 255 255
336.27997 19.769062 0.29698914 255 255 255
-1626.1982 -561.92371 -3.1586194 255 255 255
-93.330162 -126.47478 -1.2281882 255 255 255
132.34622 137.00751 0.28059214 255 255 255
-111141.83 -8159.8599 -96.230721 255 255 255
-4067.5769 -5136.2622 -10.574321 255 255 255
-43612.965 56.13406 -56.858925 255 255 255
1649.9982 148.62819 3.5751731 255 255 255
-1156.865 418.49695 -2.2497184 255 255 255
96.490219 151.16792 0.25613436 255 255 255
-8172.1528 384.74704 -17.204273 255 255 255
-146.09235 240.92972 -0.50275958 255 255 255
1974.5277 2697.4707 4.5875058 255 255 255
309.56937 274.75168 0.53749675 255 255 255
136.72484 216.96167 0.39333773 255 255 255
100.13233 119.54984 0.21726058 255 255 255
120.69905 187.17081 0.31735957 255 255 255
-504.7049 -237.77116 -1.7543145 255 255 255
-4047.9287 -5266.2017 -9.8460732 255 255 255
121.01807 169.30836 0.3175582 255 255 255
-636.25092 -290.18549 -1.7638056 255 255 255
273.36481 114.45293 0.46046424 255 255 255
-230.42702 -77.977127 -1.2611836 255 255 255
76.897507 95.374901 0.18417922 255 255 255
-71.13636 184.3071 -0.28676352 255 255 255
2538.8875 -1055.3091 2.8590314 255 255 255
-2732.7434 658.72498 -4.4239235 255 255 255
-2714.3726 653.3576 -4.4016752 255 255 255
-10391.974 -3465.1672 -15.669106 255 255 255
916.9845 422.70517 1.3671702 255 255 255
-1984.8071 652.98761 -2.9908237 255 255 255
762.05005 574.02777 1.0600848 255 255 255
2102.866 2647.217 4.6469111 255 255 255
259.04068 373.17166 0.63681626 255 255 255
760.42407 570.49237 1.0598209 255 255 255
753.92407 371.99088 0.60011739 255 255 255
34163.531 -7626.998 37.168976 255 255 255
120.88702 122.94208 0.24587105 255 255 255
3070.0686 1075.5417 3.3711112 255 255 255
754.91644 568.16766 1.054425 255 255 255
-305.01251 -180.61041 -1.3951495 255 255 255
-3486.4451 -1069.4709 -5.8645205 255 255 255
-20.993738 79.133568 -0.36673468 255 255 255
4113.6616 1885.8496 3.7016032 255 255 255
147.02905 206.11331 0.35394064 255 255 255
4013.4507 1332.4653 4.0898523 255 255 255
-740.66986 -863.81787 -2.8579338 255 255 255
3982.4238 1326.7141 4.0647192 255 255 255
218.27498 276.75937 0.45199668 255 255 255
-102.5746 410.77887 -0.39294335 255 255 255
-2730.5928 666.47321 -4.3954535 255 255 255
79.503128 108.5423 0.18993075 255 255 255
-115.20075 180.60545 -0.14052014 255 255 255
3615.0012 1598.89 2.9278491 255 255 255
1105.0638 656.12549 1.1564614 255 255 255
316.96213 273.80167 0.54772812 255 255 255
-117.49959 199.03828 -0.14179005 255 255 255
13507.602 349.66818 24.045378 255 255 255
-237.14061 394.24786 -0.31170616 255 255 255
-761.65045 -637.69757 -2.3545156 255 255 255
-320.63196 39.981934 -1.3960373 255 255 255
47720.82 1492.0524 63.130329 255 255 255
-51.992462 129.36734 -0.64852697 255 255 255
-262.96304 -101.70255 -1.4618388 255 255 255
-58.438683 103.28338 -0.8731333 255 255 255
4340.1289 1942.8988 3.8603458 255 255 255
106.51318 69.045952 0.20069356 255 255 255
13665.298 344.18753 24.205456 255 255 255
873.29358 623.31958 1.1794951 255 255 255
316.48587 278.93243 0.54687166 255 255 255
