ply
format ascii 1.0
comment PCL generated
element vertex 1004
property float x
property float y
property float z
property uchar red
property uchar green
property uchar blue
element face 0
element camera 0
property float view_px
property float view_py
property float view_pz
property float x_axisx
property float x_axisy
property float x_axisz
property float y_axisx
property float y_axisy
property float y_axisz
property float z_axisx
property float z_axisy
property float z_axisz
property float focal
property float scalex
property float scaley
property float centerx
property float centery
property int viewportx
property int viewporty
property float k1
property float k2
end_header
0.50975281 0.40159899 0.0012760089 255 255 255
0.50286382 0.36312887 0.0012759764 255 255 255
0.87926269 0.1468585 0.0013372108 255 255 255
0.55450225 -0.22318937 0.00036892851 255 255 255
0.74561089 0.39307198 0.0013112462 255 255 255
0.23655774 -1.3227279 -0.0019893982 255 255 255
-1.6332046 -6.8452053 -0.0099327285 255 255 255
0.82576895 0.076717637 0.0013294914 255 255 255
0.82177722 0.2427682 0.0013277741 255 255 255
0.88258386 0.84833312 0.0013001786 255 255 255
0.16858099 -0.034965724 0.0012151245 255 255 255
0.74298018 0.05213977 0.0013179881 255 255 255
0.24040496 -1.2775751 -0.0017919716 255 255 255
0.23592128 0.096527949 0.0012343874 255 255 255
0.25858256 0.15819339 0.0012390779 255 255 255
0.66324377 0.13669495 0.0013065367 255 255 255
0.80332315 0.18597715 0.0013263827 255 255 255
0.92021364 0.65522021 0.0013191159 255 255 255
0.50685114 0.36751288 0.001276868 255 255 255
1.0923673 0.18907338 0.0015842161 255 255 255
1.2183331 0.46426293 0.0019102156 255 255 255
0.21787672 0.13197738 0.0012324095 255 255 255
0.95925111 0.098362453 0.0013761035 255 255 255
0.17486991 -0.029585777 0.0012163192 255 255 255
0.96471351 0.50739878 0.0013361629 255 255 255
1.1014518 0.3373504 0.0013638845 255 255 255
0.17354831 -0.036132179 0.0012161455 255 255 255
0.42865002 0.38607413 0.0012636135 255 255 255
0.66250604 -0.012724389 0.00070035557 255 255 255
0.57582533 -1.252996 -0.0023826757 255 255 255
0.92493033 0.6581158 0.0013205478 255 255 255
0.76052076 0.15074372 0.00132124 255 255 255
1.655907 0.97603387 0.0028689504 255 255 255
0.74264359 0.39093128 0.0013110002 255 255 255
0.8868106 0.81155008 0.0013038651 255 255 255
0.94058806 0.13775651 0.0010301557 255 255 255
0.36878198 -0.60181296 -0.00031917443 255 255 255
0.53911209 0.039696954 0.0012865746 255 255 255
0.28793013 -1.6254832 -0.0028292928 255 255 255
0.20021215 0.18652825 0.0012307866 255 255 255
0.19190216 0.22737841 0.0012301265 255 255 255
0.76262879 0.032825001 0.0013202466 255 255 255
0.38315454 -0.94755125 -0.0011104475 255 255 255
0.92154408 0.65881175 0.0013201836 255 255 255
2.4628315 2.4576411 0.0064737755 255 255 255
0.48033342 0.73426849 0.0017213068 255 255 255
0.7249074 0.18853854 0.0013150272 255 255 255
0.5101772 2.3587439 0.0028566332 255 255 255
0.55941117 0.90735179 0.0013984581 255 255 255
0.87774104 0.17944884 0.0013370303 255 255 255
0.68649387 0.12322801 0.0013097363 255 255 255
0.22946371 -1.2282976 -0.0017417743 255 255 255
1.0670421 0.27435809 0.0017617004 255 255 255
1.1987313 0.46184132 0.0024683038 255 255 255
0.58642882 0.24446824 0.0012929366 255 255 255
0.40946293 0.2766979 0.0012651236 255 255 255
0.44829237 0.25883338 0.0012702437 255 255 255
0.80978012 0.18570864 0.0013278706 255 255 255
0.50885707 0.37181202 0.0012777295 255 255 255
0.75160897 0.28499633 0.0013711379 255 255 255
1.2273299 0.49021873 0.0020529456 255 255 255
0.69020414 0.13675962 0.0013102473 255 255 255
0.79628414 0.80949897 0.0012922959 255 255 255
0.86565328 0.55801314 0.001320725 255 255 255
0.30419722 -1.3083867 -0.0018930145 255 255 255
1.1508783 0.46482149 0.0015947887 255 255 255
0.66260159 0.0060228352 0.00070789305 255 255 255
0.71731293 0.14712892 0.0013142709 255 255 255
0.60816783 0.17961554 0.0012977957 255 255 255
0.69993734 0.028749648 0.0011299778 255 255 255
-1.5292748 -4.5412149 -0.0055729118 255 255 255
0.22045864 -0.7400142 -0.0006588854 255 255 255
0.68838704 0.13050219 0.0013101463 255 255 255
0.62876713 -0.25577569 0.00048390529 255 255 255
0.70925736 0.16604525 0.0013126422 255 255 255
1.2048758 0.70595717 0.0013557454 255 255 255
0.80532843 0.59460008 0.0013095682 255 255 255
0.79034126 0.21655655 0.001324672 255 255 255
-0.46960232 -3.6068699 -0.0056251478 255 255 255
0.51696801 -0.27096719 0.00038088663 255 255 255
0.93142039 0.0071575241 0.0013472084 255 255 255
0.47610292 -0.042570706 0.0013659849 255 255 255
0.43144915 1.8941189 0.0027884322 255 255 255
0.67151219 0.45857856 0.0013371217 255 255 255
0.66220695 0.12851575 0.0013063955 255 255 255
0.81616139 0.16631845 0.0015510455 255 255 255
1.1115688 0.75877148 0.0013383502 255 255 255
0.87175059 0.59979081 0.0023237504 255 255 255
0.87461632 0.12660801 0.0013987216 255 255 255
0.70306617 0.16126211 0.0013787154 255 255 255
0.61624092 0.38489336 0.0012928358 255 255 255
1.2793198 1.0524446 0.0032955655 255 255 255
0.14900313 0.033333797 0.00121784 255 255 255
1.2429328 0.31498885 0.0019484964 255 255 255
1.1096948 0.62625659 0.0025075739 255 255 255
0.81056035 0.43828139 0.0023224668 255 255 255
0.89443994 -0.04991816 0.001384975 255 255 255
0.44801471 -0.38106054 0.0001432079 255 255 255
0.58406299 0.1961493 0.0010947278 255 255 255
0.86798811 0.14736055 0.0014670917 255 255 255
0.28019348 -0.88689476 -0.0012395437 255 255 255
0.43487093 0.2962518 0.0018152078 255 255 255
1.3187246 0.79334813 0.0019882442 255 255 255
1.1037666 0.33267993 0.0013653314 255 255 255
0.590168 0.17812027 0.001035633 255 255 255
0.25879297 -0.13504592 0.00038993743 255 255 255
0.41024688 0.25359929 0.0012657768 255 255 255
0.23868021 0.21429406 0.001236366 255 255 255
0.73808974 -0.00073773816 0.0013158766 255 255 255
1.6314213 1.2998912 0.003786792 255 255 255
0.17256181 -0.026382152 0.0012159619 255 255 255
0.7385993 0.038774729 0.0013165111 255 255 255
0.63931322 0.27184957 0.001804686 255 255 255
0.56822467 0.3782908 0.0011072819 255 255 255
0.58577734 0.50120229 0.0012837849 255 255 255
0.76736498 0.14978738 0.0013219508 255 255 255
0.76571256 0.072095819 0.0014260632 255 255 255
0.74268913 0.16448914 0.0013182355 255 255 255
0.43560472 -0.14792696 0.00035243988 255 255 255
0.82671988 0.091310091 0.0013297871 255 255 255
0.26843014 -0.95776802 -0.0016542154 255 255 255
0.73660427 0.18813975 0.001316692 255 255 255
0.96001834 0.8755101 0.0013067875 255 255 255
0.80183238 0.24844244 0.0013246075 255 255 255
0.687199 -0.10279744 0.000841828 255 255 255
0.96444339 0.50626558 0.0013363566 255 255 255
0.93555492 0.878479 0.0013034464 255 255 255
0.78310788 0.063252591 0.001323328 255 255 255
0.57304507 0.47757843 0.0012830925 255 255 255
0.65663075 0.15954334 0.0013051511 255 255 255
0.77107877 0.0067160153 0.0013216074 255 255 255
0.76482254 0.13808285 0.0013215397 255 255 255
0.69668067 0.088061698 0.001310789 255 255 255
0.1706048 0.19531001 0.0012271163 255 255 255
0.97307473 0.32396662 0.0016774575 255 255 255
0.55421466 0.023194348 0.0012879062 255 255 255
1.3664387 0.91613668 0.0028593135 255 255 255
0.39764282 0.0090472093 0.0012597841 255 255 255
0.77029067 0.65689188 0.0021668638 255 255 255
0.8090232 0.24269038 0.0013260007 255 255 255
0.70939887 0.081490315 0.0013132298 255 255 255
0.82823777 0.034679681 0.0013303662 255 255 255
0.72154605 0.15813142 0.001612471 255 255 255
0.046081223 0.11238102 0.00120703 255 255 255
0.87131631 0.055893328 0.0012933748 255 255 255
0.28585058 0.25050291 0.0012443907 255 255 255
0.33836788 0.25356203 0.0012528792 255 255 255
0.68591928 0.086165085 0.0013092863 255 255 255
-6.6346617 -10.178603 -0.025858013 255 255 255
0.69285351 0.13547657 0.001311369 255 255 255
0.70654738 0.12197346 0.0013129369 255 255 255
0.77713019 0.35667366 0.0013162524 255 255 255
1.0612003 0.28039998 0.0020473059 255 255 255
1.6486006 1.0356604 0.0032323301 255 255 255
0.22831492 0.11225489 0.0012333224 255 255 255
0.30641198 -0.90675485 -0.0011942046 255 255 255
0.92654437 0.66224027 0.0013199049 255 255 255
0.85102606 0.93921828 0.0014033896 255 255 255
0.81357086 0.39062029 0.0017168415 255 255 255
0.43800804 0.35732937 0.0012660587 255 255 255
0.43022364 -0.13645625 0.0010088938 255 255 255
0.45340195 -0.17690732 0.00051181798 255 255 255
0.7227385 0.068486631 0.0010275941 255 255 255
0.9346717 0.14614758 0.0015819055 255 255 255
0.80838948 0.15847321 0.0013271142 255 255 255
0.91870707 0.22645742 0.0013415032 255 255 255
0.42970714 0.29804599 0.0012656626 255 255 255
0.56852114 -0.22691305 0.00081864791 255 255 255
1.0156535 0.40367824 0.0014310486 255 255 255
1.1006023 0.32737151 0.0013646606 255 255 255
1.1747429 0.33937275 0.002180218 255 255 255
0.21409333 0.10194212 0.0012307704 255 255 255
0.47559819 -0.16788873 0.0010420921 255 255 255
0.84210312 0.13529147 0.0013321225 255 255 255
0.95288259 0.20337394 0.0013662595 255 255 255
1.1794224 0.36523888 0.0020382137 255 255 255
1.0402473 0.80283844 0.0024914481 255 255 255
0.43890378 -0.049058251 0.001264982 255 255 255
0.97654331 0.22873122 0.0015712273 255 255 255
0.27030763 0.25894058 0.001555786 255 255 255
0.87847471 0.23606737 0.0014336627 255 255 255
0.82555842 0.15763426 0.001327419 255 255 255
0.91183722 0.23732899 0.0014369196 255 255 255
0.92811048 0.73855168 0.0021953429 255 255 255
0.8063221 0.15679345 0.0013270737 255 255 255
0.75341827 0.14150514 0.0013203606 255 255 255
-0.39617768 -3.0008671 -0.0057993089 255 255 255
0.9032113 0.3537268 0.0017399067 255 255 255
0.42109454 -0.10265036 0.00062941975 255 255 255
0.81756973 0.31595141 0.0013253011 255 255 255
0.15470971 0.091338754 0.0013121417 255 255 255
0.51144606 0.3193785 0.0012793103 255 255 255
0.94328904 0.49022821 0.0020392118 255 255 255
1.2334338 0.47899041 0.0019265434 255 255 255
0.38639829 -0.95443785 -0.0013284626 255 255 255
0.57414603 0.45643699 0.0012837223 255 255 255
0.78254825 0.12098392 0.0013235881 255 255 255
0.40620077 0.80811638 0.0016013244 255 255 255
0.78499317 0.2248309 0.0013228041 255 255 255
0.8309778 -0.024565671 0.0013308424 255 255 255
0.53682345 0.041994546 0.001286659 255 255 255
-0.78225511 -3.1044478 -0.003852918 255 255 255
0.82324392 0.29204783 0.0013272472 255 255 255
0.95965719 0.70978332 0.0013232674 255 255 255
1.0803022 0.4076148 0.0018912461 255 255 255
0.8143751 0.10614915 0.0013282973 255 255 255
0.5055514 1.2355775 0.0017235109 255 255 255
0.65952468 -0.10520932 0.00053013524 255 255 255
0.26097816 0.15906899 0.0012395335 255 255 255
0.63807511 0.12345406 0.0012409851 255 255 255
0.11359001 0.082968317 0.0012895117 255 255 255
-0.038146921 -1.3781043 -0.0022098583 255 255 255
0.93903261 0.83839422 0.0013086032 255 255 255
0.68750608 0.10127289 0.0013094513 255 255 255
0.17260301 0.20813502 0.0012272085 255 255 255
1.0533763 0.21327305 0.0015046753 255 255 255
0.87976384 0.6001423 0.0024151376 255 255 255
0.39564472 0.0074095167 0.0012596744 255 255 255
0.16896054 0.05561424 0.0010713367 255 255 255
0.61498618 0.095855623 0.0012980506 255 255 255
0.44950178 0.35405234 0.0011883627 255 255 255
0.85591197 0.03255694 0.0013341308 255 255 255
0.7856617 -0.051421467 0.00108878 255 255 255
0.75345975 0.39342996 0.001312983 255 255 255
0.71818513 0.1461001 0.0013150851 255 255 255
0.38987923 -0.23044007 0.00027581459 255 255 255
0.81156403 0.25459141 0.0013258434 255 255 255
0.93940556 0.84393704 0.001307387 255 255 255
0.70225137 0.17227238 0.001312068 255 255 255
0.75969255 0.022800528 0.0013182774 255 255 255
1.2140137 0.27368143 0.0018088686 255 255 255
0.97811174 0.2800585 0.0015776766 255 255 255
0.72673231 0.17397146 0.0013151668 255 255 255
0.84691733 0.054407358 0.0015894723 255 255 255
0.70104432 0.090751469 0.0015111216 255 255 255
0.77474076 0.52477801 0.0013090312 255 255 255
0.83612096 0.08149042 0.0013310768 255 255 255
0.92989063 0.73944634 0.0025438759 255 255 255
0.68247986 -0.15172289 0.0010772124 255 255 255
1.3000895 0.64628792 0.0025657893 255 255 255
1.0446765 0.28556332 0.0015509136 255 255 255
0.89763504 0.57518399 0.0013235467 255 255 255
0.59727001 0.46325976 0.0012866049 255 255 255
0.52742249 -0.25624481 0.00036255026 255 255 255
0.92024851 0.76830578 0.0013123419 255 255 255
0.18840508 0.28841251 0.0012301375 255 255 255
1.107154 0.62322897 0.0022528728 255 255 255
0.70228744 0.15885377 0.0013118364 255 255 255
1.0848511 0.55729425 0.0017972612 255 255 255
1.0329068 0.40797171 0.0019628303 255 255 255
0.5933525 0.75282186 0.0012697163 255 255 255
0.75148749 0.022981081 0.0013187727 255 255 255
1.1396408 0.39492875 0.0020250378 255 255 255
0.98268265 0.17217298 0.0013522244 255 255 255
1.207363 -0.018503638 0.0014010023 255 255 255
0.3831982 -0.93261755 -0.0011021317 255 255 255
0.72376525 0.16721554 0.0013152487 255 255 255
0.95254946 0.22074978 0.001846138 255 255 255
0.90294725 -0.023667891 0.0013419753 255 255 255
1.0756022 0.32990441 0.0013604271 255 255 255
0.74909294 0.10525218 0.0015988848 255 255 255
0.10540941 -0.024302963 0.0011074551 255 255 255
1.1980014 1.082383 0.002553778 255 255 255
0.73888612 0.13629735 0.0013180496 255 255 255
0.20657679 0.17176825 0.0012319138 255 255 255
0.93834603 0.87700844 0.0013039154 255 255 255
1.1970013 -0.0093414988 0.0013994379 255 255 255
1.4021897 0.57356846 0.0022630929 255 255 255
0.84268212 0.092184104 0.0013320132 255 255 255
0.73349255 0.57196903 0.0013010546 255 255 255
0.68197793 0.13849206 0.0013089225 255 255 255
1.0734783 0.059242729 0.001370445 255 255 255
0.83442509 0.12990613 0.0015262826 255 255 255
1.5373212 1.0962839 0.0036191682 255 255 255
-1.2993056 -5.9483175 -0.0084298123 255 255 255
1.0209523 0.29808283 0.0012740191 255 255 255
0.53888535 0.96565747 0.0017490891 255 255 255
0.92255378 0.1557755 0.0013432306 255 255 255
0.82551897 0.29559973 0.0015067339 255 255 255
0.80583042 0.59027958 0.0013103853 255 255 255
1.071584 0.32623234 0.0015637079 255 255 255
-2.0348377 -9.7751732 -0.017283022 255 255 255
0.75462663 0.09489359 0.0013194385 255 255 255
1.2102437 0.64245701 0.0024891829 255 255 255
0.4338347 0.059434451 0.0010030402 255 255 255
1.487838 1.0147648 0.0018398382 255 255 255
0.76545739 0.026485231 0.001320717 255 255 255
0.57744372 0.42337412 0.0012858665 255 255 255
0.78459722 -0.12620486 0.001187717 255 255 255
0.67002755 -0.036234487 0.0013054574 255 255 255
0.39226991 -1.5852314 -0.002735073 255 255 255
0.85238141 0.069985069 0.0013325021 255 255 255
0.67368031 0.23787037 0.00099661853 255 255 255
-0.38539675 -3.0964935 -0.0035017964 255 255 255
0.70542938 0.33344182 0.0011148358 255 255 255
0.86240935 0.18011431 0.0013346348 255 255 255
0.86156869 0.125632 0.0013349873 255 255 255
0.68588459 0.076009028 0.0013084051 255 255 255
0.86732644 0.13966018 0.0014303055 255 255 255
0.76987797 0.30895209 0.0013184471 255 255 255
1.7305669 1.6096925 0.0033034843 255 255 255
0.5014922 0.43014959 0.0012738844 255 255 255
0.89138138 0.0077630617 0.0013872593 255 255 255
1.2063631 0.7077769 0.0013559824 255 255 255
0.55213237 -0.23589174 0.00062378554 255 255 255
0.82100266 0.074858755 0.0012379045 255 255 255
0.76043373 0.14076291 0.0013212075 255 255 255
1.3538036 0.60334915 0.0025279045 255 255 255
0.44823617 -0.35593998 0.00017078246 255 255 255
1.2019938 -0.010775262 0.0014004695 255 255 255
0.73618692 0.034355402 0.0012432638 255 255 255
0.95344532 0.11935463 0.0013484922 255 255 255
0.56204259 0.40281659 0.0012591785 255 255 255
0.90865403 0.1323563 0.0011794489 255 255 255
0.56917113 -0.25759727 0.00088609348 255 255 255
0.83436 0.23306571 0.00092226482 255 255 255
0.68482476 0.029905066 0.0013079473 255 255 255
0.10302557 0.035233069 0.0012115258 255 255 255
0.82087684 0.059552211 0.0013287873 255 255 255
0.071039081 -0.0030606724 0.0012049995 255 255 255
0.80338615 0.19240481 0.0013264018 255 255 255
0.44704148 -0.084439144 0.0008424602 255 255 255
0.92805284 0.21802492 0.0013429793 255 255 255
1.3210934 0.72053421 0.0026846682 255 255 255
0.7788592 -0.01588683 0.0013225356 255 255 255
0.43069121 -0.20011233 0.00071465358 255 255 255
1.0379543 0.32358313 0.0020618769 255 255 255
1.0046968 0.43885911 0.0023342334 255 255 255
1.0734562 0.55634499 0.002303516 255 255 255
0.85091364 0.085399665 0.0015379575 255 255 255
0.53164923 0.051181093 0.0008383235 255 255 255
0.91016996 0.17556083 0.001624878 255 255 255
1.1826704 0.41630629 0.0023335549 255 255 255
0.99668103 0.86743689 0.0013121269 255 255 255
0.51570427 0.46303919 0.0012742275 255 255 255
1.0506796 0.49531457 0.0020789588 255 255 255
0.30632639 0.19181164 0.00095983478 255 255 255
-0.49529794 -5.5511827 -0.010514826 255 255 255
1.0343343 0.074562714 0.0013626254 255 255 255
0.58115864 0.19297773 0.00098026672 255 255 255
0.249217 0.030447938 0.0012343619 255 255 255
0.51044482 -0.076653913 0.0013524691 255 255 255
1.0324913 0.10015988 0.0013616675 255 255 255
0.78612119 0.11660287 0.0014265773 255 255 255
0.66561455 0.014280229 0.0013053296 255 255 255
0.80639255 0.39185312 0.0013403513 255 255 255
0.83127689 0.079851449 0.001330381 255 255 255
0.92376333 0.69433558 0.0013172127 255 255 255
1.0230365 0.014135811 0.0013630382 255 255 255
0.71409893 0.2230538 0.0012750244 255 255 255
0.91696239 0.029210236 0.0013443115 255 255 255
1.5817045 1.0628742 0.003373022 255 255 255
0.79273319 0.4833093 0.0013139886 255 255 255
0.91307193 0.0093474779 0.001344162 255 255 255
0.87162578 0.30632028 0.001649954 255 255 255
0.88879836 0.53066796 0.0017687557 255 255 255
0.11792301 0.054531258 0.0012141673 255 255 255
0.89901716 0.19328211 0.0016388301 255 255 255
0.86758018 0.10603742 0.0013357501 255 255 255
1.2559849 0.66799074 0.0013665049 255 255 255
1.5481744 0.75287193 0.0018061374 255 255 255
0.26589784 0.82628608 0.0022374308 255 255 255
0.39075786 -0.95248097 -0.0011766832 255 255 255
0.8125003 0.60618114 0.0018617179 255 255 255
0.61080158 0.48415142 0.0012880595 255 255 255
-1.4734863 -10.61605 -0.016438484 255 255 255
0.41606915 -0.86801684 -0.00084189215 255 255 255
0.15663525 1.9323405 0.0042992979 255 255 255
0.93936491 0.5015856 0.0013337983 255 255 255
0.75514138 0.1452145 0.0013204216 255 255 255
0.84098029 0.056347579 0.0013319961 255 255 255
0.62817556 0.51791251 0.0012889507 255 255 255
0.65911025 0.57116872 0.0015394753 255 255 255
0.87737209 0.052265208 0.0013370853 255 255 255
0.81070101 0.12303054 0.0012195309 255 255 255
0.61807382 0.0075759767 0.0012966323 255 255 255
0.73774314 0.67607778 0.0012941426 255 255 255
0.43679503 -0.050868157 0.0012643876 255 255 255
0.31843668 1.5622879 0.0027195145 255 255 255
0.5323509 0.1403362 0.00090408151 255 255 255
1.1273223 0.2041662 0.0013791597 255 255 255
0.79454476 0.086356729 0.0013253886 255 255 255
0.57183659 0.036966056 0.0012889361 255 255 255
0.9996292 0.23100783 0.001352725 255 255 255
1.0616738 0.046195712 0.0013685027 255 255 255
0.79648364 0.80791628 0.0012925285 255 255 255
0.64241129 0.049023695 0.0013633457 255 255 255
0.43188649 -0.11115566 0.0011466296 255 255 255
0.78982288 0.21612075 0.0013237093 255 255 255
0.43799543 0.3569518 0.0012658086 255 255 255
0.19201192 0.24737622 0.0012299279 255 255 255
0.60528171 -0.23257746 0.00036965075 255 255 255
0.3616986 -1.2387203 -0.0016408508 255 255 255
0.40811431 0.29086551 0.0012645238 255 255 255
0.74284625 0.052065231 0.0013175223 255 255 255
0.44154885 0.18635388 0.0011680471 255 255 255
0.49937758 -0.32153457 0.00025584255 255 255 255
0.70711505 0.15769163 0.00089702912 255 255 255
0.94267929 0.84703475 0.0013081084 255 255 255
0.92391878 0.65572721 0.0013201316 255 255 255
0.21112764 0.1511308 0.0012319428 255 255 255
1.2516898 0.036925916 0.0014075381 255 255 255
0.47629851 2.5123577 0.0030266822 255 255 255
-0.86537117 -4.9536443 -0.0075897425 255 255 255
0.71507639 2.1213021 0.0027226922 255 255 255
0.97138929 0.67229736 0.0013246969 255 255 255
1.1066343 0.17867555 0.0016317314 255 255 255
0.68939823 0.12667102 0.0013105324 255 255 255
0.57159203 0.021036526 0.0012893386 255 255 255
0.88085854 0.71343851 0.0013124625 255 255 255
0.16873664 -0.03530078 0.0012152062 255 255 255
0.48348764 -0.2493639 0.00028583428 255 255 255
0.77774835 0.35700279 0.0013167982 255 255 255
0.30843019 -0.88747478 -0.0011029115 255 255 255
0.20231543 0.18734057 0.0012311602 255 255 255
0.59286767 0.7542069 0.0012695136 255 255 255
0.88278556 0.71386307 0.0013126173 255 255 255
0.65474147 -0.090891823 0.001587628 255 255 255
0.75361353 0.39620772 0.0013131216 255 255 255
0.88666642 0.81149888 0.0013038057 255 255 255
0.74946058 0.38432002 0.0013135804 255 255 255
0.52525765 1.4635658 0.001919883 255 255 255
-13.296495 -45.319695 -0.13911052 255 255 255
0.44801682 0.15114407 0.0012722447 255 255 255
0.77374619 0.23852205 0.0015918071 255 255 255
0.79596937 0.30275193 0.0018421744 255 255 255
-0.76815641 -4.6339755 -0.0071244612 255 255 255
1.3649646 3.3674541 0.0073950649 255 255 255
1.2013998 -0.010899394 0.0013998589 255 255 255
0.40991488 0.29255441 0.0012636129 255 255 255
0.11243663 0.39584503 0.0013313434 255 255 255
0.50649101 0.36102483 0.0012773663 255 255 255
0.76078594 0.29920822 0.0013175989 255 255 255
0.88675869 0.80978602 0.0013038077 255 255 255
0.7836203 0.27355263 0.0013221191 255 255 255
0.46046323 0.45218432 0.001266497 255 255 255
-0.89526451 -3.3911138 -0.0041334848 255 255 255
0.41081539 0.26887453 0.0012644649 255 255 255
0.63194537 0.16717258 0.0013010757 255 255 255
0.75297457 0.38718668 0.0013133462 255 255 255
0.20669284 -0.0011843048 0.00057512085 255 255 255
0.17337614 -0.036007363 0.0012158825 255 255 255
0.25747693 0.20796198 0.0010736898 255 255 255
0.70933694 0.081232548 0.0013129079 255 255 255
0.80093873 0.19147149 0.0013262129 255 255 255
0.41399422 -1.0330815 -0.0011541806 255 255 255
0.76377368 0.032736287 0.0013205181 255 255 255
0.22606818 0.10285124 0.0012330626 255 255 255
0.20439626 0.17052269 0.0012311215 255 255 255
0.66908723 0.30643108 0.00082069956 255 255 255
0.62669474 0.12903649 0.0013006863 255 255 255
0.79950207 0.060734861 0.0013261472 255 255 255
0.86053592 0.3903529 0.0013279718 255 255 255
0.83163339 0.21271618 0.0013289971 255 255 255
0.31634355 0.15977049 0.0012488458 255 255 255
0.72314501 0.021304406 0.0013137301 255 255 255
0.91951787 0.66005027 0.0013192741 255 255 255
0.43683594 -0.050890159 0.0012635891 255 255 255
0.82247108 0.027555566 0.0013293611 255 255 255
0.63726741 0.282749 0.001146151 255 255 255
0.39762279 0.00891589 0.0012597947 255 255 255
0.22824067 0.1127125 0.0012338709 255 255 255
0.86153132 0.12545076 0.0013348112 255 255 255
0.69477528 0.085128881 0.0013106385 255 255 255
2.5399942 3.7718232 0.0099399742 255 255 255
0.79694384 0.56201446 0.0019041657 255 255 255
0.42423362 -0.064790212 0.00042571389 255 255 255
1.3052269 1.012288 0.0036613392 255 255 255
0.22627653 0.11165032 0.0012333459 255 255 255
0.58619279 0.46151772 0.0012853605 255 255 255
0.43871108 -0.048897311 0.0012647026 255 255 255
0.17259151 -0.026631501 0.0012157826 255 255 255
0.42597914 0.39008036 0.0012623013 255 255 255
0.27242506 -0.8926813 -0.0013003581 255 255 255
0.81168628 0.25476655 0.0013259085 255 255 255
0.31518519 -0.91222048 -0.0013444673 255 255 255
1.276806 0.83851582 0.0015335152 255 255 255
1.0004699 0.20961182 0.0014557056 255 255 255
0.98456579 0.42501089 0.0015550524 255 255 255
0.75147539 0.11239847 0.0013194437 255 255 255
0.030569762 0.19732369 0.0015894796 255 255 255
0.29826504 -0.89428949 -0.0011617311 255 255 255
1.9078826 11.829745 0.018927686 255 255 255
-5.5423532 -9.718565 -0.046254721 255 255 255
1.1973182 -0.0095575163 0.0013995904 255 255 255
0.5031175 -0.23791565 0.00031821226 255 255 255
0.21785644 0.13205157 0.0012330858 255 255 255
0.74916708 0.08057221 0.00097114063 255 255 255
0.69519877 0.12842727 0.0013114094 255 255 255
0.80347931 0.18614557 0.0013265898 255 255 255
-1.1393342 -5.7300544 -0.0087519092 255 255 255
0.72646499 -1.5316272 -0.0018699579 255 255 255
-1.9853343 -9.5098343 -0.016275367 255 255 255
0.35553855 -0.92040557 -0.0010929831 255 255 255
0.75430131 0.50884229 0.0018488892 255 255 255
0.29425657 0.4076069 0.0012434773 255 255 255
0.17079158 -0.038458347 0.0012145374 255 255 255
1.0756469 0.60278583 0.0023528743 255 255 255
0.18980521 0.24700288 0.0012300564 255 255 255
1.0169935 0.51122332 0.001584337 255 255 255
2.5615396 3.5877526 0.0057051452 255 255 255
0.61429065 -0.16058385 0.00089565344 255 255 255
1.0350971 0.20297921 0.001542566 255 255 255
0.60872072 1.2719574 0.008147331 255 255 255
-0.80946112 -3.5349891 -0.0049876962 255 255 255
1.201854 0.67683053 0.0019763189 255 255 255
1.138661 0.49877176 0.0016904859 255 255 255
0.80776274 0.30913937 0.0014508186 255 255 255
0.50928599 1.9577808 0.0024544778 255 255 255
0.5681963 0.10263181 0.0012899433 255 255 255
0.57235944 0.42411685 0.0012852688 255 255 255
0.82312638 0.27691883 0.0013272903 255 255 255
0.88132107 0.50804621 0.0017477869 255 255 255
1.0758969 0.33013186 0.0013609846 255 255 255
0.14713247 0.14513949 0.00090372906 255 255 255
-0.10069634 1.625443 0.0030598061 255 255 255
1.0971729 0.3333641 0.0013637724 255 255 255
1.1288888 1.1650056 0.0017659374 255 255 255
0.78530383 0.22486612 0.0013230614 255 255 255
0.23337738 0.095221929 0.0012338872 255 255 255
0.65774626 0.60287803 0.0012879838 255 255 255
0.76399517 0.16914535 0.0014188781 255 255 255
0.19223244 0.2273194 0.0012299186 255 255 255
1.0804271 0.25811499 0.0015377388 255 255 255
0.75661838 0.015349277 0.0013187676 255 255 255
0.83425623 0.34262422 0.0015694745 255 255 255
1.1805056 0.63415134 0.0027227052 255 255 255
0.77953345 0.031727333 0.0012413756 255 255 255
1.0918025 0.33231428 0.0013628462 255 255 255
0.63732618 1.4180889 0.0018757945 255 255 255
0.58820367 0.071783178 0.00062199222 255 255 255
0.69119573 0.27480909 0.00080021337 255 255 255
0.19800557 0.17899249 0.0012302445 255 255 255
0.75543708 0.069105178 0.0013196145 255 255 255
-0.41761377 -2.6041989 -0.0039903717 255 255 255
0.73001975 0.16769768 0.0013159676 255 255 255
0.96943337 0.67294961 0.0013238972 255 255 255
0.80918437 0.18491201 0.0013263375 255 255 255
0.19424084 0.22807936 0.0012305931 255 255 255
0.23603313 0.08972913 0.0012340371 255 255 255
0.4072901 0.28700668 0.0012643868 255 255 255
1.4398451 0.75103366 0.0042525786 255 255 255
0.19168544 0.021863004 0.0012238935 255 255 255
0.93905717 0.83827281 0.0013084214 255 255 255
1.1035681 0.33263609 0.0013650195 255 255 255
1.5817128 0.7843008 0.0018587754 255 255 255
0.67310113 0.15967895 0.0013073517 255 255 255
0.27118763 -0.0085275639 0.00061067246 255 255 255
0.41829944 -0.17813516 0.00038686502 255 255 255
0.65415025 -0.2567794 0.0011745605 255 255 255
0.55932838 0.072875552 0.0010617168 255 255 255
0.75175345 0.28499025 0.001370866 255 255 255
0.5785436 0.041222185 0.0012904918 255 255 255
0.74590141 0.39320114 0.0013119233 255 255 255
0.57924849 -0.16580901 0.0012402575 255 255 255
0.39490116 -0.80159265 -0.00070932758 255 255 255
1.1136811 0.59072602 0.0024466037 255 255 255
0.33853561 0.25348559 0.0012529558 255 255 255
0.63102973 -0.22037023 0.00071364077 255 255 255
0.20539613 0.16360991 0.0012311507 255 255 255
0.32434976 -1.4653878 -0.0023777357 255 255 255
0.45399472 -0.24279498 0.0002927536 255 255 255
0.71612436 0.56736583 0.0016573597 255 255 255
0.48662123 -0.004537655 0.0012916361 255 255 255
0.41135365 -2.0950677 -0.004747129 255 255 255
0.50978702 0.40166783 0.0012761739 255 255 255
0.19517677 0.20773999 0.0012300048 255 255 255
0.25872737 0.15841487 0.0012395945 255 255 255
0.55323583 0.12460247 0.0012878224 255 255 255
1.2536191 0.57229358 0.0023213099 255 255 255
0.23586237 0.09671808 0.0012348114 255 255 255
1.1104271 0.75657684 0.0013380174 255 255 255
0.081459127 -1.2872199 -0.0021323105 255 255 255
0.81424338 0.10636878 0.0013279497 255 255 255
0.71819192 0.14597426 0.0013151502 255 255 255
0.87676793 0.12355462 0.0013372792 255 255 255
0.4373984 0.22368239 0.0012678445 255 255 255
0.52852404 -0.36713925 0.00023103882 255 255 255
0.26094073 0.15914404 0.0012397624 255 255 255
0.60975945 0.14174938 0.0012982796 255 255 255
1.05871 0.56280679 0.0021535975 255 255 255
0.23877676 0.21469454 0.0012364598 255 255 255
0.43680987 0.22451422 0.001267512 255 255 255
0.84663481 1.1321732 0.0016761164 255 255 255
0.94670796 0.80414158 0.001312223 255 255 255
0.67640352 0.1221507 0.0013078742 255 255 255
1.2517562 0.49945259 0.0013257079 255 255 255
0.58538777 0.40858072 0.0012872582 255 255 255
1.1733338 0.5163756 0.0020490368 255 255 255
1.0082095 0.2539677 0.0013542544 255 255 255
0.93852657 0.18667515 0.0013455455 255 255 255
0.63963872 -0.1738387 0.0005656982 255 255 255
0.65967691 -0.10511194 0.00053016155 255 255 255
0.71590215 -0.14979799 0.0012805439 255 255 255
0.74055654 0.11446307 0.001374105 255 255 255
1.1026397 0.33106264 0.001364465 255 255 255
0.91619271 0.66069925 0.0013185557 255 255 255
1.122716 0.34534213 0.001267603 255 255 255
0.27772436 -0.89397001 -0.0016463891 255 255 255
0.1055456 -0.024058642 0.0011075326 255 255 255
0.82695621 0.091449127 0.0013302044 255 255 255
-0.86795121 -3.4617677 -0.0042318334 255 255 255
0.049662329 -0.0087413946 0.001201055 255 255 255
1.2071233 -0.018379765 0.0014006513 255 255 255
0.93850154 0.87693542 0.0013037457 255 255 255
-2.6082325 -8.8955126 -0.012642002 255 255 255
0.458637 -0.16899426 0.00036204979 255 255 255
0.31451941 -0.90740407 -0.0013041055 255 255 255
0.42084488 -1.4122801 -0.0021365893 255 255 255
1.2049499 0.70583653 0.0013556315 255 255 255
0.76251096 0.20843174 0.0010174821 255 255 255
0.82347083 0.2923395 0.0013272379 255 255 255
0.33918315 -0.65005964 -0.00047931517 255 255 255
0.45649782 -0.4136557 9.8622077e-05 255 255 255
0.67303449 0.33851075 0.0013891447 255 255 255
0.63212425 -0.01999338 0.0012996561 255 255 255
0.43283719 0.90250814 0.002091256 255 255 255
1.2062453 0.70720756 0.0013554103 255 255 255
0.54822707 0.2054168 0.00088507921 255 255 255
0.37652922 0.00064535474 0.00055150711 255 255 255
0.72364455 -0.17840907 0.00063731475 255 255 255
0.88250136 0.84629267 0.0013000057 255 255 255
1.8541973 1.2951566 0.0023116698 255 255 255
0.96026456 0.87552166 0.0013067952 255 255 255
0.42525077 0.86834413 0.0020050467 255 255 255
0.9986431 5.7468266 0.0066925772 255 255 255
0.50036895 0.34978753 0.0010612858 255 255 255
0.71584046 1.1649079 0.0015781277 255 255 255
0.17031947 -0.032379095 0.0012158324 255 255 255
0.43713287 0.076358452 0.00056866481 255 255 255
0.94671953 0.80519772 0.0013115004 255 255 255
0.6045686 1.9047477 0.0023733934 255 255 255
0.43546247 -0.13685735 0.00036095417 255 255 255
0.061280832 -1.2297673 -0.0018414886 255 255 255
0.16983418 -0.028970536 0.00121573 255 255 255
0.92625082 0.66236991 0.0013199294 255 255 255
0.63106281 0.085675009 0.0013004623 255 255 255
0.57874203 0.43258315 0.00094248983 255 255 255
0.41605645 0.25142977 0.0012654834 255 255 255
0.9787721 0.87269455 0.0013097666 255 255 255
1.6612927 1.0000474 0.0019981836 255 255 255
0.29827502 -0.11634328 0.00045722187 255 255 255
0.91714966 0.66350102 0.0013186013 255 255 255
0.59124959 0.22537892 0.00069281738 255 255 255
0.87748414 0.17945065 0.0013372045 255 255 255
0.17475952 -0.029539526 0.0012161983 255 255 255
0.99685115 0.86843818 0.0013116042 255 255 255
0.2015503 0.13521402 0.0012304131 255 255 255
0.10309043 0.044637505 0.0012116631 255 255 255
0.65514404 0.60355294 0.0012874693 255 255 255
1.0166873 0.8633498 0.0013155409 255 255 255
0.75668603 0.38104066 0.0013137915 255 255 255
0.48583382 -0.12507874 0.00040184497 255 255 255
1.9379042 1.4694448 0.0023427387 255 255 255
-1.0129794 -3.6157613 -0.0043494417 255 255 255
1.0435351 0.42270541 0.0014758928 255 255 255
0.94780695 0.70496881 0.0013217748 255 255 255
0.70534575 0.034617607 0.00066233129 255 255 255
0.94673014 0.70573914 0.0013227173 255 255 255
0.23738472 -1.2580028 -0.0018762122 255 255 255
0.72175997 -0.053623758 0.0013136338 255 255 255
0.39604643 -0.13422942 0.00064900919 255 255 255
0.93299186 0.025510307 0.0013474585 255 255 255
0.92546481 0.65917367 0.0013201946 255 255 255
0.86916965 0.38501468 0.0013294859 255 255 255
1.5072626 1.3823241 0.0039286171 255 255 255
-0.4484345 -3.6370656 -0.0057225456 255 255 255
0.7396583 0.31344417 0.0008556433 255 255 255
0.61434954 0.095139869 0.00078430638 255 255 255
0.53666997 0.041604973 0.001286109 255 255 255
-0.014003241 -2.9898386 -0.0045430134 255 255 255
-1.3518335 -16.738913 -0.034116484 255 255 255
0.69807917 0.44926494 0.0012585396 255 255 255
-1.0611646 -5.6298046 -0.0098647447 255 255 255
0.69630796 1.2776544 0.0020464561 255 255 255
0.79949224 0.2799367 0.0015039372 255 255 255
2.1889753 2.3175492 0.0053912038 255 255 255
0.75084943 0.05184311 0.0012868703 255 255 255
0.19062942 0.28830597 0.0012298854 255 255 255
0.10435018 0.033221155 0.0012114057 255 255 255
1.0594802 0.3023437 0.001861594 255 255 255
0.70702046 -0.01035623 0.0013108357 255 255 255
0.8056193 0.16170928 0.0013267974 255 255 255
0.59982973 0.46780032 0.001167541 255 255 255
0.27174956 -0.20597558 0.00027935303 255 255 255
0.68375307 0.12806702 0.001309625 255 255 255
1.6555748 1.2608132 0.0035592804 255 255 255
0.73700303 0.18834656 0.0013167267 255 255 255
0.93117732 0.1618453 0.0013449795 255 255 255
0.83215767 0.18788582 0.0013304952 255 255 255
1.1066123 0.60699582 0.001349343 255 255 255
0.95680553 0.3698374 0.0017341091 255 255 255
0.89540315 0.54413277 0.0013254191 255 255 255
0.83054012 -0.024721365 0.0013304735 255 255 255
0.87010062 0.37493283 0.0013304913 255 255 255
0.09689112 -0.061767496 0.0012054031 255 255 255
1.2604052 0.53952831 0.0017867732 255 255 255
0.78424829 0.3340348 0.0013204104 255 255 255
-8.5745659 -17.499752 -0.024429953 255 255 255
1.1924111 0.80500394 0.0024652453 255 255 255
0.98497587 0.14916411 0.0012119366 255 255 255
0.56778079 -0.23590043 0.0006780235 255 255 255
1.2217698 0.54289305 0.002659186 255 255 255
0.87021005 0.27909428 0.0013124424 255 255 255
0.25323984 0.018403957 0.0012328193 255 255 255
-21.400143 -102.11294 -0.18037784 255 255 255
0.57455045 0.45454371 0.0012838586 255 255 255
0.96174186 0.17216118 0.0017361833 255 255 255
0.86159396 0.77104622 0.0013038919 255 255 255
0.95328665 0.11925142 0.0013479057 255 255 255
0.92269623 0.77072459 0.0013125977 255 255 255
1.0819347 0.21523318 0.0013661833 255 255 255
0.60501283 0.49071386 0.0012863852 255 255 255
1.0524395 0.23611633 0.0013609725 255 255 255
0.5140183 -0.0010130175 0.00081416272 255 255 255
0.75336677 0.17902049 0.0013193694 255 255 255
0.57992643 0.48096246 0.0012835574 255 255 255
0.12738174 0.067506917 0.0012160297 255 255 255
0.85539639 0.068044044 0.0013340452 255 255 255
1.0507865 0.78152907 0.0013280525 255 255 255
0.48650748 -0.20927018 0.00040398235 255 255 255
1.1749084 0.34402701 0.0018384663 255 255 255
0.69007891 0.13410634 0.0013105598 255 255 255
0.42653549 0.20989452 0.0012668428 255 255 255
-0.72483492 -3.0263922 -0.0047156881 255 255 255
1.0825938 0.77723211 0.0016661165 255 255 255
1.1046373 0.18586603 0.0013710228 255 255 255
1.6113523 1.0048145 0.0018122114 255 255 255
1.108567 0.62605375 0.002599699 255 255 255
0.68206513 0.1384026 0.0013090305 255 255 255
0.91123742 0.14554799 0.0013422021 255 255 255
1.5429826 1.4133732 0.0023102458 255 255 255
0.95709527 0.13416219 0.0015194727 255 255 255
0.82480454 0.51214641 0.0017302898 255 255 255
1.4650098 0.91216797 0.0030240358 255 255 255
0.85577428 0.032831047 0.0013342688 255 255 255
0.92093468 0.76280051 0.001313468 255 255 255
-1.3366182 -6.433208 -0.0092973169 255 255 255
1.0876485 0.10311589 0.0013717643 255 255 255
0.96715146 0.19786856 0.0014316052 255 255 255
0.66439372 0.4203535 0.0012985542 255 255 255
0.55420983 0.022688963 0.0012874817 255 255 255
0.76319271 0.066728428 0.0013207409 255 255 255
0.78296357 0.12129521 0.0013244185 255 255 255
0.12749781 -0.024707552 0.0013938388 255 255 255
1.0625286 5.3210816 0.0081135724 255 255 255
0.76753759 0.14971365 0.0013223502 255 255 255
0.67034793 -0.036283091 0.0013055291 255 255 255
0.11801515 0.054683443 0.0012143232 255 255 255
0.61059189 0.48401836 0.0012883627 255 255 255
0.47598094 1.3356667 0.0018257098 255 255 255
0.65661037 0.15953101 0.0013049449 255 255 255
0.18553735 0.17780076 0.0012284976 255 255 255
0.58497208 0.097269207 0.0010109254 255 255 255
0.63383454 1.2403851 0.0048951251 255 255 255
0.76036125 0.15082975 0.0013207799 255 255 255
1.1899283 0.51097119 0.0013680937 255 255 255
0.78184032 0.050268538 0.0013228987 255 255 255
0.12417538 0.047411408 0.0012147954 255 255 255
-0.022990048 0.046035409 0.0016258439 255 255 255
0.42238176 0.41505721 0.0012614523 255 255 255
0.31784645 0.015160123 0.00053013209 255 255 255
0.063611552 -0.039818123 0.0012011913 255 255 255
0.11525321 0.28924921 0.0014756216 255 255 255
0.72716928 0.17405827 0.0013157268 255 255 255
0.097326949 0.017609298 0.0012092721 255 255 255
0.86097461 0.013798545 0.0013356262 255 255 255
0.81445301 0.20933731 0.0013265549 255 255 255
0.89940375 0.5874666 0.0021847694 255 255 255
0.79741502 0.30558953 0.0013230531 255 255 255
0.94820577 0.044646043 0.0013487944 255 255 255
-1.9593556 -8.1920338 -0.012917422 255 255 255
0.21748607 -0.0074589583 0.0012289848 255 255 255
1.2334235 0.66607618 0.0024475432 255 255 255
1.5689862 1.2981657 0.0039861286 255 255 255
0.73561513 0.088149391 0.001317053 255 255 255
0.52094799 0.33420718 0.0010510164 255 255 255
0.91995829 0.62958807 0.0011169378 255 255 255
0.069981337 -0.054246206 0.0012017993 255 255 255
0.69720531 0.12460344 0.0013117103 255 255 255
0.70517117 0.085307583 0.001312305 255 255 255
0.96230823 0.52835244 0.0013346832 255 255 255
0.8212989 0.059300888 0.0013294368 255 255 255
-4.9236183 -30.016853 -0.12501112 255 255 255
0.32141417 -0.39197543 2.8998156e-06 255 255 255
1.0064873 0.17383862 0.001355781 255 255 255
0.47280481 -0.28109354 0.00048261028 255 255 255
0.7203722 0.19138466 0.0012863247 255 255 255
0.74258566 0.17165756 0.0017459354 255 255 255
1.2174394 0.48275357 0.002174089 255 255 255
0.93665111 0.20899311 0.0014379044 255 255 255
0.98553962 0.13251376 0.0013532636 255 255 255
0.58588588 0.5013153 0.0012838736 255 255 255
0.93233734 0.20868553 0.0013438298 255 255 255
0.55739254 0.22463825 0.0010706706 255 255 255
0.99477923 0.064377189 0.0013568157 255 255 255
1.0707645 0.44972765 0.0017870222 255 255 255
0.97004253 0.39734441 0.0015918504 255 255 255
0.14602679 0.043282486 0.0012175647 255 255 255
0.13106103 0.031510003 0.0012151422 255 255 255
0.82989478 0.033791468 0.0013300895 255 255 255
0.27913815 -1.1624715 -0.0020266357 255 255 255
0.42563972 0.14920171 0.0012678541 255 255 255
0.16891971 -0.035275154 0.0012150783 255 255 255
0.86167777 0.77008927 0.0013047851 255 255 255
0.71728611 0.14712538 0.0013147295 255 255 255
0.25445491 -1.2051816 -0.00168699 255 255 255
1.2339747 0.16810051 0.0013967635 255 255 255
-4.2158523 -9.0513258 -0.014992882 255 255 255
0.48211414 -0.87090331 -0.00080799381 255 255 255
0.22243981 -1.5772562 -0.0028980516 255 255 255
1.2563436 0.66852367 0.0013668098 255 255 255
0.91602111 0.6607396 0.0013185908 255 255 255
0.19186823 0.24753857 0.0012306165 255 255 255
-3.1218586 -7.7925582 -0.014275829 255 255 255
0.41069236 0.26863563 0.0012646555 255 255 255
0.7458154 0.38851523 0.0013124116 255 255 255
0.51321942 0.7900582 0.001536729 255 255 255
-0.048316374 14.481211 0.022472506 255 255 255
0.29420587 0.40753949 0.0012433883 255 255 255
1.2060817 -0.014957288 0.0014008228 255 255 255
0.99649262 0.86792582 0.0013128612 255 255 255
0.88239837 0.71553046 0.0013152009 255 255 255
0.88368922 0.71347934 0.0013126049 255 255 255
-1.8577334 -6.2828321 -0.0076251538 255 255 255
0.89638311 -0.084133238 0.0008321472 255 255 255
0.19201079 0.22756647 0.0012300815 255 255 255
0.75298876 0.38811171 0.0013130107 255 255 255
0.13866957 0.3189064 0.0010297678 255 255 255
0.029948857 0.03664628 0.0012006317 255 255 255
0.71791559 0.14594027 0.0013149052 255 255 255
1.2580757 0.6699636 0.0013674245 255 255 255
0.23560293 0.096343838 0.0012338071 255 255 255
0.92024803 0.66170961 0.0013173504 255 255 255
0.50835419 0.37160504 0.0012777194 255 255 255
0.65549165 0.60391402 0.0012883007 255 255 255
1.1095566 0.3539212 0.0012793039 255 255 255
0.50389469 0.36771154 0.0012766744 255 255 255
0.59358919 0.75339174 0.0012700609 255 255 255
0.34425294 0.10019987 0.00125349 255 255 255
0.65892518 0.60274363 0.0012887614 255 255 255
0.87245059 0.39594859 0.0013052279 255 255 255
0.35563323 0.19850723 0.0012570354 255 255 255
0.23574819 0.08998213 0.0012345719 255 255 255
0.17300405 -0.032275487 0.0012160642 255 255 255
0.3502894 0.11162645 0.001089548 255 255 255
0.24524839 -1.3056747 -0.0018798527 255 255 255
0.52208453 -0.15589154 0.0011916455 255 255 255
0.25965703 -1.2821205 -0.0017888162 255 255 255
0.43866232 -0.048892941 0.0012650538 255 255 255
0.38184389 1.8049983 0.0031110523 255 255 255
-3.1148458 -24.866419 -0.038433578 255 255 255
0.94191647 0.84653497 0.0013079235 255 255 255
0.68875825 0.13059373 0.0013100252 255 255 255
0.37569189 -0.54774946 -0.00028697131 255 255 255
0.9179517 0.65521669 0.0013189237 255 255 255
-8.5830603 -29.862896 -0.091084719 255 255 255
1.1952789 0.1181234 0.00139047 255 255 255
0.94801545 0.70569897 0.0013228824 255 255 255
-2.5014277 -4.8926449 -0.0078392206 255 255 255
0.19916263 0.12133167 0.0012286286 255 255 255
0.38940701 0.67512792 0.0014467881 255 255 255
-2.3928542 -10.878326 -0.019492079 255 255 255
0.41179389 1.0233289 0.0021484687 255 255 255
0.4797588 -0.23906414 0.00030769207 255 255 255
0.65295929 0.061965484 0.0010281022 255 255 255
0.77904004 0.36212459 0.0013183926 255 255 255
0.50240314 0.37016281 0.0012757889 255 255 255
0.32623899 0.50327998 0.0025674347 255 255 255
0.77712232 0.35873955 0.0013160401 255 255 255
0.53327829 0.043743487 0.0012846146 255 255 255
0.51832771 -0.17908411 0.00025230576 255 255 255
0.66083556 0.64991391 0.0012848274 255 255 255
0.65892804 -0.10563895 0.00052923796 255 255 255
0.94941336 0.70437837 0.001322341 255 255 255
-0.65970421 -3.4529018 -0.0052654035 255 255 255
0.48813149 0.066169828 0.00095633272 255 255 255
0.53574663 -0.12293954 0.00044400524 255 255 255
0.41146806 2.047543 0.0036052929 255 255 255
0.69254059 0.12637277 0.0013110801 255 255 255
0.94007826 0.84581429 0.0013092177 255 255 255
0.9240045 0.65809739 0.0013202335 255 255 255
0.92065507 0.65775794 0.0013195366 255 255 255
0.70205045 4.0909615 0.005289529 255 255 255
0.68886513 0.12330749 0.0013035099 255 255 255
0.46613491 -1.4763936 -0.0021740282 255 255 255
0.30715603 -0.18917675 0.00030526522 255 255 255
0.21793543 0.13177094 0.0012327033 255 255 255
0.23888132 0.21468809 0.0012365687 255 255 255
39.195114 133.61003 0.29865229 255 255 255
0.92032599 0.65632546 0.0013197471 255 255 255
0.92376846 0.65611267 0.0013206543 255 255 255
1.3345141 0.67739469 0.0014488351 255 255 255
0.57219756 -0.0080704028 0.00059840985 255 255 255
0.33848876 0.25369295 0.0012528697 255 255 255
0.49256626 0.10410539 0.001175301 255 255 255
1.5394697 0.76689428 0.0016863046 255 255 255
0.59498584 0.27613583 0.00083744677 255 255 255
0.93807077 0.84044707 0.0013081973 255 255 255
0.20108934 0.13496844 0.0012298011 255 255 255
0.81196153 0.10226207 0.0013216654 255 255 255
0.34335402 0.30319545 0.0012440671 255 255 255
0.41004738 0.29253149 0.0012634293 255 255 255
0.61403608 0.75250542 0.0034125368 255 255 255
0.22578667 0.10281607 0.0012330909 255 255 255
0.88265568 0.8466906 0.0013002964 255 255 255
0.64641166 0.77601749 0.0012754685 255 255 255
0.4167538 0.30541146 0.0012631883 255 255 255
0.21351397 0.10241978 0.001231796 255 255 255
0.31624237 0.15937454 0.0012488749 255 255 255
0.9466781 0.80461174 0.0013126265 255 255 255
0.24189936 0.21453187 0.0012375811 255 255 255
0.1952801 0.20779261 0.0012304317 255 255 255
0.31404245 0.15880895 0.0012488461 255 255 255
1.0755302 0.32961851 0.0013610688 255 255 255
0.1487935 0.033093296 0.001217972 255 255 255
0.35967648 -0.66214108 -0.00048456719 255 255 255
1.0948362 0.33141217 0.0013642189 255 255 255
0.75353444 0.39412141 0.0013138541 255 255 255
1.1701609 0.40515596 0.0014271702 255 255 255
1.2051939 0.70626587 0.0013559102 255 255 255
0.99335033 0.19487305 0.0011065316 255 255 255
0.46032247 0.45199654 0.0012654887 255 255 255
0.7455495 0.39289662 0.0013119407 255 255 255
0.44791031 0.15079133 0.001272343 255 255 255
1.1968814 -0.0098790433 0.0013998002 255 255 255
0.42738518 1.3300958 0.0026973819 255 255 255
1.2060341 0.7071321 0.001355636 255 255 255
0.43758523 0.22385395 0.0012682329 255 255 255
0.83998793 1.3673775 0.0018492484 255 255 255
0.50628644 0.36114463 0.0012772313 255 255 255
-0.66776127 -3.1445801 -0.008993418 255 255 255
0.39151427 -0.18040861 0.00032043713 255 255 255
0.1728054 0.20764197 0.0012268192 255 255 255
0.43420145 -0.14006101 0.00035801047 255 255 255
0.91829652 0.41915458 0.0013400465 255 255 255
1.2516912 0.036761791 0.0014075798 255 255 255
0.31385496 -0.90665144 -0.0014831186 255 255 255
0.74305826 0.39096379 0.001311742 255 255 255
0.36501956 0.02462345 0.00064023735 255 255 255
0.68731058 0.13005686 0.0013105266 255 255 255
0.23353921 0.095301911 0.0012343314 255 255 255
1.094278 0.36465558 0.0011723256 255 255 255
0.39090657 -0.18093807 0.00032005255 255 255 255
0.40701702 -0.82950342 -0.00077590806 255 255 255
0.57333875 0.094734363 0.00061998185 255 255 255
0.98455864 5.1942096 0.0060812831 255 255 255
0.98922253 0.68825084 0.0013247012 255 255 255
1.0912802 0.33289334 0.0013626564 255 255 255
1.1103421 0.75732553 0.0013385798 255 255 255
0.50167525 -0.23890388 0.00031610319 255 255 255
0.63202822 -0.019958183 0.0012993542 255 255 255
0.46205792 0.068538807 0.00058668631 255 255 255
0.73595238 0.79986072 0.0012853863 255 255 255
0.42089927 -0.27641526 0.00024089929 255 255 255
0.50332814 0.36368111 0.0012769898 255 255 255
0.50886595 0.36372375 0.0012768173 255 255 255
0.57354069 -0.0052400785 0.00060315622 255 255 255
0.16980949 -0.029011786 0.0012157798 255 255 255
0.4416137 0.18655786 0.0011680612 255 255 255
0.17463802 -0.029611535 0.0012160679 255 255 255
0.93870819 0.83827579 0.0013082769 255 255 255
0.31538916 -5.6361929e-05 0.0019216639 255 255 255
0.39547309 0.0072263209 0.0012597913 255 255 255
0.63274008 0.66308904 0.0012818971 255 255 255
0.72329038 0.021760942 0.0013148013 255 255 255
0.097047813 -0.061933421 0.0012050985 255 255 255
0.8059175 0.59387714 0.0013096664 255 255 255
0.19623177 0.35106844 0.0030226996 255 255 255
0.20454031 0.17088418 0.0012311494 255 255 255
0.92582709 0.66171241 0.0013195783 255 255 255
0.80884671 0.18517943 0.0013268795 255 255 255
-1.1978375 -4.2171102 -0.0050707241 255 255 255
-2.2190139 -8.6291542 -0.01751375 255 255 255
0.95939016 0.87423158 0.0013069886 255 255 255
1.201633 -0.010616329 0.0014004823 255 255 255
2.1352096 5.9950008 0.010407069 255 255 255
0.77650964 0.36326593 0.0013165377 255 255 255
1.1733831 0.56745416 0.0013628111 255 255 255
0.1972871 0.2085506 0.0012303954 255 255 255
0.94603521 0.70550686 0.0013225263 255 255 255
0.68780243 0.027995633 0.0013083017 255 255 255
1.1639647 1.1104336 0.003377218 255 255 255
0.069691256 -0.054423928 0.0012019719 255 255 255
0.58378112 -0.081032217 0.00044723804 255 255 255
0.52060252 0.24391332 0.0012825365 255 255 255
0.10308803 0.0449038 0.0012122954 255 255 255
0.69470525 0.085104555 0.0013104232 255 255 255
0.45961758 0.45566809 0.0012650958 255 255 255
0.35490945 -0.5501169 -0.00025491274 255 255 255
0.12703604 0.067601368 0.0012161179 255 255 255
0.22116554 0.031269006 0.0012269872 255 255 255
2.1635671 23.928118 0.058718946 255 255 255
0.95117521 0.30577672 0.0017101415 255 255 255
0.78288472 0.062959522 0.0013235519 255 255 255
0.47898656 0.09951251 0.001276898 255 255 255
0.62647671 0.1289885 0.0013004567 255 255 255
0.28172302 0.31359506 0.0012417703 255 255 255
0.36857203 -1.0321207 -0.0021884812 255 255 255
0.47632974 0.38909945 0.0012718954 255 255 255
0.53337127 0.25384483 0.0012841837 255 255 255
0.17056732 0.19513179 0.0012274326 255 255 255
0.55110878 -1.0839726 -0.0011204948 255 255 255
2.091105 5.6410818 0.011378215 255 255 255
