ply
format ascii 1.0
comment PCL generated
element vertex 1094
property float x
property float y
property float z
property uchar red
property uchar green
property uchar blue
element face 0
element camera 0
property float view_px
property float view_py
property float view_pz
property float x_axisx
property float x_axisy
property float x_axisz
property float y_axisx
property float y_axisy
property float y_axisz
property float z_axisx
property float z_axisy
property float z_axisz
property float focal
property float scalex
property float scaley
property float centerx
property float centery
property int viewportx
property int viewporty
property float k1
property float k2
end_header
-278.80838 -603.91663 -2.0640233 255 255 255
-7407.0942 -16111.384 -31.364412 255 255 255
230.75977 81.514214 0.31833383 255 255 255
3702.6233 1561.1284 7.8937922 255 255 255
-12395.131 -6618.5518 -16.932678 255 255 255
-942.62634 -498.49579 -3.0656657 255 255 255
-84.206314 -105.45522 -1.2122444 255 255 255
-940.45551 -496.83875 -2.1266687 255 255 255
-345.56201 -729.38843 -2.293221 255 255 255
-1334.4899 -1314.5782 -3.2988653 255 255 255
-68.31842 -146.67946 -1.3186083 255 255 255
3617.3127 1499.4706 7.7627873 255 255 255
911.95715 596.89813 1.3453817 255 255 255
2623.1077 2391.0449 12.233187 255 255 255
-2022.5166 -2509.147 -7.9392848 255 255 255
-232.90355 -105.46729 -1.2489997 255 255 255
-1035.8074 -613.56879 -2.6941462 255 255 255
1685.8186 2034.7568 4.8632727 255 255 255
-334.79559 -264.82996 -1.8953365 255 255 255
-10757.627 -4543.1152 -14.184615 255 255 255
-216.71844 -214.38821 -1.3644185 255 255 255
-2476.3792 -6293.5693 -11.423949 255 255 255
-29.191603 -96.553871 -1.1620924 255 255 255
1635.7656 3030.2317 5.1217694 255 255 255
-615.91895 -1623.6893 -5.5101628 255 255 255
-493.64816 -629.89563 -1.7899368 255 255 255
454.28851 1114.6494 2.1987388 255 255 255
899.20264 895.81812 2.5893877 255 255 255
-13122.866 -7121.1704 -18.170292 255 255 255
-290.0549 -379.5976 -2.4961209 255 255 255
2280.0007 2545.3562 5.5333476 255 255 255
-18418.348 -11076.985 -51.471081 255 255 255
-3831.0925 -2987.7683 -11.524527 255 255 255
-384.28134 -970.01642 -2.8324234 255 255 255
-144.93669 -205.24034 -1.5082881 255 255 255
-12056.906 -6392.2461 -16.410631 255 255 255
1644.2571 3046.6438 5.1435456 255 255 255
1835.9362 2060.3188 4.6386027 255 255 255
-2628.9343 -1803.616 -3.8965218 255 255 255
-3067.0764 -2487.5259 -7.5970244 255 255 255
231.59451 87.460945 0.35196444 255 255 255
-412.73801 -415.77939 -1.9709237 255 255 255
1563.0537 3283.6167 5.7328968 255 255 255
-2400.646 -6549.5073 -13.694975 255 255 255
2097.886 2538.2271 5.2803845 255 255 255
-1248.7291 -2400.3271 -4.9199972 255 255 255
2283.135 6400.5278 10.239063 255 255 255
864.90631 1319.0238 2.8449192 255 255 255
2045.8815 817.78027 3.6339023 255 255 255
-54.171207 -168.82076 -1.2572286 255 255 255
-5703.9619 -12912.926 -21.659317 255 255 255
-2654.499 -697.88293 -3.9610577 255 255 255
1016.2762 1506.677 3.1874514 255 255 255
164.96916 137.68799 0.32592854 255 255 255
-1036.4706 -1541.9056 -3.7190702 255 255 255
862.80017 1000.0659 2.1307197 255 255 255
-1293.0743 -1333.3201 -2.9237595 255 255 255
-1123.0513 -1379.2151 -2.7666728 255 255 255
2901.3369 1840.6407 7.9651513 255 255 255
1396.1731 1496.0231 3.7193861 255 255 255
-308.06662 -281.75095 -1.559279 255 255 255
918.26501 1665.3126 3.2276957 255 255 255
-2078.5078 -4121.7876 -8.2197485 255 255 255
869.20557 1478.1082 2.8889377 255 255 255
1075.1298 1114.1532 1.8400719 255 255 255
-163.53624 -367.32867 -1.8092116 255 255 255
797.80011 1513.8564 2.9533432 255 255 255
3711.1875 3455.1758 6.3554025 255 255 255
2993.8103 3574.6016 10.078972 255 255 255
988.862 1380.092 3.0586929 255 255 255
-29.692738 -107.52436 -1.211982 255 255 255
-983.73425 -2468.9534 -5.8267407 255 255 255
1042.3862 1592.7981 3.2989709 255 255 255
3276.2551 1917.4951 6.9580879 255 255 255
-246.38292 -268.40717 -1.5435817 255 255 255
5719.9155 2669.1118 13.43364 255 255 255
923.67249 2275.2595 4.7166796 255 255 255
-396.37833 -623.49573 -2.5420249 255 255 255
3528.7673 1683.9745 7.4994674 255 255 255
1857.4524 1897.0305 4.5737758 255 255 255
3214.3423 926.26404 4.9648957 255 255 255
4074.0281 5700.3008 10.737471 255 255 255
1091.8463 1471.6639 3.2608371 255 255 255
786.02582 880.3714 1.4639878 255 255 255
-13870.847 -5178.1743 -19.403814 255 255 255
-406.46823 -538.9422 -2.2677081 255 255 255
-48.848316 -72.584129 -1.1404977 255 255 255
1468.9542 926.29547 3.6573682 255 255 255
-355.59616 -302.43237 -1.7300358 255 255 255
-2497.9673 -4226.9326 -9.4463434 255 255 255
-11226.992 -10721.974 -19.52578 255 255 255
2334.2339 3310.4194 6.0678043 255 255 255
-973.58093 -1554.7709 -3.4852891 255 255 255
-13788.248 -14207.153 -33.059818 255 255 255
-334.54593 -251.32651 -1.6852012 255 255 255
594.66211 1456.4966 2.6845827 255 255 255
1929.96 1379.9347 4.5509868 255 255 255
476.56802 1191.2875 2.3009551 255 255 255
2195.3206 4466.7568 8.4499521 255 255 255
-136.34947 -517.43146 -1.8603841 255 255 255
764.72522 541.49097 2.1930635 255 255 255
1202.7156 1934.754 3.9688919 255 255 255
-1306.2926 -1023.8307 -3.1921575 255 255 255
2969.3875 4585.1636 8.6036663 255 255 255
-3286.0627 -6856.2314 -15.18539 255 255 255
-363.40186 -417.89188 -1.519882 255 255 255
-405.39847 -678.50134 -2.5599461 255 255 255
-253.69101 -230.51248 -1.5053686 255 255 255
-384.44992 -393.21777 -1.5300949 255 255 255
-1060.8972 -2979.4478 -5.2404723 255 255 255
1631.1268 3022.6509 5.1019216 255 255 255
-1620.6949 -1046.7964 -3.6266437 255 255 255
1101.8635 1390.0277 2.1282675 255 255 255
-2972.0471 -5589.229 -12.898126 255 255 255
1120.688 1206.0569 3.1314125 255 255 255
958.60303 1188.5991 2.88028 255 255 255
3936.2053 2373.4038 9.6142225 255 255 255
765.84973 678.63947 2.296303 255 255 255
-2272.717 -4844.4351 -8.6996956 255 255 255
453.3924 1113.317 2.1957958 255 255 255
-2933.7852 -2637.1223 -7.3987508 255 255 255
949.10797 1231.9882 2.7289584 255 255 255
805.61456 2085.8174 3.4924741 255 255 255
-343.19644 -373.57385 -1.67854 255 255 255
-1696.8566 -1953.1235 -8.9371223 255 255 255
-50.691551 -202.73628 -1.4051101 255 255 255
1793.8151 1305.302 3.5172634 255 255 255
6865.6484 4509.1143 15.428641 255 255 255
-270.92575 -305.81705 -1.5298846 255 255 255
1668.1025 3688.939 6.6973844 255 255 255
-1931.5498 -3846.0215 -7.4593081 255 255 255
785.46576 2061.8706 3.4527717 255 255 255
-128.48775 -570.00256 -1.8851392 255 255 255
-798.52039 -1306.9034 -4.6589222 255 255 255
1623.7438 1503.1437 4.0668259 255 255 255
-849.48553 -1869.4009 -4.4283233 255 255 255
-671.37988 -809.97607 -3.1699314 255 255 255
3949.7322 6255.7329 19.804617 255 255 255
-629.6167 -918.81122 -2.0102594 255 255 255
-412.81799 -924.58624 -2.5884309 255 255 255
5797.7329 11596.497 32.689587 255 255 255
806.08276 2035.2996 3.4431169 255 255 255
-431.11987 -831.21143 -2.5770564 255 255 255
-55.519306 -116.84226 -1.2746468 255 255 255
-1233.2056 -1164.7749 -2.8838651 255 255 255
2604.2991 3113.5662 7.2379289 255 255 255
1943.0206 1537.5693 4.5967073 255 255 255
-88.403519 -102.99517 -1.2989335 255 255 255
5641.3018 3493.2224 10.942577 255 255 255
-44.834045 -86.728745 -1.1390193 255 255 255
-13444.901 -6119.0156 -18.610233 255 255 255
-729.30664 -1383.1592 -4.0518775 255 255 255
-1759.5729 -1994.5317 -7.4575357 255 255 255
1504.4897 1676.5726 3.9688494 255 255 255
568.78589 1244.5582 2.4514658 255 255 255
1491.0092 1689.2478 3.9606743 255 255 255
-29.267221 -48.58083 -1.0865917 255 255 255
-55.220833 -67.242905 -1.1295742 255 255 255
2432.0518 2602.4036 6.6141558 255 255 255
-319.43073 -295.02615 -1.6077143 255 255 255
865.84613 1562.8884 3.0772305 255 255 255
360.11087 1128.3358 2.1261625 255 255 255
-189.99712 -385.71915 -1.7073889 255 255 255
1699.9463 2472.4224 4.7489243 255 255 255
776.19592 985.71313 1.9289945 255 255 255
527.72919 1567.8865 2.7538357 255 255 255
-589.00763 -580.25403 -2.1690006 255 255 255
-241.95206 -152.00133 -1.3664945 255 255 255
726.49884 1720.8405 3.0794349 255 255 255
-1580.8687 -2547.2568 -5.0221405 255 255 255
281.36456 130.48541 0.44982013 255 255 255
-15406.602 -7342.5361 -21.878122 255 255 255
1157.0157 1353.2277 3.2868664 255 255 255
3717.4451 3847.2363 8.1420288 255 255 255
-623.23224 -1178.8771 -3.1170688 255 255 255
-957.45721 -968.66443 -4.1073704 255 255 255
-504.61777 -938.02454 -3.6603546 255 255 255
5505.3452 15503.211 28.443295 255 255 255
1693.4031 2472.5549 4.7444439 255 255 255
802.62042 1308.9277 2.7743356 255 255 255
1340.7681 1733.0627 3.7657313 255 255 255
759.90967 1990.024 3.3633227 255 255 255
-365.59995 -277.73727 -1.7881789 255 255 255
-346.70065 -734.37555 -2.4401903 255 255 255
1494.0479 1045.855 2.5164371 255 255 255
2711.8672 2648.636 4.4037399 255 255 255
785.38837 1588.1375 3.0023751 255 255 255
-799.21277 -786.41498 -2.9720802 255 255 255
-2075.3201 -2541.5525 -6.6485271 255 255 255
-3328.0178 -7926.4131 -14.444921 255 255 255
5484.7275 8979.9121 22.187649 255 255 255
3474.4758 1668.7855 5.4586964 255 255 255
1257.0928 1474.4915 3.4886818 255 255 255
-8053.9873 -18210.926 -36.578568 255 255 255
-1046.8374 -780.22961 -2.7606878 255 255 255
1031.4518 1481.7123 3.1961329 255 255 255
-30.886658 -68.438248 -1.1207968 255 255 255
1716.515 1456.9907 4.1861963 255 255 255
3053.1792 2923.0017 6.7956858 255 255 255
1656.5203 1797.3729 4.2271042 255 255 255
-150.0128 -125.16351 -1.2513509 255 255 255
-312.88657 -179.44987 -1.7247354 255 255 255
-13193.953 -7272.0449 -18.392599 255 255 255
-773.43921 -670.20544 -1.9971547 255 255 255
-1214.8638 -5791.481 -9.8981647 255 255 255
1760.0853 1622.949 4.4403272 255 255 255
953.46149 2293.3665 4.050992 255 255 255
1011.6467 1522.8821 3.2029006 255 255 255
-268.70059 -224.90587 -1.5342677 255 255 255
179.31702 37.59045 0.73511833 255 255 255
-13188.639 -7310.3364 -18.30563 255 255 255
1174.6346 1680.5426 3.5206404 255 255 255
1594.2803 4022.1868 7.7299452 255 255 255
982.9743 1460.772 3.1646476 255 255 255
-13286.562 -7304.4648 -18.502447 255 255 255
1765.2717 1629.8547 4.4571695 255 255 255
1808.2394 1362.3665 4.3291459 255 255 255
2962.1294 2492.2017 5.0270233 255 255 255
-168.86252 -195.40233 -1.2352313 255 255 255
1203.4213 1705.7493 3.5759051 255 255 255
-1284.4803 -6631.124 -11.951416 255 255 255
2153.7766 6784.2056 11.815232 255 255 255
1772.819 1790.7838 4.3940606 255 255 255
202293.16 221620.11 363.38669 255 255 255
3413.2349 1679.9224 7.2837954 255 255 255
1923.9589 1402.8557 4.5294251 255 255 255
-3058.0803 -2071.4724 -8.0057983 255 255 255
204.82089 71.474976 0.27846518 255 255 255
1121.2263 1609.4675 3.4018111 255 255 255
6687.77 2542.1128 13.566778 255 255 255
9789.6396 8626.5088 16.744831 255 255 255
-13058.879 -7099.186 -18.090071 255 255 255
-12068.168 -6485.5361 -16.406281 255 255 255
-1287.6017 -977.39233 -3.4334936 255 255 255
-239.59491 -680.92578 -2.291774 255 255 255
-2702.7698 -5082.5718 -9.8108473 255 255 255
1469.3241 1607.9521 3.8802955 255 255 255
1384.7593 1767.6633 3.852823 255 255 255
3595.8071 1939.9099 7.526073 255 255 255
861.37646 687.30841 1.3897886 255 255 255
857.57416 583.224 1.2404906 255 255 255
-763.23682 -1100.3877 -3.094106 255 255 255
-1225.7251 -1152.1776 -2.980139 255 255 255
-112.76289 -280.03653 -1.5374489 255 255 255
1952.6486 2466.6963 3.8612525 255 255 255
-1215.0979 -1046.3586 -2.7346396 255 255 255
-14739.549 -7142.6206 -20.804941 255 255 255
880.90558 1789.7214 3.7299984 255 255 255
90.376244 58.155949 0.20634635 255 255 255
-1776.4294 -1205.2623 -3.7890496 255 255 255
-69.364571 -67.101303 -1.2789724 255 255 255
-9739.415 -5810.8726 -12.987908 255 255 255
3583.5496 1592.1675 7.6251111 255 255 255
52759.723 61987.945 118.18323 255 255 255
5432.2549 5166.835 8.8778324 255 255 255
-289.7522 -2301.8491 -4.9482789 255 255 255
213.11971 651.33539 1.0863268 255 255 255
-77.040314 -142.24928 -1.4403906 255 255 255
-832.6452 -249.58571 -1.8235853 255 255 255
-530.35608 -1583.4755 -3.325258 255 255 255
-390.72055 -632.42126 -2.4725626 255 255 255
956.72552 3598.7385 6.0610127 255 255 255
1636.0795 2217.8328 4.4886293 255 255 255
1811.5374 2364.1428 3.4723289 255 255 255
1007.7918 1235.79 2.3054373 255 255 255
-1914.5016 -2498.521 -8.3758497 255 255 255
670.48358 1657.4551 2.9527698 255 255 255
2555.1731 1336.1564 6.0563831 255 255 255
773.8374 1686.0571 3.0772095 255 255 255
2928.1938 3454.593 7.8955178 255 255 255
-1167.6934 -844.54181 -2.6829989 255 255 255
-608.88727 -1255.33 -3.136421 255 255 255
-286.63498 -1036.1608 -2.7160323 255 255 255
-389.24878 -293.55597 -1.8554652 255 255 255
2113.5059 4629.1665 11.87173 255 255 255
-11805.222 -13830.329 -61.133236 255 255 255
3388.0054 3297.7539 5.349164 255 255 255
1019.676 1395.3684 3.1051455 255 255 255
2012.7122 3027.1768 5.51051 255 255 255
1733.7089 3694.4849 6.9926147 255 255 255
14084.823 8568.957 24.758802 255 255 255
460.01004 387.00845 1.1414996 255 255 255
4034.2537 4522.5771 8.9186068 255 255 255
4374.5845 13202.398 24.026041 255 255 255
-257.1998 -728.80359 -2.4297094 255 255 255
436.92709 751.90869 1.4420899 255 255 255
1062.6357 1291.6626 3.1083341 255 255 255
4552.5146 9050.9541 17.277309 255 255 255
2835.6938 8040.3066 14.347716 255 255 255
-85.207001 -160.89232 -1.5246842 255 255 255
1115.4281 3953.5032 6.6761026 255 255 255
-301.39777 -798.90979 -2.3961384 255 255 255
395.43878 1563.5953 2.65553 255 255 255
-2404.9062 -3531.7654 -10.83862 255 255 255
-301.71759 -167.97539 -1.4603897 255 255 255
1749.7672 2020.373 4.6672597 255 255 255
1298.4542 1410.4454 3.4020839 255 255 255
-1948.2145 -3650.9382 -7.5747528 255 255 255
370.07797 458.36209 1.2586449 255 255 255
-510.96216 -738.73785 -2.8432806 255 255 255
-50.251354 -98.225777 -1.1571888 255 255 255
3734.1978 1521.0916 7.9978962 255 255 255
2063.6763 2395.958 5.1591368 255 255 255
4858.1626 6617.7686 14.128425 255 255 255
2165.084 983.02704 5.0789957 255 255 255
1218.366 1067.83 2.7363396 255 255 255
-512.22876 -924.32086 -3.4129534 255 255 255
1227.9888 1721.6316 3.6117237 255 255 255
27434.562 24690.818 80.137558 255 255 255
-1290.6465 -1790.4658 -4.2252808 255 255 255
1162.3024 1587.0171 3.5327313 255 255 255
-1160.4396 -4245.1099 -7.8185725 255 255 255
-916.59753 -296.2814 -1.9744722 255 255 255
-1843.7699 -2319.1284 -6.8281751 255 255 255
552.96863 1524.495 2.6736314 255 255 255
472.38983 473.07565 2.4475832 255 255 255
1262.5876 1523.6763 3.5344608 255 255 255
-2069.9355 -1630.3301 -4.5783453 255 255 255
1819.0645 1957.9993 4.5576172 255 255 255
-3232.1738 -2784.4043 -7.3857026 255 255 255
-108.40403 -941.66473 -3.4177511 255 255 255
803.04358 1156.8459 1.6620351 255 255 255
-6073.1777 -9845.1309 -18.911987 255 255 255
-412.36041 -346.55496 -1.918483 255 255 255
-193.5999 -553.12158 -1.8620521 255 255 255
-386.24542 -653.75055 -2.3492582 255 255 255
-1073.7292 -1608.24 -4.5000916 255 255 255
1548.1161 1571.0337 3.9832246 255 255 255
1158.1271 1342.5763 2.0227635 255 255 255
-10889.063 -4641.9785 -14.417786 255 255 255
1459.1194 931.85156 3.199168 255 255 255
-3218.6899 -6508.3774 -13.250193 255 255 255
-44.854225 -109.72312 -1.1845285 255 255 255
1582.0751 2770.8555 4.8494549 255 255 255
-1122.9943 -1233.2515 -2.7572491 255 255 255
-1082.4672 -599.97125 -2.5721278 255 255 255
-1743.0367 -3700.7493 -12.958271 255 255 255
504.52548 1248.6022 2.3954999 255 255 255
-299.10202 -362.54816 -1.6093218 255 255 255
1040.6921 1478.0637 3.1998785 255 255 255
1054.6868 1238.3651 1.8637594 255 255 255
-354.47696 -136.24423 -1.4301864 255 255 255
-1800.9417 -2456.6794 -5.6341286 255 255 255
1028.3688 1439.5886 3.156024 255 255 255
-8394.667 -2133.8066 -11.309388 255 255 255
-1239.7339 -1155.8317 -2.8670096 255 255 255
4137.4883 2536.6533 9.0135965 255 255 255
-385.80804 -1004.4736 -2.5103414 255 255 255
-1645.0107 -4093.019 -7.8805737 255 255 255
-4339.4648 -4939.8257 -15.001881 255 255 255
3458.3218 2201.3528 7.210835 255 255 255
367.97232 470.85605 1.0476117 255 255 255
-558.47467 -1354.5759 -3.8186212 255 255 255
-354.38419 -513.23022 -2.3180742 255 255 255
1312445.6 1021869.6 2159.8464 255 255 255
-20739.752 -79466.305 -136.9781 255 255 255
3192.4934 2518.0928 6.8834667 255 255 255
-451.6463 -1149.5032 -3.3687348 255 255 255
-5169.3657 -9211.625 -20.766703 255 255 255
-847.99005 -344.5274 -4.4849672 255 255 255
-4876.0942 -17714.605 -29.967377 255 255 255
357.85925 346.90466 0.8526783 255 255 255
4053.2642 2980.146 8.7702122 255 255 255
-760.89331 -1099.3672 -2.9974864 255 255 255
-7916.7109 -17542.695 -34.501415 255 255 255
829.05774 1399.0243 2.8781397 255 255 255
-491.26895 -1068.4265 -2.881453 255 255 255
-217.39824 -370.32043 -1.8092811 255 255 255
793.03784 910.16638 2.4453905 255 255 255
2000.8064 2781.178 5.3140674 255 255 255
-996.63409 -2827.1521 -6.0344348 255 255 255
4358.1406 3666.873 11.435114 255 255 255
-1077.4044 -4143.7085 -7.0209227 255 255 255
400.11856 708.05902 1.3978719 255 255 255
1028.3798 1386.2651 3.1129358 255 255 255
777.85468 1593.5283 2.9991865 255 255 255
-199.41849 -1946.5828 -4.1202078 255 255 255
-621.59625 -2569.3508 -4.8162866 255 255 255
-332.69006 -191.5748 -1.8021442 255 255 255
-9623.2178 -9467.7695 -25.685801 255 255 255
-512.17053 -511.69058 -2.1739974 255 255 255
-2323.6404 -5277.2412 -11.534578 255 255 255
1214.5212 2317.2114 3.4702163 255 255 255
1772.8536 2985.7749 6.3509488 255 255 255
-3804.2449 -4425.1494 -13.697105 255 255 255
-26.484558 -54.5033 -1.0955775 255 255 255
3682.3442 3818.7537 8.0677509 255 255 255
429.99008 467.52829 1.1792933 255 255 255
-1180.7361 -1375.5466 -3.3954632 255 255 255
-89.588188 -115.59979 -1.3160263 255 255 255
-144.99162 -204.98349 -1.5081158 255 255 255
-282.07028 -165.22786 -1.6689498 255 255 255
717.04077 1614.9484 3.0822735 255 255 255
405.91016 158.91048 1.8269004 255 255 255
-1528.0833 -1031.0404 -3.3753407 255 255 255
-11856.991 -25096.408 -49.266319 255 255 255
-691.81628 -1042.5497 -3.9560869 255 255 255
553.45819 572.21893 1.6353204 255 255 255
-9082.665 -19352.352 -33.016956 255 255 255
2633.1338 1611.7501 5.0935607 255 255 255
13746.369 8377.042 24.201517 255 255 255
2068.217 2040.9705 4.9872794 255 255 255
-25.689268 -53.944107 -1.0930101 255 255 255
-252.51671 -95.499725 -1.3048086 255 255 255
-1053.1434 -2668.1575 -5.7129655 255 255 255
30101.809 28708.111 52.04731 255 255 255
1424.0675 2029.5623 5.2933793 255 255 255
-679.89069 -1044.4646 -3.2541254 255 255 255
-28.378897 -49.520542 -1.084716 255 255 255
1188.5232 1565.9395 3.4647021 255 255 255
-11064.839 -9532.7383 -28.018461 255 255 255
1297.3375 3860.2488 6.5989127 255 255 255
3869.6313 5581.0132 7.6942401 255 255 255
787.51025 2065.5081 3.4639528 255 255 255
-1745.265 -2078.5273 -6.7552247 255 255 255
459.61282 199.60587 1.0121584 255 255 255
-576.25061 -1403.5497 -3.8698454 255 255 255
808.47107 2081.7468 3.4985199 255 255 255
-61.586666 -132.39847 -1.3098733 255 255 255
-41.948826 -124.59987 -1.2374396 255 255 255
1478.3074 1113.402 3.6952529 255 255 255
-13181.74 -7325.8237 -18.303625 255 255 255
-55.354397 -76.315315 -1.2151672 255 255 255
4243.0332 4094.0212 7.4535103 255 255 255
-593.30133 -613.39429 -2.2121136 255 255 255
-13275.172 -7304.96 -18.493776 255 255 255
-279.09857 -288.05307 -1.5444169 255 255 255
-318.04962 -257.46594 -1.6190503 255 255 255
-345.63239 -269.35699 -1.7175363 255 255 255
42381.594 85725.297 170.95938 255 255 255
1215.1074 1673.0997 3.5644231 255 255 255
-158.89438 -439.6015 -1.6378391 255 255 255
2443.4355 2186.095 4.3216295 255 255 255
836.29181 1123.2524 5.1306009 255 255 255
-13816.61 -5154.6655 -19.325384 255 255 255
-2375.5588 -3424.6116 -10.43024 255 255 255
-298.41168 -187.959 -1.530732 255 255 255
146.7379 105.33853 0.32226935 255 255 255
536.95435 514.39819 0.90435815 255 255 255
14576.987 3741.1252 27.945805 255 255 255
3216.3867 1779.4995 7.5006967 255 255 255
459.13876 239.51804 1.0517806 255 255 255
-29.168055 -69.685471 -1.1077639 255 255 255
-2071.9482 -3597.6335 -7.2729831 255 255 255
4090.9661 16636.391 28.303349 255 255 255
-716.7478 -1481.9038 -3.748601 255 255 255
1692.7954 2467.4602 4.7348108 255 255 255
674.59821 2328.2708 4.0174241 255 255 255
-3510.4673 -960.99628 -5.1489348 255 255 255
-1217.5344 -852.84967 -2.9216707 255 255 255
-1755.999 -2021.7032 -4.6339235 255 255 255
3597.551 1942.9923 7.5307961 255 255 255
1006.6262 406.59998 1.5089934 255 255 255
-250.00548 -240.73495 -1.5067139 255 255 255
1493.0402 1689.9675 3.9627299 255 255 255
1257.6067 1703.3043 3.6408165 255 255 255
-5301.4707 -4336.6392 -8.927002 255 255 255
-1808.4883 -1565.3745 -4.2225661 255 255 255
-866.21008 -1391.1782 -4.9053011 255 255 255
-1049.7191 -927.63171 -2.8367968 255 255 255
1614.985 1802.989 4.1685801 255 255 255
-1395.226 -1119.0398 -3.5277479 255 255 255
-40.396301 -125.73811 -1.2377893 255 255 255
1783.8527 1950.5981 4.5019078 255 255 255
-747.51965 -714.08093 -2.4775255 255 255 255
-386.55307 -1830.9858 -4.2285848 255 255 255
-232.662 -207.04268 -1.4378227 255 255 255
-2391.9954 -695.61548 -3.6622257 255 255 255
-2450.801 -2255.8208 -5.4785252 255 255 255
-2468.0215 -2277.0347 -5.5367346 255 255 255
1125.619 1615.4971 3.4136457 255 255 255
-654.63196 -1097.6442 -3.3383987 255 255 255
1735.8546 2021.9879 4.7590084 255 255 255
-294.83292 -192.14021 -1.5299561 255 255 255
-284.75403 -81.399498 -1.3325428 255 255 255
-913.21368 -1206.2316 -4.1516757 255 255 255
-345.75327 -651.38837 -2.1550126 255 255 255
-2096.5029 -1590.3402 -3.9531777 255 255 255
-149.4966 -145.6465 -1.2796584 255 255 255
608.98206 1057.5817 1.3416225 255 255 255
1059.1453 1287.0253 3.0966489 255 255 255
1619.4192 1500.7025 4.05828 255 255 255
-432.96503 -1067.4113 -2.7945769 255 255 255
2124.5 1456.8737 3.3837876 255 255 255
-61.826542 -46.933861 -1.0966004 255 255 255
-1254.7523 -866.55951 -2.7345293 255 255 255
-3336.4473 -3156.5942 -7.8469925 255 255 255
-1119.4017 -876.22479 -2.9869044 255 255 255
-185.90329 -108.22352 -1.4555849 255 255 255
1472.7611 929.16406 3.6681652 255 255 255
-953.88184 -554.82153 -2.4681582 255 255 255
3848.2966 11377.84 21.910902 255 255 255
-12875.558 -19129.836 -73.620346 255 255 255
-60.866386 -113.20734 -1.2477975 255 255 255
1594.869 1595.0133 4.0554714 255 255 255
-41.442127 -101.65462 -1.2837648 255 255 255
3276.3945 1942.6056 6.9651079 255 255 255
-431.01389 -1057.5294 -2.7782435 255 255 255
2021.0568 3049.71 5.5352397 255 255 255
-2407.0203 -4465.9067 -9.0549326 255 255 255
711.73218 1843.8973 3.1786976 255 255 255
-709.51276 -1407.6831 -3.4824986 255 255 255
-613.37781 -938.55969 -3.4696767 255 255 255
-7385.7031 -6772.4302 -12.713812 255 255 255
1620.7629 1817.2019 4.1802197 255 255 255
-456.6933 -695.93677 -2.217948 255 255 255
-222.88637 -185.45717 -1.3446336 255 255 255
-295.03693 -368.81161 -1.4881636 255 255 255
-2463.3054 -4510.7427 -9.3660107 255 255 255
3717.3457 1512.9054 7.9530916 255 255 255
-123.58115 -551.7193 -1.8477738 255 255 255
1008.3605 1516.6133 3.1898594 255 255 255
-43.272926 -89.065369 -1.1535872 255 255 255
521.23383 310.74149 0.9922514 255 255 255
-49.281719 -122.61515 -1.2014831 255 255 255
116.16034 116.65894 0.3653495 255 255 255
-262.19766 -233.69318 -1.4755296 255 255 255
-67.101265 -106.68667 -1.1937751 255 255 255
-12962.744 -6987.4727 -17.999155 255 255 255
-3572.1543 -11159.956 -19.631407 255 255 255
1197.6416 1138.2493 2.0421412 255 255 255
-54.338863 -82.508881 -1.1258934 255 255 255
-1983.5997 -1484.1918 -4.4138107 255 255 255
110.83504 72.12854 0.52686125 255 255 255
-942.82135 -1681.7572 -3.852855 255 255 255
1506.7916 1677.7683 3.9744451 255 255 255
377.36902 1464.7217 2.529314 255 255 255
17431.855 14841.507 31.134527 255 255 255
9625.8428 9686.4668 24.663445 255 255 255
1935.5563 1409.9424 4.5656905 255 255 255
-2018.4723 -4078.7976 -8.5638676 255 255 255
-617.15851 -861.65009 -3.1841733 255 255 255
794.37598 1510.381 2.9446549 255 255 255
1428.3053 2702.4573 5.6393604 255 255 255
-5286.8843 -22099.744 -38.788803 255 255 255
-15399.577 -7342.0562 -21.867081 255 255 255
506.1199 674.3551 1.6839993 255 255 255
836.71216 1174.7798 2.3482726 255 255 255
-524.31818 -901.04749 -2.9766459 255 255 255
473.15619 1260.6951 2.3809309 255 255 255
1145.3586 1408.0626 3.2512968 255 255 255
17130.074 7262.2778 39.865093 255 255 255
564.5354 1799.9207 3.0206416 255 255 255
1116.127 1390.0389 3.2446961 255 255 255
2339.825 3325.1812 6.9692421 255 255 255
2315.3381 1863.5424 5.5757813 255 255 255
-1756.4536 -2347.7615 -7.6197615 255 255 255
-52.612331 -70.345627 -1.1699361 255 255 255
-1848.3042 -3037.6904 -6.2559915 255 255 255
1658.3701 1669.5385 4.1711454 255 255 255
1236.3232 1699.7561 3.6097429 255 255 255
796.41406 2034.1122 3.4340751 255 255 255
-253.55664 -334.22281 -1.7404281 255 255 255
804.45868 1614.6405 3.0458784 255 255 255
178.92526 163.36725 0.7396751 255 255 255
-2017.0039 -13096.216 -27.656401 255 255 255
302.60678 336.8382 0.90992606 255 255 255
1007.108 590.27734 1.613608 255 255 255
4119.0776 12512.707 24.42865 255 255 255
781.09521 1125.5197 4.1303887 255 255 255
-101.55663 -108.36528 -1.3415022 255 255 255
16697.523 13853.372 29.792246 255 255 255
-91.374069 -187.31143 -1.3886957 255 255 255
-998.42889 -477.76498 -2.3474088 255 255 255
1224.1333 1395.1881 2.1237879 255 255 255
-1142.2578 -966.01685 -3.0451252 255 255 255
-934.92358 -1946.8711 -4.9331102 255 255 255
1672.2891 1742.9098 4.2276058 255 255 255
-2062.1887 -2930.9617 -6.4809546 255 255 255
1713.4512 1484.6504 4.1919007 255 255 255
754.50171 1653.6952 3.0265694 255 255 255
-1270.1385 -1189.1022 -3.2186472 255 255 255
-222.32576 -670.27356 -2.1944022 255 255 255
-1596.1298 -4128.6855 -7.4326167 255 255 255
-2112.5227 -1647.5074 -4.6086574 255 255 255
1813.2509 1950.4534 4.5421424 255 255 255
760.86243 1576.7937 2.9660804 255 255 255
-280.41504 -492.01224 -1.9156872 255 255 255
4376.1416 8525.4414 20.084282 255 255 255
15016.428 7530.9175 26.329016 255 255 255
-156.40485 -593.19025 -2.2314982 255 255 255
687.15051 1603.9757 2.9117563 255 255 255
1453.4447 1567.7693 3.8296611 255 255 255
2636.5232 704.22186 3.8552318 255 255 255
7466.124 8964.6104 40.894505 255 255 255
1949.0624 1371.8474 4.5860481 255 255 255
-629.33008 -1693.412 -4.2373214 255 255 255
-1394.4333 -5698.1538 -10.943293 255 255 255
1208.4679 1688.8573 3.5663748 255 255 255
-684.05804 -1518.0757 -3.780829 255 255 255
1590.1265 1256.7256 3.9272656 255 255 255
-1304.5742 -1193.9233 -3.2842586 255 255 255
1152.9269 1522.7661 3.3812244 255 255 255
1036.1067 3211.325 5.4951539 255 255 255
449.49524 1090.158 2.1626885 255 255 255
-60.363724 -104.38452 -1.1760292 255 255 255
-340.80487 -752.59851 -2.3807647 255 255 255
1704.5394 1623.3857 4.2310343 255 255 255
-2027.8585 -1726.6614 -4.526053 255 255 255
-42.712582 -128.74788 -1.2385724 255 255 255
-950.80841 -1226.3842 -3.4765708 255 255 255
1552.0857 1714.4976 4.0599027 255 255 255
-1266.3389 -1018.7992 -2.6396301 255 255 255
-72.253723 -102.09853 -1.2257926 255 255 255
-1509.7726 -4240.3271 -7.2586517 255 255 255
-316.9274 -131.40689 -1.8243746 255 255 255
-1092.9999 -7044.229 -14.867785 255 255 255
-3056.0967 -7787.6851 -15.716061 255 255 255
-277.11142 -503.87665 -1.8476691 255 255 255
-407.42279 -629.76044 -2.3471811 255 255 255
1093.0817 1646.9233 3.3862712 255 255 255
3155.3083 3188.239 5.5453892 255 255 255
571.8949 1249.2977 2.462651 255 255 255
-1010.2336 -448.36758 -5.2094679 255 255 255
1063.2163 1777.5947 3.7335892 255 255 255
-2631.4028 -2515.1099 -6.0513468 255 255 255
724.63873 1717.1107 3.0730944 255 255 255
888.10303 1958.7253 3.8281317 255 255 255
-239.3251 -1319.0137 -3.1051686 255 255 255
960.94464 1191.78 2.8902395 255 255 255
1055.8917 1257.62 3.0691664 255 255 255
-753.90582 -968.50269 -2.1229193 255 255 255
2119.5671 7054.5015 12.253053 255 255 255
-363.86563 -139.77965 -1.9688909 255 255 255
1084.0076 1187.1143 2.7278316 255 255 255
5227.4282 3173.8049 9.8200817 255 255 255
1541.9231 1564.7806 3.9672759 255 255 255
-3311.1277 -3361.4143 -7.5539017 255 255 255
1803.1239 1356.5669 4.3143339 255 255 255
-1364.5913 -3540.6265 -6.2139487 255 255 255
-1221.8784 -824.72156 -2.5441768 255 255 255
-2369.2544 -1786.2084 -5.0480218 255 255 255
-401.57376 -651.53418 -2.1934462 255 255 255
1251.2728 1537.8281 3.5212808 255 255 255
1226.3881 644.76331 1.8587476 255 255 255
3282.0432 1921.3441 6.9717116 255 255 255
-279.74527 -108.82653 -1.2948817 255 255 255
-399.1828 -914.76404 -2.5799828 255 255 255
-588.69061 -635.46454 -2.4771793 255 255 255
-4248.7056 -2294.0613 -5.9997096 255 255 255
-1331.3184 -1484.9661 -3.7447417 255 255 255
-473.03387 -675.65479 -2.6519191 255 255 255
632.76105 1494.038 2.7550886 255 255 255
-596.35547 -1097.4094 -2.9385738 255 255 255
-274.83716 -645.72534 -2.1700137 255 255 255
-60.065678 -128.42587 -1.3107117 255 255 255
-3539.9771 -971.19287 -5.1843348 255 255 255
1885.7063 1888.6387 4.6161571 255 255 255
3196.8306 2519.7134 6.891715 255 255 255
-889.88507 -878.01593 -2.1090837 255 255 255
1027.5693 1437.7727 3.1527064 255 255 255
-5002.9082 -5105.9644 -23.026388 255 255 255
776.90161 1592.1021 2.9972806 255 255 255
1606.183 1863.4937 2.9959571 255 255 255
-949.4173 -1008.5912 -3.064785 255 255 255
-1570.8687 -3369.5898 -6.6144948 255 255 255
-1470.0804 -2403.2002 -5.0328126 255 255 255
2135.8638 2700.2947 5.4377108 255 255 255
-3262.4917 -3186.6824 -7.6195884 255 255 255
-1128.0071 -2793.8345 -6.1243668 255 255 255
-6865.333 -5366.5552 -13.318044 255 255 255
84.656891 196.47745 0.79534549 255 255 255
1403.7404 1734.9664 3.843358 255 255 255
641.25037 1138.7512 2.0005085 255 255 255
-992.53668 -1662.1403 -4.529994 255 255 255
1154.5878 1665.6052 3.4902177 255 255 255
-1271.3334 -2419.5762 -4.6852918 255 255 255
-2962.1785 -2903.0046 -13.956687 255 255 255
-484.42163 -1056.324 -2.7028055 255 255 255
-1565.7032 -1309.6121 -3.307982 255 255 255
3150.9138 4065.4478 9.4935169 255 255 255
499.51547 482.79041 1.8602711 255 255 255
-651.14117 -1144.2582 -4.0103908 255 255 255
1151.8138 1347.0895 3.2732911 255 255 255
-2085.9998 -1735.1377 -5.3652716 255 255 255
-6392.2876 -18888.707 -32.95409 255 255 255
1486.0724 4256.3496 9.0418882 255 255 255
1467.0448 3394.8706 5.9496083 255 255 255
1258.444 1518.415 3.5217164 255 255 255
-80.139847 -142.90982 -1.4861723 255 255 255
-2139.5911 -2226.2393 -7.2942858 255 255 255
57.590374 67.891869 0.16743784 255 255 255
784.77832 2039.0757 3.433727 255 255 255
6799.5088 12615.35 26.75671 255 255 255
-7296.7451 -2565.5879 -9.7639694 255 255 255
-3681.1125 -4662.9878 -10.032578 255 255 255
-341.67871 -221.64658 -1.5749122 255 255 255
-1584.6749 -4064.2 -9.1341896 255 255 255
2059.6531 2390.4082 5.1482368 255 255 255
741.09778 624.83539 1.138443 255 255 255
-372.23288 -1199.6807 -3.2444601 255 255 255
-2422.7288 -4290.9771 -8.3965788 255 255 255
-1487.7365 -3238.6033 -7.2743945 255 255 255
-2486.4788 -3836.5393 -7.5663557 255 255 255
-691.83936 -1673.9812 -5.2105317 255 255 255
783.99127 1502.274 2.9287634 255 255 255
-10701.993 -12580.147 -28.964603 255 255 255
1700.512 1620.0048 4.2209215 255 255 255
1267.6053 1338.7319 3.4242003 255 255 255
-44.823139 -95.067612 -1.228398 255 255 255
34922.945 10725.578 61.481579 255 255 255
8447.1758 5259.1055 13.682387 255 255 255
-566.13025 -1321.1327 -3.6028059 255 255 255
1462.1136 1862.2146 4.0207591 255 255 255
4460.2246 4318.5015 7.8629732 255 255 255
-2471.3237 -2285.9893 -5.5798573 255 255 255
-246.39835 -217.74554 -1.5002471 255 255 255
-2706.3328 -970.2229 -6.2233214 255 255 255
-332.54343 -322.78201 -1.6451486 255 255 255
2022.5631 3045.3523 5.5434122 255 255 255
-846.78455 -334.90182 -1.9264544 255 255 255
5588.2329 3521.5042 10.854593 255 255 255
20055.459 18987.211 46.091511 255 255 255
1177.7124 1662.0039 3.5087008 255 255 255
349.37881 320.74734 0.85441518 255 255 255
-1777.9803 -1704.365 -4.8248096 255 255 255
-60.131161 -58.026268 -1.1180998 255 255 255
-24.035917 -53.234619 -1.0905436 255 255 255
125121.52 73454.336 303.97427 255 255 255
-1530.1686 -1042.652 -3.3708594 255 255 255
-147.45013 -157.05992 -1.2843328 255 255 255
3774.3154 5109.3545 12.965516 255 255 255
-408.9866 -1145.7365 -2.9247472 255 255 255
-13455.877 -6183.8833 -18.639492 255 255 255
10582.139 20094.098 41.705177 255 255 255
-12118.091 -6531.5781 -16.489613 255 255 255
-551.11609 -1172.4419 -3.4153228 255 255 255
697.5697 498.88379 1.1680685 255 255 255
1169.1628 949.55237 2.792809 255 255 255
-890.62225 -893.73572 -2.4339077 255 255 255
-315.76837 -274.40646 -1.5999253 255 255 255
-43.794231 -121.14394 -1.2173691 255 255 255
15799.671 29636.9 59.855301 255 255 255
13858.899 8444.9443 24.385172 255 255 255
-1701.5525 -1297.6255 -4.5119615 255 255 255
1234.6882 1697.2672 3.6033411 255 255 255
72.62635 26.522692 0.15613288 255 255 255
-350.13699 -940.6972 -2.8262935 255 255 255
-30.860821 -126.58155 -1.2167542 255 255 255
-1789.2109 -1219.1113 -4.1653986 255 255 255
347.15649 1149.9711 2.1461651 255 255 255
3516.5454 3478.843 6.2465487 255 255 255
1170.4313 1668.0256 3.5091105 255 255 255
1702.8514 2478.3801 4.7617054 255 255 255
-72.571716 -108.74384 -1.2716196 255 255 255
-1454.1791 -1617.9504 -5.7640991 255 255 255
-240.3537 -192.59738 -2.0850852 255 255 255
-13200.457 -7241.2231 -18.381424 255 255 255
5229.2979 6494.8188 9.6885386 255 255 255
-127.31238 -426.94708 -1.7760469 255 255 255
-41.392925 -124.80701 -1.1870326 255 255 255
1926.0942 1375.3738 4.5402002 255 255 255
526.79236 1554.6759 2.7431064 255 255 255
1608.1842 1494.2563 4.0384474 255 255 255
-2163.8359 -826.44586 -3.3582332 255 255 255
1714.4604 1799.4996 4.3362746 255 255 255
3828.4207 4200.7134 9.5186348 255 255 255
-319.65637 -695.95038 -2.1661413 255 255 255
1274.9193 2354.4597 4.0357461 255 255 255
-628.60718 -1399.2129 -3.7553325 255 255 255
-47.295895 -79.207481 -1.1687051 255 255 255
1858.2634 1887.6031 4.5737534 255 255 255
1252.6216 527.79999 1.944983 255 255 255
-1443.8512 -1903.2738 -5.7542987 255 255 255
1173.256 3384.4741 6.0275517 255 255 255
3762.2368 1513.6532 8.0438032 255 255 255
-35319.176 -91299.797 -163.48143 255 255 255
1033.7516 1484.7233 3.204215 255 255 255
-47.480679 -154.7151 -1.486783 255 255 255
-29740.346 -22581.154 -50.327343 255 255 255
1958.093 1551.408 4.632658 255 255 255
466.72394 151.26233 0.73353601 255 255 255
834.94214 1735.7438 3.2967019 255 255 255
3711.2026 1510.1295 7.9425273 255 255 255
-645.53003 -639.59088 -2.4023533 255 255 255
6268.3115 3971.5032 9.6928883 255 255 255
573.47723 234.64922 0.86110997 255 255 255
-1281.1001 -886.30188 -3.0740516 255 255 255
474.77957 399.37842 1.4817823 255 255 255
1635.4984 1831.0383 4.2248139 255 255 255
-1568.2614 -1748.1239 -5.8069239 255 255 255
-2090.8833 -1585.6642 -3.9437404 255 255 255
-1245.0958 -3057.5371 -6.9968262 255 255 255
-6348.7095 -5035.2183 -10.312328 255 255 255
1381.0253 1373.2573 3.6153066 255 255 255
3540.7429 1908.2015 7.4327717 255 255 255
1715.5667 1455.3918 4.1891899 255 255 255
-1192.8657 -930.36749 -2.7556922 255 255 255
802.17041 1306.1222 2.7682347 255 255 255
-522.78796 -316.46445 -2.3233759 255 255 255
-284.28653 -81.204834 -1.3320459 255 255 255
520.60699 1544.8798 2.7295816 255 255 255
699.68225 1786.1663 3.1151881 255 255 255
-2447.72 -2271.5483 -5.4752774 255 255 255
-1103.9529 -8022.3442 -13.988503 255 255 255
1238.5765 1678.8008 3.5899632 255 255 255
1231.7278 527.99445 1.9368331 255 255 255
16518.896 13681.337 29.446514 255 255 255
-1221.3767 -813.7359 -2.942085 255 255 255
-1530.5253 -380.43042 -4.5834789 255 255 255
-13102.08 -7071.5088 -18.187023 255 255 255
-354.74405 -218.41481 -1.7259626 255 255 255
-734.62714 -1229.5303 -4.3455291 255 255 255
-5278.4512 -6751.4805 -29.680761 255 255 255
-379.14667 -621.45398 -2.0744042 255 255 255
-912.32574 -464.83203 -2.102536 255 255 255
1492.5421 1690.4885 3.9642601 255 255 255
532.70734 1586.2552 2.7806487 255 255 255
1984.4028 2295.4092 5.5592504 255 255 255
451.04617 1105.7567 2.2501247 255 255 255
1024.9069 1395.5872 3.1165991 255 255 255
1056.4104 1257.9365 3.0712636 255 255 255
155378.77 36409.355 275.25122 255 255 255
3710.272 3840.8308 8.1291437 255 255 255
-3413.2068 -2944.6538 -6.6980948 255 255 255
376.66116 1464.0417 2.5297229 255 255 255
-3458.0417 -5410.0562 -14.428415 255 255 255
1888.1516 1888.9866 4.6222615 255 255 255
158.97569 305.50638 0.76169306 255 255 255
-2153.8188 -1201.5518 -4.2194033 255 255 255
1017.428 1427.3962 5.5312791 255 255 255
17281.615 14713.228 30.876385 255 255 255
-26.090302 -104.44109 -1.1677685 255 255 255
1438.5652 1442.3777 3.7528155 255 255 255
2184.0679 967.81171 5.1265993 255 255 255
-306.60675 -484.79724 -2.122051 255 255 255
1939.6963 1364.689 4.5634074 255 255 255
785.26807 1585.3597 2.9982514 255 255 255
1471.4153 928.24304 3.6626596 255 255 255
-997.64056 -1565.1962 -3.7931077 255 255 255
758.10803 1985.3091 3.3596339 255 255 255
176.04567 313.04352 0.66916031 255 255 255
1106.1584 1471.7516 3.2793746 255 255 255
298.15924 288.41403 0.72143102 255 255 255
-12902.123 -6005.4966 -17.924648 255 255 255
710.58521 1839.0741 3.1720665 255 255 255
4043.291 4532.7944 8.9456892 255 255 255
-58.38694 -104.15205 -1.1604097 255 255 255
1726.3212 1490.7802 4.2174649 255 255 255
2378.8135 3374.5957 6.1748967 255 255 255
-2127.1809 -6162.666 -10.920883 255 255 255
258.65973 1556.1709 2.5584126 255 255 255
-9279.1475 -5580.5864 -12.21165 255 255 255
281.23444 274.79169 0.68666589 255 255 255
838.21039 1012.8945 2.7608414 255 255 255
-246.92947 -234.70323 -1.3921607 255 255 255
2622.2944 700.47906 3.835634 255 255 255
1356.9347 1261.6 3.5324011 255 255 255
1301.7802 4857.6084 8.8025713 255 255 255
2349.4705 3331.9082 6.1123862 255 255 255
6536.2378 3444.2083 13.447734 255 255 255
-762.67285 -1726.0624 -4.5174222 255 255 255
1433.381 1787.6086 3.925514 255 255 255
1040.6162 1589.3407 3.2932291 255 255 255
-3775.6458 -5478.3066 -11.462945 255 255 255
679.01947 1433.3085 2.7599971 255 255 255
1997.5062 2480.377 5.5128455 255 255 255
640.98853 449.20792 1.0055271 255 255 255
1127.3291 1617.1044 3.4173899 255 255 255
788.88049 1720.7761 3.953069 255 255 255
-1010.2747 -1304.2367 -5.284379 255 255 255
633.26398 1629.7679 2.9059966 255 255 255
-10425.381 -14253.782 -38.899982 255 255 255
1053.9083 1218.5364 3.0369816 255 255 255
-40.374271 -106.07317 -1.2302959 255 255 255
-2455.4177 -2547.1367 -6.1231885 255 255 255
-2418.0454 -5800.4072 -10.435975 255 255 255
-786.93744 -305.23425 -1.7670745 255 255 255
-3128.8269 -3649.5913 -10.064524 255 255 255
-3996.1785 -1435.1302 -5.4427972 255 255 255
782.88733 1892.4562 3.772207 255 255 255
116.34173 268.68481 0.50754893 255 255 255
571.8974 1249.9144 2.4647863 255 255 255
3241.1008 3854.6926 15.138182 255 255 255
-1305.319 -2657.5032 -5.1527143 255 255 255
1568.8495 2193.3018 4.806284 255 255 255
1475.8718 1112.5841 3.6908042 255 255 255
-8009.5513 -18667.377 -35.205143 255 255 255
-52.183445 -69.986298 -1.1688457 255 255 255
252.89931 505.38327 1.8740755 255 255 255
539.62048 1575.83 2.7683666 255 255 255
-159.94737 -539.06207 -1.9114362 255 255 255
1727.3756 901.19885 4.1905279 255 255 255
-7268.3828 -6505.9419 -15.691858 255 255 255
1260.9755 1479.0697 3.5015566 255 255 255
20811.826 19932.592 62.02766 255 255 255
632.36707 1491.9139 2.7543073 255 255 255
-975.93475 -608.24261 -2.5471344 255 255 255
-16768.635 -70437.758 -120.34564 255 255 255
1489.6757 1343.2513 3.7889669 255 255 255
-84.952354 -141.82639 -1.3218532 255 255 255
1608.2328 1863.4587 2.9992914 255 255 255
193.99837 55.863098 0.42924553 255 255 255
619.35992 1608.5618 2.8834937 255 255 255
-595.66437 -1060.3774 -2.8949072 255 255 255
1659.0986 2236.6067 4.5339131 255 255 255
1366.6935 1910.1855 3.8968844 255 255 255
1119.4053 2408.9175 3.9981461 255 255 255
-713.52863 -1727.5725 -4.3143539 255 255 255
-352.17184 -908.25409 -2.6423905 255 255 255
-2266.6113 -1902.9554 -4.9453502 255 255 255
374.51706 452.46091 0.97584987 255 255 255
-2828.8293 -5850.4805 -9.765729 255 255 255
1823.4867 1963.8861 4.571918 255 255 255
-950.9231 -1662.1211 -3.9409783 255 255 255
1096.1814 1651.074 3.3978076 255 255 255
-624.62317 -2410.5769 -5.8065038 255 255 255
-22849.447 -73096.07 -148.71251 255 255 255
551.28711 1217.3606 2.4076638 255 255 255
1035.9896 1481.9744 3.1938176 255 255 255
-2032.3506 -3976.8113 -8.3894491 255 255 255
377.68375 287.66223 0.66491508 255 255 255
828.37628 1397.1818 2.8785815 255 255 255
-87.402519 -86.276627 -1.2771496 255 255 255
534.09991 1667.4332 2.8643079 255 255 255
2902.269 6190.2905 12.214389 255 255 255
-2055.2952 -2073.9226 -5.3141413 255 255 255
676.36829 1444.8612 2.7636445 255 255 255
4937.1934 3102.5076 10.497766 255 255 255
1336.0623 2367.262 4.460454 255 255 255
-53.549042 -172.01146 -1.321087 255 255 255
-854.86963 -1525.5717 -3.3457475 255 255 255
965.3963 1650.1544 3.3736455 255 255 255
1319.229 1854.6658 4.0763226 255 255 255
-2691.4387 -2446.9021 -6.7689314 255 255 255
-417.82053 -914.90582 -2.8544688 255 255 255
-2365.0437 -2990.6941 -6.085434 255 255 255
766.43317 1374.2043 2.783591 255 255 255
559.56342 1302.8538 2.5090635 255 255 255
1821.6019 1974.7631 4.5684643 255 255 255
-82.406281 -123.51754 -1.3249764 255 255 255
-2193.0447 -2699.7888 -5.5300932 255 255 255
-8817.6045 -26358.865 -45.083096 255 255 255
700.50775 3208.4465 5.2179132 255 255 255
-251.25923 -683.70819 -2.2774494 255 255 255
-687.45367 -3758.8354 -7.966867 255 255 255
419.69598 753.46759 1.3738959 255 255 255
4481.3398 10376.081 20.367762 255 255 255
-1772.6864 -2525.4519 -7.2295828 255 255 255
-5782.9038 -8467.9941 -21.729149 255 255 255
-240.5827 -710.37622 -2.2655699 255 255 255
-1983.2369 -3511.0205 -6.9544988 255 255 255
-307.52911 -123.74167 -1.3216848 255 255 255
-184.55281 -142.18443 -1.8141794 255 255 255
2095.0764 1366.009 4.1939783 255 255 255
803.60956 961.46552 2.17172 255 255 255
-2711.3464 -5892.9702 -11.966037 255 255 255
3214.2886 2109.2988 6.8480458 255 255 255
755.47107 1917.7974 3.2870419 255 255 255
542.91302 1393.4166 2.5886738 255 255 255
1740.6084 1804.217 4.3449492 255 255 255
753.81305 496.56909 3.6022391 255 255 255
-141.68982 -281.84442 -1.4782263 255 255 255
4343.6797 3643.1858 7.3486481 255 255 255
524.96552 1550.442 2.7341285 255 255 255
3600.311 3692.0498 7.9022899 255 255 255
1381.0988 1375.229 3.6162927 255 255 255
-10068.728 -3283.3193 -12.979984 255 255 255
1340.1217 3609.5859 6.4156604 255 255 255
359.85962 1144.4281 2.1448443 255 255 255
1326.5133 699.92157 2.1445305 255 255 255
739.28595 361.37411 1.6798836 255 255 255
-203863.56 -133827.14 -333.1629 255 255 255
846.43744 1677.9904 3.1474905 255 255 255
1173.374 1659.5109 3.4983797 255 255 255
14207.212 14485.048 25.248411 255 255 255
-1200.4062 -1077.1516 -3.1233637 255 255 255
1979.4562 3138.8508 5.8484664 255 255 255
-95.312088 -91.916412 -1.1386634 255 255 255
1958.7601 1550.9899 4.6289458 255 255 255
319.3801 138.99228 0.5027737 255 255 255
2165.5354 1947.504 3.7194903 255 255 255
3429.4668 3237.9856 7.4861112 255 255 255
-60.719284 -87.251366 -1.2139376 255 255 255
-1909.145 -594.39355 -4.1351781 255 255 255
-948.25177 -552.13776 -2.4621847 255 255 255
-396.74744 -706.74426 -2.1606214 255 255 255
1512.4757 658.29803 2.3965075 255 255 255
1636.7145 1833.6144 4.228456 255 255 255
-1334.6688 -851.59753 -3.1715312 255 255 255
-24190.295 -17120.945 -38.393398 255 255 255
-1750.1211 -1585.8374 -4.5853214 255 255 255
3731.2249 1518.0966 7.9828525 255 255 255
3546.0017 3101.8977 6.2360768 255 255 255
-15606.224 -10052.489 -26.438255 255 255 255
3443.9097 2970.3884 5.9459605 255 255 255
-13716.863 -5106.8604 -19.1959 255 255 255
1153.9332 609.70135 1.8597945 255 255 255
1247.3634 1694.2736 3.6224046 255 255 255
1851.663 1879.8982 4.557457 255 255 255
-1602.3837 -1602.7557 -4.3064876 255 255 255
-413.84778 -374.78046 -1.8323274 255 255 255
2087.7471 3613.4844 7.597991 255 255 255
1378.2559 747.38586 2.2722092 255 255 255
589.39801 569.0105 0.9913274 255 255 255
7371.769 6993.6206 12.922755 255 255 255
24939.07 20720.068 42.080315 255 255 255
3985.3967 4589.4082 7.1184564 255 255 255
-36.257282 -120.78065 -1.2021571 255 255 255
-3098.2585 -1930.7128 -4.4899015 255 255 255
-1565.988 -1808.6934 -4.2667141 255 255 255
-49.656132 -127.53299 -1.2451745 255 255 255
904.88245 706.29718 1.4093238 255 255 255
2510.8904 2027.1915 4.3427391 255 255 255
-67.568001 -60.560543 -1.1903625 255 255 255
1303.983 3239.8352 5.8934593 255 255 255
2076.6167 8895.4189 14.102328 255 255 255
678.51294 1676.3733 2.9850581 255 255 255
-2045.8501 -1186.8149 -5.3646936 255 255 255
800.4856 2092.0789 3.5010529 255 255 255
-200.34589 -497.36282 -1.8507038 255 255 255
-1598.826 -1110.9993 -3.5099492 255 255 255
-222.71758 -298.02316 -1.5198001 255 255 255
563.96497 1742.17 2.9605742 255 255 255
151.92354 34.522198 0.22069632 255 255 255
-1099.0204 -871.60931 -2.6360281 255 255 255
308.73843 871.90149 1.7891308 255 255 255
271.52435 278.03638 0.71800035 255 255 255
-6027.7935 -22694.902 -37.238323 255 255 255
1762.2484 1759.2513 4.3710723 255 255 255
-11228.025 -6580.9761 -24.118759 255 255 255
-3348.5029 -2407.0088 -6.6162744 255 255 255
897.29248 596.06342 1.4002732 255 255 255
-202.44048 -546.28607 -2.0454383 255 255 255
-268.5621 -139.68504 -1.5279891 255 255 255
786.60425 1590.6367 3.0044956 255 255 255
1442.3215 2422.4509 4.2052655 255 255 255
1225.569 1724.8923 3.6132867 255 255 255
550.63837 1217.0345 2.4048913 255 255 255
1193.0406 1002.8055 2.5946455 255 255 255
-64.008728 -179.8735 -1.3820593 255 255 255
210.01747 217.42386 0.47534302 255 255 255
1241.368 1705.9183 3.6236572 255 255 255
1249.4547 1038.8907 1.9366674 255 255 255
-5930.354 -3723.1914 -12.957869 255 255 255
1605.4923 1791.3545 4.157784 255 255 255
1441.0427 1445.9017 3.7617891 255 255 255
695.85046 1773.1169 3.0895374 255 255 255
-211.44971 -574.92896 -1.9430491 255 255 255
-5958.1357 -12831.209 -24.705173 255 255 255
2207.4629 2071.4189 3.8769822 255 255 255
1155.976 1666.8741 3.4922709 255 255 255
-4079.1562 -7894.0479 -16.392166 255 255 255
-9137.4463 -8067.2344 -24.047285 255 255 255
3693.178 3824.4312 8.0928612 255 255 255
-39.040367 -72.165512 -1.1148646 255 255 255
666.57751 1495.5959 2.7878821 255 255 255
-66.978172 -148.52847 -1.4667021 255 255 255
571.45984 1248.0719 2.459842 255 255 255
-4662.4219 -16119.345 -30.504444 255 255 255
973.15778 1542.0966 3.1731958 255 255 255
-144.8187 -165.19781 -1.5076555 255 255 255
-1720.9899 -650.29663 -2.7657509 255 255 255
5123.1196 4195.2676 9.3980846 255 255 255
-26.087431 -104.44376 -1.1677864 255 255 255
-85.752419 -167.42828 -1.2586201 255 255 255
-311.10324 -260.45599 -1.6129882 255 255 255
1313.7477 1423.0277 2.2514575 255 255 255
-1617.1797 -1731.0139 -3.9380541 255 255 255
5290.2446 8231.457 16.752064 255 255 255
-2070.8289 -1522.2141 -4.4504094 255 255 255
-8915.1152 -28447.516 -54.232056 255 255 255
768.85779 1376.5643 2.7891135 255 255 255
759.14111 1663.6567 3.0445168 255 255 255
1121.2759 1207.6926 3.1314952 255 255 255
-1121.3071 -517.53003 -5.3073888 255 255 255
-58.078178 -114.33406 -1.2002164 255 255 255
-874.81665 -274.09497 -1.8567982 255 255 255
655.14581 1110.2588 2.0667207 255 255 255
-470.20801 -661.76715 -2.8158085 255 255 255
-615.60986 -1587.2668 -5.4914732 255 255 255
-1794.8818 -1410.5948 -3.9732604 255 255 255
485.70938 434.71378 1.052786 255 255 255
206.35309 200.34964 0.49594221 255 255 255
1456.5774 1855.5132 4.0039778 255 255 255
1114.3057 1360.2305 3.2220252 255 255 255
-1160.3864 -1238.718 -6.0959635 255 255 255
5490.2754 12067.073 22.881222 255 255 255
-3389.5608 -2728.6326 -7.9655895 255 255 255
-1041.0157 -239.92551 -3.3690112 255 255 255
-262.44427 -279.87509 -1.5583243 255 255 255
1732.4874 1781.7776 4.3398361 255 255 255
1939.0583 1367.0588 4.5639725 255 255 255
668.87976 1609.0928 2.9035804 255 255 255
1350.4004 1841.835 2.5421212 255 255 255
-7146.5503 -19138.322 -32.961807 255 255 255
4013.365 4505.9546 8.879138 255 255 255
1924.2115 1374.6018 4.5365472 255 255 255
1875.6113 1878.8661 4.5910368 255 255 255
10360.076 26199.559 50.52182 255 255 255
1140.3958 3235.9717 5.0698071 255 255 255
-911.94183 -464.79208 -2.1023099 255 255 255
-3440.0032 -2666.7898 -6.7940564 255 255 255
-289.85913 -285.53235 -1.6760823 255 255 255
