ply
format ascii 1.0
comment PCL generated
element vertex 1103
property float x
property float y
property float z
property uchar red
property uchar green
property uchar blue
element face 0
element camera 0
property float view_px
property float view_py
property float view_pz
property float x_axisx
property float x_axisy
property float x_axisz
property float y_axisx
property float y_axisy
property float y_axisz
property float z_axisx
property float z_axisy
property float z_axisz
property float focal
property float scalex
property float scaley
property float centerx
property float centery
property int viewportx
property int viewporty
property float k1
property float k2
end_header
-1763.1469 -3368.165 -6.1776261 255 255 255
-802.65601 -655.2782 -2.1486125 255 255 255
561.04987 1488.4193 1.5467309 255 255 255
398.49731 419.43756 -0.021856217 255 255 255
181.4048 78.094742 0.050396465 255 255 255
1393.8405 1101.8833 2.3874204 255 255 255
235.08426 632.12122 0.23533492 255 255 255
1801.8734 813.61792 1.1563562 255 255 255
-2127.9011 -2525.9453 -5.8459516 255 255 255
471.66193 537.53577 0.41333663 255 255 255
49.795639 177.89796 0.14280088 255 255 255
1119.7574 2823.0923 3.7574034 255 255 255
523.5943 446.04294 -0.068485044 255 255 255
-647.69904 -487.47559 -4.1421385 255 255 255
673.77588 1614.1752 1.8781152 255 255 255
297.34866 722.61792 0.27142876 255 255 255
193.27435 249.63934 0.17974479 255 255 255
254.12024 371.41275 0.59131515 255 255 255
1295.3348 3224.5349 4.6705289 255 255 255
972.26685 295.92599 3.1927779 255 255 255
1207.5236 438.34943 0.47487366 255 255 255
463.88983 405.83093 -0.0053022769 255 255 255
98.408554 217.76978 0.13174927 255 255 255
333.67099 381.3363 1.0819068 255 255 255
167.1978 433.08545 0.20542854 255 255 255
-106146.14 -177441.77 -275.57797 255 255 255
4830.0747 5884.6738 11.570367 255 255 255
76.814934 159.56627 0.20615621 255 255 255
88.814346 261.86176 0.3704128 255 255 255
147.98645 224.02235 0.30877167 255 255 255
218.71082 439.86737 0.21495937 255 255 255
572.51862 1170.8713 1.1696569 255 255 255
218.28973 457.7413 0.19917053 255 255 255
177.39621 191.04628 0.37597749 255 255 255
161.39011 531.64587 0.21305507 255 255 255
114.46736 200.29784 0.22705752 255 255 255
140.8289 132.48039 0.11851533 255 255 255
108.75047 204.62256 0.26037562 255 255 255
109.89589 157.85065 0.40403128 255 255 255
205.08607 66.73233 0.67290241 255 255 255
6459.23 14771.129 32.380169 255 255 255
274.56226 251.27962 0.39636678 255 255 255
-2271.9062 -2384.6411 -5.80336 255 255 255
1733.8362 1785.5897 2.8842118 255 255 255
1482.7076 338.33249 0.85747522 255 255 255
211.87276 463.26352 0.19392729 255 255 255
57.319073 51.630074 0.083823442 255 255 255
630.05841 280.24716 0.89907002 255 255 255
-275.20712 -107.67831 -1.3753718 255 255 255
804.99243 1672.4666 2.5719168 255 255 255
568.9502 1464.0094 2.2628582 255 255 255
1603.3306 516.36938 0.82641649 255 255 255
90.989929 181.11536 0.26285878 255 255 255
127.74736 120.48868 -0.005098626 255 255 255
5766.042 3142.0515 6.7199216 255 255 255
89.043587 208.22971 0.27478576 255 255 255
372.65427 220.57414 0.74232 255 255 255
72.864273 157.13342 0.18970974 255 255 255
230.15517 403.14801 0.25178212 255 255 255
-311.59213 -785.92755 -2.3508673 255 255 255
130.48058 154.63791 -0.02712908 255 255 255
159.11372 132.34193 -0.0045181797 255 255 255
220.33003 382.37231 0.26452625 255 255 255
420.49304 459.11865 0.024555294 255 255 255
71.495407 191.1451 0.21671522 255 255 255
452.20688 881.24365 1.275293 255 255 255
72.847198 179.12544 0.18482603 255 255 255
3315.7419 3128.3445 5.7300348 255 255 255
162.94511 184.79994 0.2992585 255 255 255
323.68176 685.00433 0.46025562 255 255 255
557.38318 474.67642 0.35750812 255 255 255
188.18433 442.47485 0.45779723 255 255 255
416.72589 368.55814 0.024045812 255 255 255
303.47684 35.185669 0.6877827 255 255 255
73.360222 231.14528 0.23400959 255 255 255
116.45573 142.40189 0.25782809 255 255 255
1110.6119 2052.3689 3.7972105 255 255 255
102.50512 82.337936 0.21033558 255 255 255
3056.4524 3577.178 7.4282765 255 255 255
315.07199 286.70059 0.5272187 255 255 255
111.05939 251.0152 0.3078531 255 255 255
124.98006 525.60394 0.4672159 255 255 255
277.7153 430.18951 0.2475253 255 255 255
1714.9337 2114.3235 2.941602 255 255 255
169.43216 87.450981 0.032301888 255 255 255
383.57138 926.82153 1.1117809 255 255 255
120.2385 131.80148 -0.016600335 255 255 255
1322.5006 409.37057 0.54636741 255 255 255
4357.4609 5042.2739 10.757294 255 255 255
4415.854 11830.673 16.181431 255 255 255
413.96231 1066.7435 1.2089893 255 255 255
101.3968 125.49739 0.13340321 255 255 255
1081.022 442.81757 0.51186335 255 255 255
95.334908 198.31796 0.10920256 255 255 255
439.86581 951.67181 1.2272896 255 255 255
2245.842 3789.5208 11.145477 255 255 255
439.27731 470.93015 0.34806031 255 255 255
553.77722 358.91611 0.61364263 255 255 255
281.30115 319.32632 1.4770153 255 255 255
660.65735 323.39767 0.80618221 255 255 255
17305.84 18785.359 46.225891 255 255 255
-1639.1356 -1596.6488 -3.4778836 255 255 255
174.88939 721.24316 0.5343051 255 255 255
245.2545 450.61319 0.62210792 255 255 255
2469.5461 3024.6472 6.0723333 255 255 255
1783.4591 3497.9282 5.667747 255 255 255
124.43269 259.23941 0.39641896 255 255 255
-84.972885 114.74724 -0.74923444 255 255 255
-47.775982 -90.938812 -1.4553068 255 255 255
718.24896 368.97202 0.26750931 255 255 255
1004.4558 575.99353 0.18896022 255 255 255
216.11136 476.8204 0.18220405 255 255 255
2437.2175 6031.4136 9.4838171 255 255 255
928.62292 276.58041 1.2058136 255 255 255
1950.5239 2675.8416 4.3251247 255 255 255
227.03395 453.67529 0.20431665 255 255 255
-2665.9749 -2876.1309 -4.5024824 255 255 255
156.3667 188.33438 0.38006884 255 255 255
227.22232 417.7948 0.23790666 255 255 255
59.308025 280.19885 0.24260378 255 255 255
-1275.5215 -3085.7637 -6.4468155 255 255 255
1526.5289 3726.6968 5.59484 255 255 255
-4128.5366 -13266.104 -24.434206 255 255 255
559.63202 470.39502 0.36862782 255 255 255
370.3667 1140.0188 1.0974134 255 255 255
560.96051 194.87738 1.5327848 255 255 255
890.80176 869.93402 0.89754206 255 255 255
510.02249 531.48981 -0.05495004 255 255 255
854.43225 378.85016 0.76359236 255 255 255
541.04199 480.30307 0.34001479 255 255 255
1079.4752 490.42703 0.28543097 255 255 255
602.51227 1957.0736 3.0214977 255 255 255
765.16577 1211.6349 0.77939194 255 255 255
187.74666 114.98952 0.043816622 255 255 255
1648.6539 3426.8428 5.740459 255 255 255
1666.1798 2236.1523 2.1027594 255 255 255
500.90417 463.64197 0.35473728 255 255 255
223.03209 453.52292 0.20407704 255 255 255
113.53377 143.43922 0.27862069 255 255 255
823.72559 776.41315 1.4636713 255 255 255
253.9324 817.29712 1.1285933 255 255 255
-2134.324 -2539.1562 -4.3931856 255 255 255
-139.72496 186.30144 -0.61265171 255 255 255
-387.68292 -589.12531 -1.9613774 255 255 255
7746.5933 3995.2429 7.8575315 255 255 255
342.76746 854.16107 0.65846449 255 255 255
368.88037 373.7482 1.2009456 255 255 255
351.56158 796.5412 0.50557399 255 255 255
301.17102 615.29358 0.27108023 255 255 255
1106.1821 771.05408 2.6071317 255 255 255
976.25708 484.22607 0.36101398 255 255 255
-130.80635 177.3019 -0.61359358 255 255 255
1764.5326 266.29449 1.0744556 255 255 255
1053.9264 495.83411 0.28478622 255 255 255
3209.3416 3196.7805 5.6926126 255 255 255
388.95502 811.57269 0.41559047 255 255 255
1013.7798 2584.2124 3.2097027 255 255 255
-1166.7014 -474.31235 -2.2559288 255 255 255
143.41447 139.64656 0.40585569 255 255 255
707.08417 2194.2817 3.5366106 255 255 255
1273.291 1866.0782 2.9675829 255 255 255
239.52151 582.71179 0.50432199 255 255 255
-318.76944 -165.78516 -1.3638623 255 255 255
1272.7048 445.7475 0.37973583 255 255 255
240.39833 189.97855 0.61359382 255 255 255
512.30664 621.55426 1.1137975 255 255 255
110.62778 83.932358 0.1517213 255 255 255
829.34406 1172.071 2.7882187 255 255 255
2260.4653 6563.2808 9.9618282 255 255 255
148.69177 230.74118 0.39907795 255 255 255
113.07539 189.88976 0.25340343 255 255 255
1276.3062 3786.739 6.170434 255 255 255
293.98553 661.07837 0.49335217 255 255 255
901.82501 2878.0903 3.9959784 255 255 255
176.1049 562.77661 0.28908214 255 255 255
649.7287 1269.4758 1.8492546 255 255 255
-2480.4062 -3239.3391 -4.4849863 255 255 255
365.59875 355.30078 -0.0071777077 255 255 255
-2279.5784 -2545.4524 -5.9240241 255 255 255
3977.1399 6450.6816 8.4746771 255 255 255
278.27274 194.93933 0.63846231 255 255 255
181.39926 362.65652 0.25085336 255 255 255
211.6226 388.88861 0.25410721 255 255 255
1349.1484 473.01489 0.65566117 255 255 255
-2546.3215 -2625.4495 -6.5066729 255 255 255
235.40781 471.539 0.19044392 255 255 255
236.5611 532.93549 0.23820992 255 255 255
-596.026 -627.07251 -2.3037241 255 255 255
-2151.9717 -1660.504 -7.5602708 255 255 255
642.87585 1415.5914 1.8291783 255 255 255
84.018127 212.27316 0.26267636 255 255 255
473.79865 583.85699 2.4648168 255 255 255
631.28705 261.21637 0.87476265 255 255 255
1569.3024 1631.7444 3.4347456 255 255 255
-1504.2136 -1796.4974 -4.1837983 255 255 255
235.01631 470.96606 0.19105099 255 255 255
39.153358 107.15382 0.056455214 255 255 255
-10012.691 -7935.8882 -18.129148 255 255 255
99.474686 191.73187 0.47818682 255 255 255
-441.49332 -294.72998 -2.3458405 255 255 255
67.726006 196.73181 0.28919268 255 255 255
1312.9617 466.21106 0.64445448 255 255 255
111.8215 168.01666 0.22557628 255 255 255
695.51929 728.01398 1.4448638 255 255 255
831.93378 1697.6904 2.5167847 255 255 255
1594.8423 1069.8987 1.8450389 255 255 255
1188.6017 1208.6744 4.0679512 255 255 255
88.274658 187.50874 0.069284163 255 255 255
436.5806 163.09705 0.85564858 255 255 255
925.16058 2559.4719 3.4297857 255 255 255
263.35425 429.96722 0.24195582 255 255 255
198.37572 253.32785 0.35413501 255 255 255
1685.1439 640.56744 0.94821239 255 255 255
868.37421 436.57623 0.55986559 255 255 255
105.07188 102.85116 0.20452605 255 255 255
323.97702 752.06744 0.65786034 255 255 255
-487.94205 -983.02338 -3.2461877 255 255 255
796.91852 1728.0177 1.957011 255 255 255
91.415031 135.35472 0.11254067 255 255 255
-52.846138 -57.99017 -1.1139992 255 255 255
41.767475 43.440781 0.084734924 255 255 255
220.07062 131.33023 0.40808377 255 255 255
-61.812969 -25.159588 -1.0768149 255 255 255
1515.3253 3236.6052 5.9542875 255 255 255
229.1877 445.49368 0.20438446 255 255 255
745.24567 783.90906 1.5362881 255 255 255
266.43811 720.52618 0.25945559 255 255 255
468.59229 1273.2876 1.2302502 255 255 255
271.15237 708.67548 0.36970988 255 255 255
78.294312 81.327881 0.19726753 255 255 255
699.98047 1901.2191 2.9912899 255 255 255
-1503.0822 -1394.8514 -6.1107202 255 255 255
-64.841934 -79.914429 -1.1526549 255 255 255
-3208.886 -3561.3516 -8.4236116 255 255 255
98.092171 168.58882 0.093649492 255 255 255
211.62369 199.38284 0.31504887 255 255 255
363.69928 215.49037 0.035172079 255 255 255
-2328.001 -2464.8271 -6.1208248 255 255 255
874.9101 432.73743 0.5736416 255 255 255
130.89362 75.944092 0.018740047 255 255 255
561.97186 473.74744 0.36213991 255 255 255
130.73756 170.76744 0.11598001 255 255 255
409.39059 417.63672 -0.01591788 255 255 255
-325.69128 -534.98499 -1.9366239 255 255 255
103.82055 131.22446 0.16979919 255 255 255
256.35217 565.92133 0.56563681 255 255 255
103.16631 195.56494 0.51631254 255 255 255
-1502.3237 -3603.1404 -7.6678219 255 255 255
5079.8213 7056.209 12.862429 255 255 255
343.62106 781.65869 0.48317581 255 255 255
1383.4884 1297.0038 1.2645667 255 255 255
499.18823 978.70538 1.4607966 255 255 255
-921.50177 -244.88811 -1.8940893 255 255 255
2559.4487 2338.6165 2.3930631 255 255 255
40.479565 114.38592 0.13589676 255 255 255
293.04388 118.49669 0.75920761 255 255 255
544.70172 403.97626 -0.04068746 255 255 255
355.00119 508.72699 0.68879324 255 255 255
1068.4913 2235.2859 3.1471729 255 255 255
1797.9103 1582.8701 2.7776155 255 255 255
298.7796 286.02258 0.4953014 255 255 255
319.48679 426.94693 0.17380507 255 255 255
2602.3992 3426.9548 6.6140323 255 255 255
1188.402 2666.541 4.1033778 255 255 255
-8383.2998 -7818.5073 -12.969084 255 255 255
223.84695 451.69308 0.20581661 255 255 255
429.06583 1090.9508 1.3771557 255 255 255
87.739365 78.352562 0.098331377 255 255 255
-6687.8174 -8916.4092 -13.385257 255 255 255
-4573.2314 -1764.6427 -6.2836566 255 255 255
144.0312 433.18408 0.19971627 255 255 255
-7084.2715 -6614.3105 -11.242195 255 255 255
215.21945 475.40457 0.18290843 255 255 255
413.58066 917.6416 0.96477157 255 255 255
495.08783 1018.4347 1.2284961 255 255 255
77.490639 93.392975 0.075848117 255 255 255
76.986763 159.62617 0.20474517 255 255 255
-151.67828 -78.447479 -1.2713253 255 255 255
117.57827 97.873718 0.3263481 255 255 255
795.0993 1832.3501 2.2415106 255 255 255
296.33167 686.6059 0.36485386 255 255 255
-1234.666 -1552.851 -4.840745 255 255 255
213.79143 475.54568 0.18308295 255 255 255
144.16187 42.373047 0.065392323 255 255 255
163.76865 117.08293 0.017190678 255 255 255
-2992.6987 -2829.0811 -5.4052191 255 255 255
100.42838 254.07353 0.25715959 255 255 255
228.59718 418.64343 0.23772292 255 255 255
406.70844 507.70935 -0.099346891 255 255 255
299.21799 581.47015 0.31796452 255 255 255
308.18576 561.49426 0.90406114 255 255 255
88.014771 238.03116 0.11527147 255 255 255
324.82401 375.18927 1.4180753 255 255 255
222.44785 66.773262 0.43373215 255 255 255
-1711.009 -2001.1227 -5.1743627 255 255 255
340.63022 752.3114 0.44057849 255 255 255
386.86789 1182.5277 0.92497969 255 255 255
185.17094 117.89888 0.43526903 255 255 255
231.92336 414.25354 0.24207316 255 255 255
922.89502 502.01349 0.30647582 255 255 255
51.290752 119.22033 0.064129718 255 255 255
83.965569 131.10631 0.10103966 255 255 255
1112.6174 2384.8892 3.4659283 255 255 255
103.08076 209.97426 0.26016495 255 255 255
733.63654 2802.6975 3.7000446 255 255 255
-276.742 -136.76662 -3.3465123 255 255 255
98.688225 231.98915 0.29429287 255 255 255
-1852.0769 -1100.1705 -4.700717 255 255 255
289.09186 762.22943 0.29344186 255 255 255
66.552826 154.0148 0.071624011 255 255 255
258.95346 203.33484 0.3657937 255 255 255
735.96185 1316.8223 2.1633215 255 255 255
797.09576 1556.5012 1.9350014 255 255 255
-4370.7842 -4598.6348 -11.448491 255 255 255
416.27176 1391.2144 1.8001858 255 255 255
89.282913 138.67432 0.27546617 255 255 255
71.617615 170.83426 0.10069291 255 255 255
73.040207 185.72977 0.23134089 255 255 255
1263.9105 1793.4185 2.8658235 255 255 255
-530.99292 -602.84912 -2.2728012 255 255 255
881.0163 1689.0206 2.0424833 255 255 255
243.0157 672.27905 0.61547959 255 255 255
-379.11038 -265.24271 -3.1195445 255 255 255
146.4278 215.44551 0.17765476 255 255 255
102.41026 47.635288 0.069050714 255 255 255
230.94194 435.98026 0.22253731 255 255 255
312.12778 810.60449 0.80164307 255 255 255
-467.47144 -620.74658 -2.0304265 255 255 255
152.24857 186.48048 -0.044349294 255 255 255
1364.9498 1287.9175 2.1600795 255 255 255
1354.9038 1411.1086 2.5180395 255 255 255
185.39211 113.79174 0.042033061 255 255 255
217.51297 399.77731 0.24971275 255 255 255
-5726.938 -5361.1704 -9.2327166 255 255 255
177.62923 135.61176 0.023464968 255 255 255
-1960.2915 -1182.8732 -3.3908012 255 255 255
1282.2706 409.70905 0.4421134 255 255 255
1017.8006 2481.6423 3.2618921 255 255 255
490.69568 922.40405 1.4595015 255 255 255
8932.4971 7961.7529 12.00696 255 255 255
704.02661 1039.9178 1.1755283 255 255 255
319.37527 500.50842 0.35377401 255 255 255
527.72858 1439.4423 1.8441834 255 255 255
-188.75272 -54.466911 -1.1825887 255 255 255
427.47711 806.38922 0.4356879 255 255 255
175.5266 369.83249 0.31114554 255 255 255
551.95221 1322.5509 1.5876368 255 255 255
469.72867 442.06177 -0.0051712575 255 255 255
282.64615 554.22327 0.25898111 255 255 255
-1280.2942 -82.086548 -2.1606927 255 255 255
637.87988 1205.8936 1.7962526 255 255 255
194.65207 441.98755 0.20900853 255 255 255
91.792747 221.06436 0.65760422 255 255 255
-618.73718 -1035.476 -2.9766808 255 255 255
390.80493 780.15387 0.41044444 255 255 255
192.57179 158.80362 0.098176353 255 255 255
2738.719 7128.7695 10.87567 255 255 255
13402.797 10223.798 27.199888 255 255 255
316.68176 511.54645 0.7503038 255 255 255
330.77286 698.7793 0.38710007 255 255 255
578.61249 1304.5029 1.5480322 255 255 255
460.08231 488.04684 -0.055232093 255 255 255
864.00647 433.93716 0.56760329 255 255 255
1352.9797 1516.9332 2.4661002 255 255 255
1814.5642 2030.9062 3.4481597 255 255 255
323.34506 951.76379 0.93150163 255 255 255
554.35474 481.72086 0.3415103 255 255 255
408.65164 95.839653 1.2869821 255 255 255
4677.6572 5718.0391 11.850212 255 255 255
1933.9948 1851.9574 1.4489993 255 255 255
-509.35495 -695.00848 -2.5481954 255 255 255
5401.7705 5388.167 7.9048491 255 255 255
441.27975 474.67371 -0.10432712 255 255 255
862.76672 2178.6584 2.5303321 255 255 255
145.50334 215.7395 0.37999684 255 255 255
-30179.094 -32512.871 -72.148605 255 255 255
-666.72998 -319.14828 -1.7825361 255 255 255
414.29962 1191.5304 0.91806161 255 255 255
-188.04701 -104.34035 -1.21323 255 255 255
159.27682 104.39111 0.0078755468 255 255 255
2208.3054 3605.3948 4.3025899 255 255 255
191.24658 113.24207 0.046054315 255 255 255
349.76526 796.13708 0.57156652 255 255 255
206.24236 945.38818 0.86394757 255 255 255
150.17889 168.23877 0.19211654 255 255 255
181.21172 348.51361 0.25924313 255 255 255
120.94283 107.1856 0.39668459 255 255 255
568.68402 464.931 0.060728725 255 255 255
670.96259 464.74152 0.067012943 255 255 255
880.67157 2925.9802 4.5111732 255 255 255
-116198.24 -139218.03 -183.18637 255 255 255
140.08295 167.83325 0.088373408 255 255 255
564.38202 812.08301 0.32605901 255 255 255
196.51508 178.90628 0.38101098 255 255 255
72.628502 131.60002 0.15672816 255 255 255
125.09415 199.58011 0.38795426 255 255 255
321.14465 864.89301 0.54916251 255 255 255
245.07048 283.35074 1.1400894 255 255 255
150.65224 222.91631 0.034925796 255 255 255
4075.4719 3219.3694 6.2904968 255 255 255
1662.2671 1748.0856 1.3206679 255 255 255
650.27698 674.01605 0.58912319 255 255 255
574.32849 470.5076 0.37437448 255 255 255
1097.2845 464.56924 0.40133366 255 255 255
726.45337 1500.4016 2.180583 255 255 255
1843.4822 1937.8568 2.4267502 255 255 255
-7865.0767 -3656.5051 -35.284184 255 255 255
183.12769 243.36044 0.48679113 255 255 255
182.60921 101.71245 0.33196074 255 255 255
-1789.7225 -1840.7891 -3.6672091 255 255 255
-440.29996 -630.52167 -2.197634 255 255 255
1205.0164 537.08954 0.4451749 255 255 255
312.0202 467.18423 0.06946028 255 255 255
67.659439 53.533939 0.11643437 255 255 255
-778.09314 -201.6427 -1.8447504 255 255 255
367.6304 849.61353 0.41732463 255 255 255
1195.2714 2605.0247 3.3562665 255 255 255
306.08578 220.9969 0.024319954 255 255 255
139.30994 178.90085 0.27550769 255 255 255
156.32324 94.460052 0.29343608 255 255 255
3494.4221 2858.7139 5.4110918 255 255 255
683.56635 311.64957 0.86271983 255 255 255
262.50647 87.586029 0.090165764 255 255 255
102.0534 79.698936 0.17575362 255 255 255
243.99585 431.65399 0.2310005 255 255 255
420.85239 658.95624 0.23231648 255 255 255
793.96411 1163.7408 1.6014522 255 255 255
-161.8699 188.95781 -0.70000952 255 255 255
-16567.307 -11296.062 -33.109066 255 255 255
-24282.623 -22903.049 -49.246082 255 255 255
-8820.1562 -20094.221 -107.96079 255 255 255
-882.56488 -284.23877 -1.7963383 255 255 255
514.98157 208.66899 0.14972708 255 255 255
155.31282 130.44864 0.25107232 255 255 255
366.03931 274.62546 0.041514277 255 255 255
-1674.0619 -2097.0107 -5.1638823 255 255 255
1638.2522 3316.0698 5.020184 255 255 255
768.03101 263.38647 0.36530712 255 255 255
-391.83966 -194.44472 -1.4816806 255 255 255
355.13248 306.89038 -0.014127699 255 255 255
924.68445 1415.52 2.8924904 255 255 255
-316.39133 -661.91467 -2.907681 255 255 255
274.44928 664.9325 0.30768418 255 255 255
229.29623 432.64148 0.22596847 255 255 255
349.14243 906.60516 0.78877079 255 255 255
180.97517 864.3772 0.69114178 255 255 255
1360.7062 375.35672 0.72085941 255 255 255
335.91089 709.77002 0.29657641 255 255 255
245.3963 853.44568 0.96382827 255 255 255
117.88099 230.93361 0.27799878 255 255 255
-1150.5575 -688.76581 -2.5813506 255 255 255
107.59534 157.32185 0.26356709 255 255 255
790.02325 2241.9624 2.9579475 255 255 255
986.35315 480.34552 0.37468013 255 255 255
471.27298 834.66925 0.48081902 255 255 255
3410.4807 7315.2285 11.226885 255 255 255
442.22015 1085.91 2.2468438 255 255 255
123.72077 110.76198 0.10367613 255 255 255
-432.54666 -1415.079 -3.2754605 255 255 255
1118.1561 1297.2777 2.0785146 255 255 255
-673.78009 -261.82086 -2.6025128 255 255 255
532.73792 798.38867 0.64069152 255 255 255
-2119.8293 -1492.0253 -4.2589722 255 255 255
2380.3201 1484.0864 4.1610885 255 255 255
-2593.6716 -1665.1036 -7.3345766 255 255 255
-587.85217 -792.31891 -2.3660059 255 255 255
901.57892 1916.6012 2.444891 255 255 255
1024658.4 733923.12 1667.5183 255 255 255
-144.25201 -33.305271 -1.1603758 255 255 255
3503.5051 2076.1189 7.478209 255 255 255
349.76746 731.10638 0.46937031 255 255 255
403.86032 1007.2422 0.7791068 255 255 255
1072.5127 253.73381 0.6759845 255 255 255
507.56335 1125.968 1.3383349 255 255 255
-303.1817 -420.61646 -1.8407376 255 255 255
549.26215 1271.6438 1.2407987 255 255 255
-63.456841 -20.517111 -1.067009 255 255 255
858.65479 2390.1919 3.6538527 255 255 255
64.857323 72.181442 -0.0056417817 255 255 255
173.40233 177.95389 0.39449844 255 255 255
223.41763 215.50842 0.65906131 255 255 255
403.73999 791.72034 1.0771337 255 255 255
336.63458 707.73114 0.2717683 255 255 255
-531.68573 -1958.2629 -5.2190151 255 255 255
510.14706 590.85138 0.62058848 255 255 255
243.03522 225.66719 0.39018121 255 255 255
-1016.5103 -311.20847 -2.068651 255 255 255
238.94977 464.46167 0.19820966 255 255 255
563.55817 438.65756 -0.0039828746 255 255 255
2151.5632 1616.4143 3.8356655 255 255 255
2365.9983 2134.1216 3.4162734 255 255 255
314.13675 135.61435 1.2256398 255 255 255
1731.4849 756.41571 6.6672363 255 255 255
453.30969 423.02164 -0.0037203212 255 255 255
182.11407 571.80853 0.23808955 255 255 255
1211.9313 427.90216 0.52319157 255 255 255
268.01715 566.1991 0.27488762 255 255 255
294.96585 742.7569 0.45920789 255 255 255
234.4865 175.08253 0.20713067 255 255 255
227.66685 181.70598 0.18610376 255 255 255
566.047 830.97961 0.40146071 255 255 255
-12611.05 -16224.004 -23.026213 255 255 255
496.25867 448.90439 -0.046379313 255 255 255
155.38831 299.88705 0.27057454 255 255 255
-1910.0083 -1565.854 -3.4654727 255 255 255
-1297.6038 -749.41412 -14.658255 255 255 255
343.91229 962.2832 0.82349432 255 255 255
1717.3112 661.84979 0.84287721 255 255 255
97.319183 208.28937 0.30951416 255 255 255
273.67285 653.67273 0.23874651 255 255 255
851.96759 1191.0768 0.95097727 255 255 255
6289.8975 8142.7935 16.418125 255 255 255
611.38513 543.55316 0.022008969 255 255 255
403.98737 123.18842 0.72257847 255 255 255
110.30924 270.07803 0.39878416 255 255 255
976.60028 484.28772 0.36137453 255 255 255
69.707932 76.411743 0.11236796 255 255 255
110.18029 236.17294 0.68061018 255 255 255
1502.3586 1646.1422 1.2861731 255 255 255
93.48391 102.57413 0.067231454 255 255 255
-7581.4189 -5334.6489 -10.772259 255 255 255
5866.874 3594.698 37.201618 255 255 255
906.9549 529.97693 0.29396322 255 255 255
-4197.8608 -10971.441 -17.342249 255 255 255
98.764717 119.87243 0.063496515 255 255 255
133.92281 155.99397 0.078278534 255 255 255
57.624718 103.52806 0.10574254 255 255 255
362.11575 130.39886 1.2085319 255 255 255
222.87309 453.23175 0.20407225 255 255 255
209.79634 258.62906 0.99972057 255 255 255
330.01761 260.91455 0.89730513 255 255 255
2136.6736 4317.2646 6.0875459 255 255 255
573.91553 470.30057 0.37410092 255 255 255
621.85297 1111.6592 1.52066 255 255 255
1257.28 3346.1509 4.5032234 255 255 255
2313.6936 842.40057 1.3404977 255 255 255
136.83844 225.74417 0.28900167 255 255 255
428.58716 1227.5383 1.2483343 255 255 255
922.44171 2754.4495 3.6075833 255 255 255
177.5464 65.652283 0.33823666 255 255 255
278.39911 862.31897 0.98765349 255 255 255
-442.59488 -764.18005 -2.4123509 255 255 255
613.37634 1278.9608 1.7540458 255 255 255
1382.309 364.94971 0.77279484 255 255 255
787.88141 1673.0012 1.6775055 255 255 255
164.3432 241.71034 0.33074531 255 255 255
87.769295 227.19791 0.27183551 255 255 255
268.4827 263.59973 0.69517833 255 255 255
1054.7866 2462.1609 3.4161365 255 255 255
-2077.7153 -1540.0322 -5.0955076 255 255 255
252.62807 174.15587 0.4140223 255 255 255
234.19283 147.79419 0.43988106 255 255 255
215.4261 464.99777 0.19257827 255 255 255
-39.178486 64.101265 -0.47297305 255 255 255
-99.268364 -67.534843 -1.1463488 255 255 255
235.39769 1118.7667 1.1207728 255 255 255
879.11218 1212.9871 6.8214741 255 255 255
796.98383 790.2558 2.0761805 255 255 255
307.02985 742.59174 0.30748215 255 255 255
-1049.6089 -396.41461 -2.069169 255 255 255
179.79822 218.28688 0.45562676 255 255 255
-1026.1718 -1464.3005 -3.9963677 255 255 255
316.06863 607.4079 0.90243053 255 255 255
68.9161 158.89456 0.065478653 255 255 255
1203.2262 1177.1659 0.77321875 255 255 255
269.95041 949.27283 0.57388031 255 255 255
526.29913 471.48788 0.034618136 255 255 255
867.42853 433.44684 0.5698911 255 255 255
138.5593 180.43796 0.10869025 255 255 255
267.51166 301.73294 -0.04620133 255 255 255
528.98761 1175.6184 1.2817199 255 255 255
-392.82434 -427.25458 -1.9259852 255 255 255
1513.7994 3233.7283 4.8941898 255 255 255
-152.42012 -79.397774 -1.2741441 255 255 255
216.04356 476.72449 0.18211049 255 255 255
1047.7802 801.98163 2.0854862 255 255 255
277.59283 419.04742 0.74724364 255 255 255
109.69108 244.40047 0.33012107 255 255 255
395.12616 1311.5652 1.5500706 255 255 255
138.01105 82.546562 0.11922705 255 255 255
1344.3168 1141.176 2.1861367 255 255 255
868.32367 436.39432 0.55988932 255 255 255
-6587.0835 -7759.3364 -16.52668 255 255 255
1082.8374 495.35474 0.24037082 255 255 255
100.33292 270.48816 0.36477223 255 255 255
-211.40372 -592.34247 -2.0394461 255 255 255
133.16594 159.89093 -0.028969353 255 255 255
1540.5342 4493.4331 6.764183 255 255 255
-1764.6526 -2000.5056 -3.7753587 255 255 255
429.65778 826.82233 0.73164332 255 255 255
171.03793 203.06871 0.41373995 255 255 255
135.49979 78.565002 0.13588569 255 255 255
237.64388 64.000465 0.38629526 255 255 255
-2943.2234 -3504.6533 -7.5240955 255 255 255
-3153.175 -2278.2356 -6.1862659 255 255 255
469.02597 569.10925 1.0686952 255 255 255
160.68561 117.79697 0.029762328 255 255 255
-2643.47 -3059.8252 -5.6642747 255 255 255
5097.1118 5147.5469 9.5325422 255 255 255
1254.4242 1380.6521 2.1232107 255 255 255
230.78998 434.71017 0.22413599 255 255 255
229.22047 503.41815 0.22290233 255 255 255
3596.1458 3134.6746 7.5593796 255 255 255
276.16153 456.08298 0.73596698 255 255 255
114.13783 326.84003 0.20738453 255 255 255
-687.47839 -241.14804 -1.8515277 255 255 255
989.51282 479.57788 0.37746948 255 255 255
452.7569 1259.2042 1.2793202 255 255 255
-1668.8151 -2121.2266 -4.5793896 255 255 255
2703.2515 6036.5527 9.1048937 255 255 255
-369.29556 -362.33969 -1.9299989 255 255 255
555.53503 359.30792 0.61472416 255 255 255
874.8576 432.47601 0.57330215 255 255 255
-1278.3665 -1029.3019 -2.7500198 255 255 255
1398.9005 406.15479 0.49349499 255 255 255
208.94417 382.35028 0.24991107 255 255 255
529.10492 1335.895 1.3942543 255 255 255
885.53552 468.16901 0.19817548 255 255 255
3588.4099 4629.6641 7.9016829 255 255 255
1123.5923 450.99796 0.45281312 255 255 255
-7802.7388 -8526.3311 -16.370298 255 255 255
1138.9978 269.87311 1.3483149 255 255 255
213.97101 475.56992 0.18333694 255 255 255
-231.63176 -379.07755 -1.7099868 255 255 255
175.18269 362.00427 0.21038008 255 255 255
110.37671 172.90771 0.23186941 255 255 255
235.05461 321.85022 0.32011709 255 255 255
-741.13995 -939.45557 -3.6976175 255 255 255
85.658188 171.36353 0.21565802 255 255 255
167.80316 171.41074 0.59368205 255 255 255
397.43192 820.01398 1.0857629 255 255 255
26986.951 33913.566 68.902664 255 255 255
2862.6211 2737.5972 5.4782867 255 255 255
-904.26654 -876.8559 -2.343401 255 255 255
160.0218 225.64447 0.34865698 255 255 255
40.616562 120.7299 0.15835983 255 255 255
1468.4297 3803.6453 5.0267501 255 255 255
1066.574 1853.0404 3.0523465 255 255 255
126.10455 233.49919 0.19978933 255 255 255
829.90582 1572.3252 2.4318895 255 255 255
75.761566 82.069633 0.13262372 255 255 255
1899.5144 1233.8781 1.9133487 255 255 255
112.31693 221.21469 0.39745271 255 255 255
218.86 440.16528 0.2154047 255 255 255
1245.0146 1611.4932 1.2020363 255 255 255
-275.49103 -394.36642 -1.7150534 255 255 255
183.59132 361.20966 0.14894293 255 255 255
51.346855 124.49456 0.064645119 255 255 255
-6160.5176 -2779.1562 -13.057512 255 255 255
754.06689 301.46271 0.81065291 255 255 255
141.47081 223.16418 0.33045927 255 255 255
215.11575 475.66641 0.1828603 255 255 255
1427.1727 353.5791 0.80771875 255 255 255
779.14087 785.29535 0.46084216 255 255 255
36045.641 33694.82 78.431396 255 255 255
-3567.9148 -3916.7974 -6.3168578 255 255 255
561.85181 473.6944 0.36199933 255 255 255
58.369484 128.42828 0.14026636 255 255 255
933.1366 1025.7245 1.680236 255 255 255
182.33823 252.33043 0.39907154 255 255 255
1055.3711 486.18414 0.2686446 255 255 255
717.57166 1590.334 2.1943903 255 255 255
777.51508 1910.7986 2.6703393 255 255 255
359.737 170.17534 0.80338895 255 255 255
158.73567 236.32468 0.41282266 255 255 255
82.896927 300.51324 0.24386013 255 255 255
1329.4679 399.46326 0.4857145 255 255 255
95.149574 115.0633 0.49418145 255 255 255
-88.757629 -34.34811 -1.537472 255 255 255
184.02567 213.82079 0.34506488 255 255 255
401.84244 323.5314 0.26531374 255 255 255
230.18767 404.21347 0.25049809 255 255 255
184.49896 232.06911 0.50325936 255 255 255
252.62209 217.66882 0.35769904 255 255 255
-6971.856 -12171.021 -28.436941 255 255 255
40.188473 54.001225 0.11067753 255 255 255
371.4343 604.81586 2.4178681 255 255 255
94.299141 132.08397 0.15053338 255 255 255
227.87227 418.45459 0.23747207 255 255 255
610.64136 1541.1245 1.8107581 255 255 255
1202.2983 2201.6997 3.510071 255 255 255
1321.7871 409.14392 0.54638416 255 255 255
284.59467 446.57224 0.23673269 255 255 255
161.78882 153.33815 0.27772245 255 255 255
210.92287 303.48563 0.10409041 255 255 255
91.197433 132.56088 0.070071802 255 255 255
560.31085 649.9444 0.66504002 255 255 255
263.20724 429.70331 0.24183367 255 255 255
-966.46161 -673.83105 -2.2699955 255 255 255
265.41229 563.04968 0.96960503 255 255 255
167.99055 189.89603 0.35859782 255 255 255
319.05029 216.26256 0.83243066 255 255 255
90.147705 56.514442 0.17479785 255 255 255
241.75352 546.54895 0.70528436 255 255 255
526.86774 796.76849 1.6315004 255 255 255
231.28827 404.42831 0.25116 255 255 255
-193.43549 -100.25008 -1.2559161 255 255 255
1416.3229 3061.3586 16.385286 255 255 255
41.987904 108.66286 0.14568119 255 255 255
156.61078 541.03143 0.21811752 255 255 255
2961.7039 4943.1367 8.0085001 255 255 255
112.29374 200.51791 0.34692982 255 255 255
494.43881 1018.002 1.2316539 255 255 255
276.94055 229.45172 0.020607738 255 255 255
757.31909 509.68161 0.29775843 255 255 255
7072.8003 3578.937 16.457291 255 255 255
-1430.4155 -649.19373 -2.5761065 255 255 255
384.68228 199.75914 0.74692327 255 255 255
435.96115 1165.4525 1.4955603 255 255 255
608.89075 1941.3005 2.83745 255 255 255
1419.0092 369.49548 0.71519798 255 255 255
353.44516 251.61125 0.60545307 255 255 255
231.07629 435.13766 0.22336493 255 255 255
312.89713 1340.4921 1.2747577 255 255 255
37.921959 94.132507 0.11395694 255 255 255
1037.4285 1223.6097 0.65021843 255 255 255
-745.36505 -809.04578 -2.4220557 255 255 255
47.334911 116.52222 0.11474337 255 255 255
222.55116 447.56488 0.39869654 255 255 255
-31465.047 -29895.201 -52.193344 255 255 255
43.554924 117.51667 0.12009364 255 255 255
212.18863 454.96109 0.20100899 255 255 255
144.74493 242.30127 0.37015441 255 255 255
366.07678 1199.9486 1.5129914 255 255 255
-4543.4155 -6805.5151 -12.098864 255 255 255
258.76401 73.967148 0.14886759 255 255 255
412.70752 1028.8376 1.1987395 255 255 255
1113.2235 493.8194 0.25843129 255 255 255
-4459.7583 -2422.3181 -6.4241052 255 255 255
655.38287 1096.0592 1.0607791 255 255 255
239.06116 224.85344 0.97525662 255 255 255
390.42313 473.87469 -0.089721106 255 255 255
2142.031 4826.4497 7.3082428 255 255 255
235.7039 471.86789 0.19096994 255 255 255
-19563.35 -9250.7979 -23.814144 255 255 255
277.92731 430.19574 0.2479355 255 255 255
1274.2438 1181.0173 0.97342604 255 255 255
138.64485 263.28589 0.42637607 255 255 255
237.02858 302.43521 0.099845193 255 255 255
986.39673 480.32092 0.37471274 255 255 255
51.199337 139.11403 0.20492239 255 255 255
194.74419 442.51926 0.2081677 255 255 255
165.70778 218.16411 0.37922406 255 255 255
4099.5762 3447.7937 6.4057202 255 255 255
3268.6106 3743.7683 5.5047588 255 255 255
-388.37634 -629.04828 -2.0098987 255 255 255
182.07733 529.16174 0.55901796 255 255 255
-262.59781 -356.22342 -1.6142132 255 255 255
139.89641 120.91871 0.30217913 255 255 255
-2244.8098 -2457.0342 -4.4949703 255 255 255
864.73474 434.11237 0.56844604 255 255 255
-1750.0736 -805.11664 -3.2379389 255 255 255
617.85077 1344.3116 1.6062945 255 255 255
855.9422 379.48114 0.76387548 255 255 255
180546.48 232238.19 285.30859 255 255 255
674.95349 248.76491 1.0061723 255 255 255
-88.824501 -102.04939 -1.3623328 255 255 255
264.76038 477.0069 0.72356814 255 255 255
138.33342 180.45042 0.10865104 255 255 255
102.2626 107.64788 0.067716427 255 255 255
208.45572 658.50555 0.23151183 255 255 255
597.42493 1180.8615 1.7331481 255 255 255
435.10175 1165.9718 1.7190194 255 255 255
262.65091 232.53571 0.38909185 255 255 255
2201.0833 2356.6787 3.5296373 255 255 255
991.90851 2392.0781 3.5475852 255 255 255
1072.739 2706.8621 4.0028386 255 255 255
242.90758 760.85217 0.29727498 255 255 255
1032.2994 1010.1219 1.7843539 255 255 255
-605.02631 -617.30487 -2.0496795 255 255 255
362.80905 331.52835 0.6888032 255 255 255
-1567.5829 -1538.2937 -2.9931345 255 255 255
326.89456 316.29102 -0.02286605 255 255 255
106.79731 199.62375 0.19725028 255 255 255
29.297539 81.001259 0.062382579 255 255 255
360.42462 292.65302 0.024445366 255 255 255
126.52191 198.15506 0.27699479 255 255 255
1762.6654 94.195633 6.6834459 255 255 255
1302.1499 991.83838 2.959172 255 255 255
-4885.9131 -11131.873 -19.18708 255 255 255
575.10815 353.68857 0.78939581 255 255 255
94.842484 254.57776 0.34418428 255 255 255
-5136.8809 -7060.7515 -10.11058 255 255 255
231.51884 176.93027 0.17693882 255 255 255
206.90254 1014.7006 1.0216515 255 255 255
468.62573 743.52063 0.36099711 255 255 255
446.54346 1165.2893 1.2161605 255 255 255
6809.5981 6908.2183 18.095726 255 255 255
3709.5278 7343.3486 12.859615 255 255 255
6106.4673 6617.9756 8.4748631 255 255 255
65.229256 89.210899 0.037708037 255 255 255
-3177.7166 -8161.5107 -19.460985 255 255 255
410.08121 845.37604 1.3341466 255 255 255
793.92926 1721.0001 2.0842075 255 255 255
273.12152 975.073 1.089831 255 255 255
-411.61737 -293.01492 -1.5415531 255 255 255
1080.9061 442.62881 0.51202124 255 255 255
5237.4419 5642.2627 6.0254951 255 255 255
622.0943 420.42462 -0.0076010032 255 255 255
-1708.9285 -5311.1084 -10.504954 255 255 255
-392.00787 -427.3934 -1.5257934 255 255 255
-638.16913 -780.82397 -2.0571928 255 255 255
-1781.2235 -1065.2762 -3.1380687 255 255 255
130.21384 170.14037 0.27244791 255 255 255
-401.95425 -140.03375 -2.9816248 255 255 255
180.79123 414.15479 0.43527898 255 255 255
710.60364 305.08218 0.17845464 255 255 255
2830.531 3630.3235 6.1166711 255 255 255
397.5903 394.05652 1.8922756 255 255 255
-1738.3641 -1769.8939 -3.2811725 255 255 255
-348.26672 -236.90034 -1.4573994 255 255 255
367.46396 1011.2317 0.92229253 255 255 255
1123.4474 461.88354 0.40171975 255 255 255
631.32483 261.32141 0.87498277 255 255 255
2678.49 9248.6797 15.113847 255 255 255
193.7774 292.53802 0.97931635 255 255 255
30.903065 118.38195 0.16134404 255 255 255
230.50929 455.16559 0.20295031 255 255 255
116.73654 117.25866 0.45610702 255 255 255
-3359.8333 -3949.7446 -6.9306488 255 255 255
352.81461 1278.2667 1.2167298 255 255 255
296.21133 146.98923 0.74226081 255 255 255
374.44403 607.55682 1.1885611 255 255 255
12386.602 7292.1953 14.257295 255 255 255
927.39807 276.57123 1.2042006 255 255 255
694.04871 535.65826 0.0098980023 255 255 255
96.828667 182.14532 0.26056898 255 255 255
2881.8062 10674.887 15.638112 255 255 255
-2299.7083 -5911.5405 -9.5802011 255 255 255
825.61652 1474.9768 1.6133573 255 255 255
-3569.7139 -3964.6753 -8.6482754 255 255 255
-193.82816 -381.93106 -1.777442 255 255 255
1404.1672 1891.1698 1.2636006 255 255 255
386.34698 654.87213 0.75248849 255 255 255
78.062881 215.27805 0.096488811 255 255 255
-8895.8594 -5772.3062 -13.055312 255 255 255
-3510.8367 -11344.085 -20.894947 255 255 255
384.85162 701.40533 0.48012772 255 255 255
500.7193 463.59018 0.35459515 255 255 255
881.62567 2395.0337 3.4063921 255 255 255
-30148.053 -28802.137 -78.796562 255 255 255
-1990.7015 -3937.6653 -11.12701 255 255 255
867.17438 437.80469 0.55275702 255 255 255
260.69641 396.98288 0.5484013 255 255 255
305.76059 233.99591 0.039156679 255 255 255
2106.1162 2009.0212 3.9365809 255 255 255
2475.0325 2531.5264 2.1595676 255 255 255
543.03833 619.88739 0.34464565 255 255 255
2212.5522 446.65048 1.4908777 255 255 255
82.999313 59.342606 0.12103532 255 255 255
223.12386 450.27704 0.20722638 255 255 255
167.99786 693.0965 0.55075985 255 255 255
-72.254272 -62.456257 -1.1512138 255 255 255
408.0972 95.602722 1.2851155 255 255 255
1673.5975 2629.9448 3.1022503 255 255 255
1887.4327 5540.1787 7.4282703 255 255 255
-241.84448 -70.563972 -2.2328477 255 255 255
-1018.7622 -916.06702 -2.7988977 255 255 255
378.1983 403.20993 0.36590728 255 255 255
90.836853 182.49136 0.22435926 255 255 255
277.8616 145.26517 0.51568013 255 255 255
259.20868 404.397 0.26470667 255 255 255
213.4749 462.2041 0.19489796 255 255 255
284.28387 1029.0891 1.1474357 255 255 255
12310.542 12827.159 34.550613 255 255 255
62.551498 133.55542 0.15227588 255 255 255
238.74156 464.28561 0.19821452 255 255 255
165.2245 269.32834 0.48769891 255 255 255
-328.89777 -169.54158 -1.3938807 255 255 255
246.18069 469.57852 0.19474219 255 255 255
1055.6255 498.79971 0.2680881 255 255 255
120.28103 142.01895 0.25116241 255 255 255
116.5636 181.52116 0.3275727 255 255 255
4652.5576 5579.9316 11.128289 255 255 255
466.69421 1288.7537 1.4820706 255 255 255
272.42444 830.07635 0.44682297 255 255 255
1328.6085 657.92578 0.64210087 255 255 255
320.23315 122.25813 0.58038235 255 255 255
1013.5532 589.98956 0.27701125 255 255 255
-226.41945 -236.30923 -1.4700862 255 255 255
-1312.8558 -1373.946 -3.33727 255 255 255
427.49203 934.71948 0.58191866 255 255 255
394.66718 830.73804 0.55762637 255 255 255
92.361397 226.70235 0.25906146 255 255 255
-1481.0299 -2353.3962 -6.5174809 255 255 255
157.73483 171.50258 -0.01923305 255 255 255
239.46719 468.88116 0.19448072 255 255 255
460.1001 387.79028 -0.037865259 255 255 255
343.70807 913.8678 0.6530301 255 255 255
834.86786 671.41705 1.8304251 255 255 255
446.0462 1503.3939 1.4676317 255 255 255
3866.5403 3282.3872 6.4791489 255 255 255
103092.64 98082.906 168.3123 255 255 255
174.65262 149.87836 0.009201278 255 255 255
514.13666 460.86209 0.0084191589 255 255 255
156.22545 156.48447 0.32421976 255 255 255
1089.936 761.43768 0.6020655 255 255 255
-4574.7231 -5626.1577 -11.08282 255 255 255
2273.4143 2557.7656 5.6181202 255 255 255
226.99802 417.60031 0.23792522 255 255 255
500.74091 463.11276 0.35568878 255 255 255
213.74442 393.49698 0.25145063 255 255 255
-2722.2593 -2779.5891 -4.5052152 255 255 255
320.72888 794.45239 0.51886076 255 255 255
1130.9653 448.22876 0.46198997 255 255 255
-4270.9775 -4429.6475 -10.148159 255 255 255
-3730.8516 -785.69653 -4.5161848 255 255 255
2562.3489 2622.9141 4.3121066 255 255 255
78.347977 260.93399 0.294267 255 255 255
1737.8394 697.8689 0.83254683 255 255 255
222.38861 164.54593 0.41337106 255 255 255
-136.94814 -282.95096 -1.4847488 255 255 255
231.42343 418.82642 0.23699519 255 255 255
-205.43349 -347.88464 -2.0243187 255 255 255
-114.73288 153.19679 -0.79276675 255 255 255
386.71875 517.25269 -0.11969562 255 255 255
-1406.8577 -1114.0298 -3.6479614 255 255 255
800.29681 1640.9347 1.8771796 255 255 255
466.1947 407.43936 1.3061329 255 255 255
1583.369 1001.2366 0.93305349 255 255 255
-177.83963 -229.70915 -1.3221546 255 255 255
73.550758 250.46552 0.24235892 255 255 255
597.55042 1481.2861 1.7158524 255 255 255
655.01508 1782.5667 2.008846 255 255 255
-3388.7559 -6903.062 -13.232694 255 255 255
237.69211 434.86453 0.22586377 255 255 255
-400.8667 -644.20038 -1.9949911 255 255 255
1248.6055 2565.7256 3.9644828 255 255 255
42.782066 158.72696 0.16669446 255 255 255
441.59152 499.09915 -0.050685611 255 255 255
99.486832 195.77831 0.2816762 255 255 255
321.00125 864.74396 0.54904026 255 255 255
230.00449 466.6311 0.19371085 255 255 255
175.4837 183.40965 0.41410941 255 255 255
109.43685 224.70868 0.44231868 255 255 255
324.35931 543.96063 2.0825942 255 255 255
352.52371 1070.8849 1.1694442 255 255 255
-1333.1317 -3218.4084 -6.8476973 255 255 255
89.783104 214.84949 0.25968719 255 255 255
114.00959 142.3248 0.15285587 255 255 255
3306.5076 2587.9788 4.2714496 255 255 255
401.55225 917.86804 0.58688778 255 255 255
274.74713 31.750175 0.59472048 255 255 255
267.38242 218.49374 0.40361604 255 255 255
93.015564 93.920822 0.13771394 255 255 255
-242.20929 -711.90314 -2.0622556 255 255 255
399.4624 1045.9067 0.69607627 255 255 255
-2581.0002 -6582.3467 -13.465269 255 255 255
-1234.6042 -899.51471 -2.7704995 255 255 255
116.88161 206.48856 0.18729134 255 255 255
579.12268 1118.0081 1.969429 255 255 255
1632.5917 727.92572 0.70159537 255 255 255
1481.5143 486.26828 0.71746093 255 255 255
249.44084 989.02332 1.2598763 255 255 255
310.0509 797.99249 0.86912382 255 255 255
108.84319 165.96428 0.40344301 255 255 255
-204.90051 -50.676498 -1.463688 255 255 255
610.44373 542.38007 0.012958867 255 255 255
310.67062 553.9906 0.77011138 255 255 255
108.39184 157.81421 0.23658159 255 255 255
1067.639 471.93903 0.29888895 255 255 255
239.77565 249.96819 0.55488199 255 255 255
62.383259 157.73247 0.37148812 255 255 255
-1306.1907 -480.69958 -8.6720724 255 255 255
255.93744 594.02136 0.26975727 255 255 255
-1083.3647 -737.92621 -2.4600017 255 255 255
136.3481 164.10062 0.27631995 255 255 255
1054.6074 498.72855 0.26675984 255 255 255
123.54739 118.61068 0.14585143 255 255 255
157.96387 168.71614 0.49349421 255 255 255
707.47003 1543.6257 1.930735 255 255 255
223.12579 386.63004 0.26202318 255 255 255
158.19429 201.53337 0.36346465 255 255 255
-1056.6848 -1677.0703 -4.3947096 255 255 255
221.35683 136.8217 0.2175395 255 255 255
252.7352 217.7762 0.35783622 255 255 255
72.80246 121.84695 0.17537303 255 255 255
266.3812 591.62604 0.34197626 255 255 255
295.03241 776.36395 0.82060021 255 255 255
1242.4119 2757.2964 4.6164808 255 255 255
396.35083 419.13794 -0.046319477 255 255 255
-3797.5103 -3521.4038 -6.1919227 255 255 255
1284.7964 2921.1736 3.8005226 255 255 255
52.061947 213.91714 0.2815223 255 255 255
88.80838 182.272 0.21422864 255 255 255
116.78264 159.62807 0.25620136 255 255 255
1923.9901 398.17673 0.90695316 255 255 255
300.16406 849.83765 0.97361898 255 255 255
-7831.4023 -1299.3679 -21.482718 255 255 255
1228.954 3486.9905 5.5197749 255 255 255
223.62784 480.53809 0.21061833 255 255 255
807.64209 1164.342 1.5851033 255 255 255
-177.65511 -230.06253 -1.322569 255 255 255
393.47815 1278.1469 1.7848946 255 255 255
1521.0742 2786.1865 3.4291961 255 255 255
287.1925 239.57182 0.42188877 255 255 255
608.7605 1607.7485 2.4820449 255 255 255
109.52389 185.34752 0.24904677 255 255 255
929.99548 3084.8025 4.5981097 255 255 255
69.546509 249.65573 0.23971371 255 255 255
868.35303 436.19058 0.56005597 255 255 255
74.780624 231.10933 0.31983796 255 255 255
84.567314 116.11172 0.086767435 255 255 255
775.19183 632.0589 1.1458988 255 255 255
-724.23657 -890.53284 -3.7778087 255 255 255
979.27734 2185.5242 3.0327654 255 255 255
513.55463 488.51178 0.79330492 255 255 255
-668.47827 -974.81036 -3.0926144 255 255 255
562.9198 1531.7511 1.886952 255 255 255
202.95648 322.13309 0.51870644 255 255 255
714.42657 1617.1964 2.5120816 255 255 255
373.34024 1446.5902 1.1760403 255 255 255
529.67572 953.33972 1.5252053 255 255 255
178.87721 181.90366 0.42417532 255 255 255
376.349 1013.2683 1.0319223 255 255 255
678.72229 1684.3466 1.8867474 255 255 255
29.143805 43.013203 0.058584012 255 255 255
451.4418 1134.2296 1.6553535 255 255 255
50.739964 92.730446 0.10072551 255 255 255
412.4032 714.33978 0.6969586 255 255 255
498.68149 979.34143 1.2137275 255 255 255
79.782768 136.17816 0.17075099 255 255 255
-13418.113 -16005.953 -22.862818 255 255 255
87.884956 256.45114 0.29059857 255 255 255
152.35785 255.10786 0.39061791 255 255 255
342.36514 581.00287 0.7738663 255 255 255
83.476723 213.35667 0.16325501 255 255 255
218.79909 439.96432 0.2152859 255 255 255
142.26506 148.92165 0.23402633 255 255 255
-947.88464 -2465.407 -8.2635307 255 255 255
88.294083 181.19257 0.22777124 255 255 255
337.17157 1579.5292 2.2880638 255 255 255
203.81062 400.30573 0.1637539 255 255 255
221.5538 472.14453 0.18755704 255 255 255
2972.4426 3621.334 4.4439855 255 255 255
-1341.1047 -961.43341 -3.855979 255 255 255
45221.891 92568.234 142.9975 255 255 255
-146308.23 -382719.22 -569.02667 255 255 255
319.94171 448.24615 -0.10833901 255 255 255
-1650.3219 -1752.9475 -4.5300803 255 255 255
94.266518 183.48537 0.24968009 255 255 255
143.3889 124.71799 0.30880582 255 255 255
-1055.118 -2797.7529 -5.8755574 255 255 255
103.08221 185.62558 0.22809696 255 255 255
874.97168 432.54456 0.57342464 255 255 255
114.76828 177.5941 0.23129779 255 255 255
71.855064 111.84547 0.18018885 255 255 255
419.0058 1198.8752 1.4013244 255 255 255
1458.1814 2824.2156 5.1449814 255 255 255
169.45901 371.51257 1.013913 255 255 255
220.75771 471.53943 0.18802701 255 255 255
1765.1234 265.94235 1.0744951 255 255 255
185.72498 258.65417 0.91222537 255 255 255
-510.12363 -530.07935 -3.0347946 255 255 255
162.21303 239.23724 0.41139296 255 255 255
106.79197 100.7066 0.31339589 255 255 255
220.35278 382.4906 0.26483533 255 255 255
638.32867 1475.0612 1.9599837 255 255 255
123.58102 206.39937 0.27422759 255 255 255
944.32507 1961.4009 3.0442817 255 255 255
102.9925 143.75981 0.27880773 255 255 255
384.77612 1238.4275 1.1175699 255 255 255
146.58617 146.59543 0.24450067 255 255 255
3888.6958 504.37283 2.926744 255 255 255
1117.2982 3134.2097 4.4367466 255 255 255
230.11969 403.22797 0.25166738 255 255 255
376.17645 722.45361 0.99678248 255 255 255
4976.9736 10350.337 15.918601 255 255 255
112.97242 200.53714 0.26270002 255 255 255
-291.77463 -190.81709 -1.6320618 255 255 255
2479.8345 2627.771 4.4440746 255 255 255
246.94063 472.98987 0.19188134 255 255 255
1370.1664 2644.8372 3.3026521 255 255 255
230.99358 434.61752 0.22435358 255 255 255
110.20023 139.9624 0.27488095 255 255 255
1085.0775 488.07043 0.30294347 255 255 255
696.26965 1536.5511 1.8875016 255 255 255
164.22414 177.16171 0.34753588 255 255 255
127.9682 257.20355 0.40375376 255 255 255
235.58899 471.55392 0.19057097 255 255 255
4991.3931 4669.7222 5.3763375 255 255 255
626.67126 572.14313 1.0741339 255 255 255
515.15186 689.79059 0.69613415 255 255 255
468.83453 1332.1484 1.4158798 255 255 255
-7564.3516 -8565.4746 -12.718108 255 255 255
634.6712 2064.3655 2.3539391 255 255 255
7177.8452 3627.5547 16.695887 255 255 255
686.05511 1735.074 2.4695883 255 255 255
838.80536 629.69128 0.8013981 255 255 255
-1049.4751 -282.99518 -2.0884502 255 255 255
120.14081 113.91497 0.28843036 255 255 255
1063.22 496.84329 0.2776885 255 255 255
-2873.5251 -5110.5493 -9.1339159 255 255 255
376.40421 1101.952 1.1361008 255 255 255
926.84991 276.36826 1.2027702 255 255 255
92.712929 75.765114 0.1192729 255 255 255
774.16235 2088.3088 2.0018344 255 255 255
1251.2559 415.07611 0.56355375 255 255 255
237.89413 578.83521 0.56669605 255 255 255
230.95308 435.11096 0.22336145 255 255 255
661.15808 323.24292 0.80666071 255 255 255
-1922.3544 -911.86285 -3.2954621 255 255 255
95.493416 149.86632 0.17408046 255 255 255
