ply
format ascii 1.0
comment PCL generated
element vertex 1084
property float x
property float y
property float z
property uchar red
property uchar green
property uchar blue
element face 0
element camera 0
property float view_px
property float view_py
property float view_pz
property float x_axisx
property float x_axisy
property float x_axisz
property float y_axisx
property float y_axisy
property float y_axisz
property float z_axisx
property float z_axisy
property float z_axisz
property float focal
property float scalex
property float scaley
property float centerx
property float centery
property int viewportx
property int viewporty
property float k1
property float k2
end_header
-75.810829 394.68271 -0.36665264 255 255 255
-57.974255 472.63928 -0.39941472 255 255 255
7341.8833 -956.83502 9.8140984 255 255 255
-23.903732 451.58145 -0.38795012 255 255 255
-89.717651 364.84195 -0.39733788 255 255 255
-104.90165 330.78369 -0.3616794 255 255 255
222.55904 386.00397 -0.63788211 255 255 255
-3.7704043 264.24985 -0.4835422 255 255 255
1800.5073 -85.384781 2.039854 255 255 255
-132.26663 380.49554 -0.44353837 255 255 255
1617.1438 -298.27655 1.7138711 255 255 255
-40.662346 276.64465 -0.29206899 255 255 255
2762.387 -206.54048 3.4587994 255 255 255
1364.8708 138.09924 1.2829086 255 255 255
-73.53553 286.51346 -0.56820112 255 255 255
2795.2578 -204.77054 3.4674187 255 255 255
9.191227 359.42346 -0.71922159 255 255 255
-110.89534 353.17346 -0.50921959 255 255 255
2855.0571 -201.48656 3.4866333 255 255 255
186.13446 295.03821 -0.69815648 255 255 255
-1925.9032 538.16174 -3.548702 255 255 255
-2348.2529 -269.9567 -5.5830755 255 255 255
-73.682205 241.24721 -0.24189977 255 255 255
-142.72481 330.12418 -0.43260768 255 255 255
3770.4749 -438.52328 5.3197675 255 255 255
-44.395752 429.04196 -0.39087704 255 255 255
-110.04991 263.38025 -0.56224912 255 255 255
-106.32742 411.56348 -0.45072785 255 255 255
-63.361149 411.9975 -0.40420759 255 255 255
-7589.1548 19.404196 -13.895199 255 255 255
6425.123 -803.24451 8.5103416 255 255 255
-112.84197 361.93716 -0.49617389 255 255 255
1618.3939 428.21317 2.1054225 255 255 255
-47.339241 366.20551 -0.32274914 255 255 255
26.655025 291.20261 -0.52882403 255 255 255
1117.8956 -29.569391 1.466449 255 255 255
-52.804707 423.20084 -0.3585296 255 255 255
-138.03513 376.20844 -0.42894816 255 255 255
1316.979 -256.06287 1.1336448 255 255 255
-80.782524 475.18112 -0.39458942 255 255 255
-29.404362 331.70474 -0.39888263 255 255 255
-39.063389 434.07507 -0.36762634 255 255 255
-65.029221 464.59219 -0.4348298 255 255 255
1763.6566 39.962479 1.8353289 255 255 255
-104.48475 401.67664 -0.42668024 255 255 255
275.03748 493.49496 -0.53957886 255 255 255
1295.4879 -192.65355 1.0758648 255 255 255
118.993 441.24615 -0.48980966 255 255 255
-61.912312 448.64166 -0.43661642 255 255 255
98.876152 511.61438 -0.54232734 255 255 255
44.283943 386.14374 -0.42498377 255 255 255
-109.46096 398.97757 -0.38975346 255 255 255
83.380333 324.40036 -0.34739974 255 255 255
-3297.0022 218.46651 -3.7007506 255 255 255
-6.2980847 499.65146 -0.43502426 255 255 255
-51.327702 425.04654 -0.36017108 255 255 255
-35.522064 330.09485 -0.28538162 255 255 255
-90.472969 273.40451 -0.3390663 255 255 255
-126.04442 332.1698 -0.47408545 255 255 255
1173.7323 -108.4472 0.94445091 255 255 255
1751.334 40.089409 1.8240528 255 255 255
-6991.106 -400.49283 -7.5830898 255 255 255
-38.816875 491.50906 -0.414002 255 255 255
-112.65035 339.97937 -0.45652089 255 255 255
6863.9751 -537.78711 6.7975035 255 255 255
-89.259796 370.48337 -0.57072508 255 255 255
-34.352783 440.25018 -0.37497202 255 255 255
1386.139 -86.756073 1.601235 255 255 255
4923.0757 -597.19171 6.7445698 255 255 255
-92.18293 390.7146 -0.36724114 255 255 255
2464.7649 -193.88255 3.211472 255 255 255
143.11308 543.00488 -0.52611709 255 255 255
1023.6096 -7.8981318 1.2958589 255 255 255
-37.499432 454.14481 -0.38997626 255 255 255
2103.0901 -43.52816 2.3489451 255 255 255
-95.155396 437.37006 -0.52069712 255 255 255
1987.5769 -258.96268 2.7210319 255 255 255
1296.1719 -178.28128 1.0342281 255 255 255
-94.002068 438.37494 -0.4760052 255 255 255
4034.8376 -320.89627 6.4591804 255 255 255
3554.5308 -414.58704 5.0888205 255 255 255
-123.87762 335.56226 -0.46065187 255 255 255
1723.5729 51.615597 1.7723502 255 255 255
8022.0791 -719.14038 8.0787487 255 255 255
4959.1147 1289.7428 9.3222132 255 255 255
3.816705 242.67673 -0.25321737 255 255 255
2725.2793 -123.86721 3.327194 255 255 255
-133.22636 229.05374 -0.6632424 255 255 255
4830.7876 -588.31622 6.6691194 255 255 255
749.88654 -4.8602242 0.79903662 255 255 255
1395.1541 94.185562 1.39288 255 255 255
-115.40198 421.30383 -0.4391697 255 255 255
1730.3823 -6.458427 1.9343055 255 255 255
139.72218 328.69064 -0.37366033 255 255 255
-22.041086 448.27661 -0.38273206 255 255 255
-33.629932 439.60391 -0.37363097 255 255 255
156.52957 497.69852 -0.54403293 255 255 255
221.10374 440.58035 -0.59812927 255 255 255
1653.4554 -317.75378 1.5603005 255 255 255
-5371.6533 -127.6658 -5.8025584 255 255 255
1650.5831 88.17643 2.057502 255 255 255
-122.56454 389.16501 -0.47888547 255 255 255
-87.489273 332.92511 -0.34782216 255 255 255
174.59685 319.79434 -0.37199458 255 255 255
3238.1904 -350.2139 4.527091 255 255 255
-47.083912 469.79761 -0.40119454 255 255 255
-2227.3528 213.96523 -2.8930378 255 255 255
-18.711422 465.13614 -0.40640593 255 255 255
-104.01968 282.61865 -0.50697839 255 255 255
112.50842 490.29956 -0.51660162 255 255 255
-123.06335 335.01978 -0.49647021 255 255 255
2630.4958 -186.63498 3.2834666 255 255 255
-117.46407 302.78558 -0.52292848 255 255 255
-12.996759 464.63794 -0.40680692 255 255 255
151.70889 471.07825 -0.55212593 255 255 255
127.81979 245.23825 -0.50703764 255 255 255
2504.6101 -462.06873 3.3617625 255 255 255
14733.686 4251.5244 15.860342 255 255 255
6616.4116 -500.94647 6.5344973 255 255 255
-46.392101 286.73978 -0.27858976 255 255 255
1967.1649 -253.37015 2.4830065 255 255 255
98.2724 511.67407 -0.54199129 255 255 255
98.259399 511.97891 -0.54189485 255 255 255
1119.5537 3.4975598 1.3673691 255 255 255
-38.985565 492.62695 -0.39857024 255 255 255
3045.2742 -301.78903 4.4479156 255 255 255
-119.3787 266.55536 -0.37174472 255 255 255
82.764671 271.75922 -0.29322916 255 255 255
-1364.625 -347.29675 -3.8704238 255 255 255
1708.9229 45.053112 1.777518 255 255 255
2133.1582 -47.873772 2.3861895 255 255 255
-83.65213 420.47034 -0.38758293 255 255 255
3837.8481 -134.24313 3.7771776 255 255 255
20103.486 581.58569 20.061644 255 255 255
-7.2826142 318.48444 -0.37697506 255 255 255
85.986778 320.44006 -0.34899426 255 255 255
-66.630623 146.79362 -0.20491639 255 255 255
93.769493 653.51245 -0.44747767 255 255 255
557.31543 -23.656912 0.66750067 255 255 255
86.113991 279.26166 -0.55221456 255 255 255
-46.583275 482.15051 -0.40870744 255 255 255
1931.2517 -108.11908 2.4449098 255 255 255
-118.04132 381.58093 -0.4662374 255 255 255
1365.7837 26.294659 1.5272912 255 255 255
-97.331848 324.7226 -0.42690292 255 255 255
1793.3911 312.98425 2.0791197 255 255 255
1440.2858 48.136127 1.5369313 255 255 255
-95.721115 311.12558 -0.35548076 255 255 255
2812.8918 -289.76276 3.5307145 255 255 255
-16.768684 462.22897 -0.3747986 255 255 255
-1361.72 91.809036 -2.169605 255 255 255
1407.2847 54.298393 1.4924791 255 255 255
-98.23185 399.09753 -0.48221859 255 255 255
1407.7107 -253.52483 1.3151822 255 255 255
-105.85442 317.285 -0.54642034 255 255 255
-137.16467 349.85233 -0.48486933 255 255 255
-91.615585 383.49893 -0.36011282 255 255 255
-124.32656 353.0528 -0.49828246 255 255 255
-91.172752 354.57861 -0.38128707 255 255 255
-409.30045 -30.299707 -1.7668833 255 255 255
138.86107 513.12579 -0.48848441 255 255 255
1207.8196 -28.902998 1.0075098 255 255 255
-17.426352 465.70468 -0.40723619 255 255 255
-37.433613 454.36816 -0.39020991 255 255 255
203.97502 510.44965 -0.53676724 255 255 255
1444.2246 105.5452 1.4138292 255 255 255
-121.70605 322.44922 -0.55931926 255 255 255
-21.322956 463.8743 -0.40445894 255 255 255
487.23245 117.41922 0.6652565 255 255 255
-41.763676 358.66174 -0.3288759 255 255 255
-26.455921 458.02451 -0.39688641 255 255 255
-30.832176 352.18774 -0.30660021 255 255 255
-33.173 438.77679 -0.37223762 255 255 255
-478.17368 -123.56161 -2.0448465 255 255 255
1133.7385 -32.740871 1.3595557 255 255 255
796.08124 -18.024858 0.96619743 255 255 255
-1927.7725 142.09949 -2.5452785 255 255 255
136.30737 277.55057 -0.44419605 255 255 255
946.78333 70.359001 1.0584939 255 255 255
-98.246117 386.79138 -0.43760037 255 255 255
216.95474 455.95932 -0.58841962 255 255 255
832.37805 11.374109 1.0379273 255 255 255
-149.80115 382.06992 -0.44787753 255 255 255
2972.0054 385.76511 4.3658977 255 255 255
2641.2332 -208.702 3.3968642 255 255 255
-2665.2502 174.18501 -3.3187838 255 255 255
-113.99538 337.48862 -0.41744518 255 255 255
1820.6165 20.771572 1.9333001 255 255 255
-3122.4316 -22.187489 -3.5247457 255 255 255
3138.8853 -253.11078 3.8987901 255 255 255
1371.4098 99.958427 1.3613846 255 255 255
-144.89975 329.75327 -0.45664275 255 255 255
-100.23083 375.75015 -0.40111962 255 255 255
-1603.3896 303.05832 -2.8877728 255 255 255
5621.3799 -671.01355 7.3934507 255 255 255
5937.6743 -460.20889 9.0892324 255 255 255
1820.4221 -240.83282 2.2150199 255 255 255
1589.6851 224.66125 2.1051826 255 255 255
1511.163 219.957 1.7038783 255 255 255
135.13094 323.57654 -0.3944048 255 255 255
-1626.8043 390.07736 -3.2123075 255 255 255
-1941.7135 525.28156 -3.6648209 255 255 255
-12.043341 467.41931 -0.41051841 255 255 255
1272.5886 93.303467 1.2849883 255 255 255
-4617.9541 -12.05271 -5.3982105 255 255 255
29.968822 273.70895 -0.56357551 255 255 255
200.70233 451.46408 -0.5867663 255 255 255
-115.72842 416.42532 -0.39926353 255 255 255
2848.1086 -548.58551 3.7127697 255 255 255
-10.297175 391.26221 -0.31955814 255 255 255
2066.0022 -150.66786 2.4086061 255 255 255
3054.0549 -306.36841 4.1605492 255 255 255
-87.265121 333.29974 -0.35923082 255 255 255
-144.44298 346.11633 -0.46862173 255 255 255
12306.629 -2293.801 16.413588 255 255 255
204.75977 464.31793 -0.58055645 255 255 255
-6.080225 255.4778 -0.63264662 255 255 255
3346.4019 -361.65518 4.6426024 255 255 255
165.72948 345.33078 -0.14451827 255 255 255
-752.78748 -270.77313 -1.9378643 255 255 255
-7.0496864 204.05971 -0.25496009 255 255 255
6384.0493 -1300.2189 7.6230073 255 255 255
206.3278 445.34055 -0.59237188 255 255 255
-25.740711 456.50433 -0.39526236 255 255 255
-6579.5078 -4741.8843 -11.674811 255 255 255
201.60989 467.26926 -0.57799441 255 255 255
-55.150105 481.18878 -0.40480462 255 255 255
5042.8066 -548.18732 6.3866053 255 255 255
-2993.1077 157.06389 -3.7786777 255 255 255
-103.37956 233.85912 -0.27756226 255 255 255
2622.188 -101.39853 3.3275619 255 255 255
1283.9235 -145.77626 1.1274843 255 255 255
-80.247917 269.26617 -0.31613874 255 255 255
-93.551224 357.74265 -0.3814514 255 255 255
-73.64489 308.87167 -0.37369978 255 255 255
-2181.4006 497.94855 -4.5485907 255 255 255
-106.69666 397.46301 -0.39830473 255 255 255
-131.66064 293.69772 -0.5478189 255 255 255
-3563.9883 -37.897617 -4.3122463 255 255 255
-456.20349 -146.22049 -1.9903197 255 255 255
-107.0922 400.3389 -0.38665113 255 255 255
638.37952 -105.79604 0.61628193 255 255 255
-61.635899 434.28796 -0.37131476 255 255 255
5.8394828 298.14905 -0.52905077 255 255 255
916.02655 -205.17702 0.82498038 255 255 255
-190.93436 342.24902 -0.52568513 255 255 255
67.545036 305.49136 -0.30050337 255 255 255
-107.33208 422.50369 -0.3841143 255 255 255
-6.1125436 355.16672 -0.40559384 255 255 255
1549.2789 75.592293 1.5682439 255 255 255
-64.108803 412.81763 -0.34976444 255 255 255
42.03672 646.44727 -0.47667095 255 255 255
-55.581394 275.82379 -0.62743092 255 255 255
206.63835 457.39203 -0.58483744 255 255 255
-4060.6406 512.84454 -4.9925661 255 255 255
1262.4496 87.239479 1.2887878 255 255 255
-96.671791 439.00259 -0.41501862 255 255 255
1783.2659 -270.43762 1.7640119 255 255 255
1880.8717 -366.97159 1.8194628 255 255 255
-2260.9558 604.57556 -3.9984748 255 255 255
0.57462388 502.56113 -0.43996868 255 255 255
-51.68177 434.05038 -0.3704474 255 255 255
-5763.8164 368.6933 -5.3102856 255 255 255
-54.868008 422.2081 -0.35770825 255 255 255
1839.2975 -94.396172 2.2354002 255 255 255
-166.13278 266.2641 -0.44437352 255 255 255
-19.520243 450.41541 -0.38543254 255 255 255
131.68626 385.38257 -0.3573046 255 255 255
-31.444778 322.10577 -0.30042204 255 255 255
5576.9189 -684.00287 7.506114 255 255 255
177.50529 356.92816 -0.38488504 255 255 255
5.0957584 424.6713 -0.48065281 255 255 255
-121.07056 349.61151 -0.37632352 255 255 255
226.73471 374.20944 -0.64684677 255 255 255
-42.353893 473.86066 -0.40515023 255 255 255
-60.561291 416.89349 -0.35341731 255 255 255
217.17517 351.58853 -0.51973528 255 255 255
3167.6658 -333.03864 4.3824415 255 255 255
3014.9829 -272.23703 3.9438539 255 255 255
1324.0543 98.559341 1.3224882 255 255 255
198.06042 497.76709 -0.56285495 255 255 255
2841.4705 -211.19247 3.5218091 255 255 255
222.9333 441.95184 -0.59771955 255 255 255
-126.66084 361.83963 -0.40358335 255 255 255
-112.21526 330.37207 -0.45375678 255 255 255
2946.8621 -162.61449 3.3774445 255 255 255
1935.8081 115.82664 2.3696752 255 255 255
-17.797323 466.77258 -0.40832257 255 255 255
1925.9213 -103.30011 2.3123243 255 255 255
181.52022 327.48544 -0.35959345 255 255 255
24.079592 333.52908 -0.46926498 255 255 255
4788.5576 1400.9722 8.9844151 255 255 255
217.19347 410.01843 -0.61945611 255 255 255
-50.344086 427.34415 -0.36277395 255 255 255
-4924.3999 125.40746 -8.4141235 255 255 255
-41.872025 484.16464 -0.41144323 255 255 255
1862.2308 -434.39807 1.880196 255 255 255
1877.3647 91.584877 2.085458 255 255 255
5898.9321 -2538.6787 6.4102836 255 255 255
44.896008 273.70276 -0.34787825 255 255 255
1217.1715 118.07716 1.3251672 255 255 255
-70.881729 425.39166 -0.41274792 255 255 255
116.38371 632.9328 -0.4078615 255 255 255
-49.056591 400.05817 -0.42433903 255 255 255
-64.122475 413.70294 -0.35080755 255 255 255
989.93976 45.807068 1.1272814 255 255 255
6287.6357 -772.99158 8.2457123 255 255 255
-44.958492 494.19482 -0.42325628 255 255 255
-116.81284 326.06665 -0.44965783 255 255 255
3393.6033 -383.61868 4.8116374 255 255 255
-56.880386 429.63681 -0.36620393 255 255 255
1472.1157 71.135498 1.5116792 255 255 255
210.80724 470.06976 -0.55687433 255 255 255
4769.8892 -570.12378 6.5184689 255 255 255
-88.574348 433.21481 -0.40529835 255 255 255
-33.582291 441.93854 -0.37735865 255 255 255
2471.7507 -391.88269 3.0196664 255 255 255
3142.9927 -15.672009 4.6307087 255 255 255
216.30862 457.88776 -0.58705348 255 255 255
-29.74605 462.12418 -0.39973506 255 255 255
-44.561951 497.20511 -0.41738969 255 255 255
52.274426 381.21243 -0.26134714 255 255 255
194.15289 476.69888 -0.60072881 255 255 255
1333.6636 96.401573 1.3348923 255 255 255
-122.46742 382.82315 -0.46865094 255 255 255
2173.9463 -156.00876 2.5227532 255 255 255
-19.545948 404.75156 -0.44964936 255 255 255
-13.635709 471.14352 -0.41370037 255 255 255
-2.3276236 462.20087 -0.40151566 255 255 255
-6482.8442 -477.31955 -7.9378796 255 255 255
-20.571377 449.09882 -0.38360339 255 255 255
121.20226 283.21835 -0.37553498 255 255 255
-9310.5283 2454.5117 -8.9477549 255 255 255
-121.35678 370.99982 -0.46854368 255 255 255
130.91843 363.26971 -0.3309747 255 255 255
1183.6688 121.49545 1.1510977 255 255 255
-111.53975 381.68192 -0.49909374 255 255 255
1639.4821 -79.439186 1.8824842 255 255 255
16.824598 375.26132 -0.48112243 255 255 255
-124.54691 332.71222 -0.48142979 255 255 255
2994.9893 -249.36302 3.8099263 255 255 255
-43.242886 473.62491 -0.40478855 255 255 255
-126.77276 438.0484 -0.4750407 255 255 255
-45.458427 501.17398 -0.41895849 255 255 255
-10177.587 1209.5748 -9.2996254 255 255 255
1003.3095 -339.67792 1.7061069 255 255 255
161.80063 327.88522 -0.40162051 255 255 255
1327.8235 -202.62221 1.1398312 255 255 255
-4977.8491 -372.677 -5.8050623 255 255 255
-141.03189 395.99927 -0.46054035 255 255 255
1419.9999 138.66005 1.3298243 255 255 255
-111.77001 439.34186 -0.42904988 255 255 255
-85.729988 378.05893 -0.34806305 255 255 255
-34.444859 438.08646 -0.3718549 255 255 255
-24.418444 444.14557 -0.37676933 255 255 255
10362.072 -1701.4938 13.210167 255 255 255
-118.50196 359.27087 -0.37180239 255 255 255
-59.084293 417.88251 -0.35420057 255 255 255
5484.168 -685.13623 7.5055475 255 255 255
-67.201042 145.28073 -0.20999791 255 255 255
-58.86438 475.99545 -0.40021563 255 255 255
767.87109 -102.00921 0.7260434 255 255 255
1420.093 -192.89935 1.4477046 255 255 255
-124.94745 397.15057 -0.45038122 255 255 255
5349.1758 -715.34027 7.8032746 255 255 255
3656.3069 -378.46436 4.8631282 255 255 255
-35.639042 467.00714 -0.40247756 255 255 255
-19.509861 461.00943 -0.3850649 255 255 255
-52.7337 379.69211 -0.53570235 255 255 255
1985.1876 -89.879654 2.4914169 255 255 255
-19.4821 471.20975 -0.41172841 255 255 255
-5550.811 -163.64793 -6.2286677 255 255 255
-107.68964 357.67267 -0.37813288 255 255 255
-84.866585 426.89874 -0.38345236 255 255 255
9057.625 -3695.3779 9.1442709 255 255 255
1322.5607 95.549057 1.3260807 255 255 255
28.098307 329.58966 -0.46624112 255 255 255
-106.71204 315.43369 -0.32877687 255 255 255
159.04216 323.05399 -0.37810713 255 255 255
-901.9325 283.07233 -2.2503817 255 255 255
58.377892 620.01141 -0.44663158 255 255 255
14784.759 -4963.853 15.900123 255 255 255
-34.113209 483.36371 -0.41420999 255 255 255
-129.25282 277.595 -0.64402324 255 255 255
3361.312 -302.13834 4.2747912 255 255 255
-110.27112 388.51056 -0.61130667 255 255 255
-25.767387 458.83371 -0.39790064 255 255 255
4438.3364 1347.7854 5.1284485 255 255 255
5733.4409 -3852.0715 6.3474164 255 255 255
26.167458 345.2597 -0.4412151 255 255 255
668.30353 -45.89999 0.58688146 255 255 255
7914.0005 1114.9712 8.853879 255 255 255
-12928.354 -1509.9889 -14.208055 255 255 255
1257.4213 -186.37341 1.0203235 255 255 255
1422.0308 67.854607 1.6691719 255 255 255
1219.7249 -231.81403 1.0330137 255 255 255
-37.942562 453.7507 -0.38978526 255 255 255
1485.0032 -267.43945 1.2499428 255 255 255
-15.472189 386.93954 -0.31818366 255 255 255
-113.22673 364.52869 -0.44203219 255 255 255
2731.0583 -892.40198 2.6999002 255 255 255
1500.4452 47.256523 1.5915952 255 255 255
1652.949 -145.4659 1.954695 255 255 255
-22.205153 295.84625 -0.25073111 255 255 255
-151.94907 327.98523 -0.44665974 255 255 255
2599.365 -210.588 3.3840125 255 255 255
-55.531578 451.10724 -0.44360629 255 255 255
-69.47747 445.06342 -0.3868815 255 255 255
77.500183 495.23672 -0.48826495 255 255 255
-91.305786 304.13907 -0.44296429 255 255 255
6772.9355 -507.42291 9.3585854 255 255 255
5007.0171 -633.28558 7.0648208 255 255 255
8786.874 -811.04199 12.492074 255 255 255
9018.2754 -1251.8197 12.330041 255 255 255
-133.14664 368.89059 -0.43072519 255 255 255
-98.390671 345.69363 -0.41833958 255 255 255
933.80603 -36.843117 1.1865261 255 255 255
-69.083473 477.29102 -0.50705427 255 255 255
139.97624 360.27478 -0.59184146 255 255 255
204.36298 349.67389 -0.65760976 255 255 255
-5082.7432 1814.825 -5.1600509 255 255 255
-86.710274 409.68439 -0.40613812 255 255 255
9.1752777 253.9866 -0.52309155 255 255 255
1275.4924 -10.02203 1.255283 255 255 255
-53.818672 463.65814 -0.42931372 255 255 255
-103.64173 385.81876 -0.45990768 255 255 255
8617.6787 -1182.3496 11.751143 255 255 255
-105.06242 424.73596 -0.52297372 255 255 255
-112.76875 370.62302 -0.39560619 255 255 255
-18.345234 451.89331 -0.38776103 255 255 255
-23.892942 453.3797 -0.39020064 255 255 255
-23.576487 452.18842 -0.38903442 255 255 255
1833.1167 140.3709 2.0721514 255 255 255
1121.5343 -92.956512 1.0081606 255 255 255
-130.87001 350.26642 -0.45495877 255 255 255
-19.288765 465.31516 -0.4064275 255 255 255
936.83411 -34.214001 0.84725976 255 255 255
1353.142 -189.81412 1.3162453 255 255 255
77.653511 495.27155 -0.48819548 255 255 255
8318.8516 -1141.9899 11.419787 255 255 255
4360.083 -402.80023 6.6465058 255 255 255
164.64688 400.64883 -0.53678471 255 255 255
933.13806 -132.61234 0.7801348 255 255 255
9.6839018 362.10748 -0.41372252 255 255 255
1912.5643 -304.36896 1.9966427 255 255 255
-1050.5134 -295.07709 -1.9533153 255 255 255
9814.5674 -1349.8977 13.096672 255 255 255
227.33963 363.48529 -0.65519279 255 255 255
-3579.0535 -162.76588 -7.6154881 255 255 255
-102.25885 383.85065 -0.38950568 255 255 255
-23.942869 458.89868 -0.39813936 255 255 255
-3228.6729 -5.5154495 -3.5765278 255 255 255
2926.8711 -360.92957 4.1624656 255 255 255
-63.23983 413.81531 -0.3507019 255 255 255
142.73421 543.23352 -0.52589238 255 255 255
223.04512 433.18161 -0.60292208 255 255 255
-106.22721 316.78983 -0.55024797 255 255 255
4363.5576 -493.83289 5.85289 255 255 255
-8696.7168 -850.06171 -18.362072 255 255 255
1395.3097 114.41108 1.3533852 255 255 255
-3224.9031 -56.842033 -4.1153989 255 255 255
4382.0342 -498.24741 5.8957472 255 255 255
2079.7998 34.674564 2.651406 255 255 255
-29.063311 453.78116 -0.39103609 255 255 255
846.59235 24.138226 0.74651736 255 255 255
-2403.7424 147.29919 -2.9957552 255 255 255
-1931.5997 386.65564 -3.2610795 255 255 255
-46.89806 453.48935 -0.38821474 255 255 255
7622.1216 -979.22577 9.9810972 255 255 255
4583.9463 -482.39447 5.8326731 255 255 255
-23.65579 459.31274 -0.3984828 255 255 255
-59.080441 426.11539 -0.45132688 255 255 255
-23.596422 459.50989 -0.39871794 255 255 255
46.410564 349.62286 -0.67852408 255 255 255
1550.2386 28.60833 1.6824034 255 255 255
1203.7517 -37.480396 1.5821527 255 255 255
153.10913 306.19452 -0.40517169 255 255 255
2893.5381 -643.88379 3.0556519 255 255 255
-26.306555 453.90213 -0.39117649 255 255 255
1813.3368 -128.65878 2.1362934 255 255 255
-1431.2253 -640.58447 -2.8673887 255 255 255
-25.137302 479.36273 -0.41514549 255 255 255
-64.706268 280.2731 -0.33311543 255 255 255
4666.8335 -454.26865 5.6874938 255 255 255
-20.597549 407.56796 -0.45655969 255 255 255
1777.0652 43.504974 1.8669051 255 255 255
13725.252 3642.2327 15.586403 255 255 255
2180.1895 -191.27086 2.9299042 255 255 255
1567.1473 -202.50008 1.8029647 255 255 255
197.94437 498.98492 -0.56223267 255 255 255
-8.3139467 325.38715 -0.43693691 255 255 255
2313.6501 -211.22662 2.8101618 255 255 255
-1135.1003 -233.67339 -2.1498008 255 255 255
1769.4025 258.90939 2.0959477 255 255 255
2569.8828 44.781311 3.5096107 255 255 255
-25.916557 456.56625 -0.39500904 255 255 255
18.94269 380.15125 -0.32269704 255 255 255
-4203.2563 -648.0838 -6.6893687 255 255 255
197.00839 496.09595 -0.56336665 255 255 255
7393.9146 -966.7254 9.9010563 255 255 255
-52.624676 447.16714 -0.45389795 255 255 255
371.43616 42.366806 0.62150413 255 255 255
65.550026 583.80255 -0.46785313 255 255 255
-4294.9775 1124.5532 -4.7609887 255 255 255
1741.8417 -87.00647 2.0778608 255 255 255
1226.7853 72.588272 1.2888726 255 255 255
1574.481 -112.35094 1.7394152 255 255 255
-7108.7095 -261.6535 -7.6897268 255 255 255
580.03973 -11.830436 0.77360004 255 255 255
7972.2852 -710.40747 8.022686 255 255 255
6807.3916 -528.69067 6.7408004 255 255 255
3079.1072 594.98871 3.0528162 255 255 255
8.1316891 276.52295 -0.47050941 255 255 255
26.703558 391.70554 -0.27941579 255 255 255
2006.2208 -60.760246 2.327167 255 255 255
-55.16037 489.56281 -0.40993524 255 255 255
1715.3048 -50.491417 2.0629408 255 255 255
4876.8145 -2403.6899 5.34199 255 255 255
2171.7954 -334.43021 2.7720432 255 255 255
-127.22265 364.85712 -0.45293903 255 255 255
-1611.3844 470.29654 -3.1444023 255 255 255
2944.7173 -227.34251 3.6641126 255 255 255
23.108498 467.1532 -0.63354206 255 255 255
216.98695 455.97098 -0.5883894 255 255 255
-46.737682 361.24963 -0.58572286 255 255 255
-83.72538 265.54306 -0.33442163 255 255 255
-130.263 326.81494 -0.3793785 255 255 255
-95.962151 489.44 -0.51851827 255 255 255
-1683.2844 -192.34608 -2.3644609 255 255 255
2845.7551 -211.38405 3.5287495 255 255 255
124.47486 478.18427 -0.40374348 255 255 255
-98.203339 321.02792 -0.55042481 255 255 255
15.901694 285.95261 -0.52103215 255 255 255
-19.384815 465.18231 -0.4063994 255 255 255
168.65602 315.34763 -0.34395862 255 255 255
1756.7694 48.137604 1.8087763 255 255 255
1109.6295 -122.60393 0.8648631 255 255 255
-77.956848 422.5321 -0.3770164 255 255 255
1727.6073 61.287842 2.2067804 255 255 255
134.63094 275.60138 -0.4656193 255 255 255
-2492.9932 15.938621 -2.8788743 255 255 255
89.92086 517.63 -0.53672034 255 255 255
1383.8135 111.73344 1.3480722 255 255 255
98.398323 511.70334 -0.54202396 255 255 255
-64.155388 412.87302 -0.34977096 255 255 255
-1785.0848 515.10632 -3.3429418 255 255 255
-23.250654 273.72949 -0.46567839 255 255 255
-109.90876 356.2005 -0.40109643 255 255 255
147.37215 329.90396 -0.36442497 255 255 255
-101.64264 396.94778 -0.40639624 255 255 255
2958.6509 -227.51619 3.6719222 255 255 255
3653.3076 -377.44089 4.8590178 255 255 255
-129.35953 343.41824 -0.48700887 255 255 255
-106.86197 396.54977 -0.42407563 255 255 255
-134.44521 352.98874 -0.3999272 255 255 255
1510.0309 -120.16433 1.8970451 255 255 255
1865.7958 -379.38971 1.8192335 255 255 255
-106.95269 359.31763 -0.46658978 255 255 255
-71.981979 265.54111 -0.25177437 255 255 255
-28581.631 5731.7383 -24.121014 255 255 255
357.20343 -10.159315 0.43420622 255 255 255
-1852.0621 514.91333 -3.5008392 255 255 255
4584.5054 -532.84625 6.1766591 255 255 255
-1501.5599 5.0433035 -2.2452393 255 255 255
35.517429 330.81552 -0.63479102 255 255 255
-15317.288 -1140.9607 -17.336649 255 255 255
1487.7509 105.39488 1.4525937 255 255 255
-66.119751 411.74771 -0.34927285 255 255 255
98.190475 511.94336 -0.54193771 255 255 255
-65123.504 -2931.7693 -65.327675 255 255 255
-1938.1042 1365.3477 -3.0848761 255 255 255
2877.4905 571.3949 4.6199446 255 255 255
27.195923 355.17859 -0.61958104 255 255 255
250.14612 498.29675 -0.53848922 255 255 255
-569.60724 -81.879791 -2.0012205 255 255 255
-47.54166 315.27365 -0.29460227 255 255 255
2509.2791 -209.14044 3.4970207 255 255 255
1272.1155 93.735344 1.2850522 255 255 255
2838.1943 -21.407009 3.7973251 255 255 255
-136.57306 333.05829 -0.42304343 255 255 255
-109.92338 382.60614 -0.40004218 255 255 255
146.21342 303.89926 -0.38791445 255 255 255
-12.58844 468.79294 -0.41184253 255 255 255
-2848.0549 0.062745571 -3.2620618 255 255 255
-13.732269 471.08932 -0.41371164 255 255 255
-41.36536 482.81992 -0.41102532 255 255 255
0.58878905 502.595 -0.43988878 255 255 255
-95.387276 238.32001 -0.34169742 255 255 255
62833.449 -11076.078 84.529999 255 255 255
1496.6151 -143.3643 1.9178388 255 255 255
9652.916 -1550.5305 14.468367 255 255 255
1684.6691 -152.35785 1.9884675 255 255 255
-1819.4563 57.011101 -2.4136622 255 255 255
-85.779442 396.80914 -0.39740834 255 255 255
256.25314 369.05054 -0.47271258 255 255 255
7216.2495 -895.21991 9.267312 255 255 255
186.17102 500.44492 -0.55700928 255 255 255
104.46336 505.49234 -0.50951093 255 255 255
1865.6859 31.91914 1.9388467 255 255 255
227.36028 305.37573 -0.56438053 255 255 255
-34.95261 439.75867 -0.37452066 255 255 255
3272.0354 -359.57648 4.5945649 255 255 255
881.68915 147.08087 0.88622612 255 255 255
1875.4084 33.339962 1.9442123 255 255 255
-18.425182 465.16559 -0.40651825 255 255 255
-34.837933 471.74689 -0.39535144 255 255 255
-57.020065 328.08118 -0.40180251 255 255 255
2304.2781 -235.72404 2.9765565 255 255 255
-5759.272 478.41974 -5.3276262 255 255 255
-132.25961 406.79605 -0.44839066 255 255 255
3846.4646 -134.70044 3.7864406 255 255 255
-147.50583 367.68842 -0.48268804 255 255 255
9800.8877 -1348.7898 13.079155 255 255 255
2901.6421 -242.34711 3.7153401 255 255 255
3330.0916 -711.65906 4.8683863 255 255 255
2158.2742 -440.21289 2.8026395 255 255 255
-4937.6221 -884.5578 -6.8621101 255 255 255
207.64636 435.01266 -0.59942251 255 255 255
-3007.0759 -2224.1726 -5.5132933 255 255 255
-5328.043 -1012.8398 -6.6844158 255 255 255
-27.656576 359.39053 -0.31088528 255 255 255
2926.5142 -264.89316 3.8580651 255 255 255
3138.3481 -253.20964 3.8991566 255 255 255
-23.800217 451.65582 -0.38801003 255 255 255
1151.5916 -244.6438 1.0943626 255 255 255
1621.6497 -43.242588 1.9687775 255 255 255
-104.74177 339.97827 -0.54945111 255 255 255
-122.18603 361.89246 -0.40195096 255 255 255
1641.4442 141.78749 1.9137706 255 255 255
-64.133858 413.60089 -0.35074744 255 255 255
1745.2289 -606.77417 1.9891168 255 255 255
-61.346542 416.15204 -0.35277948 255 255 255
-18.722277 453.87466 -0.39124474 255 255 255
-49.758453 479.03421 -0.40584984 255 255 255
3132.5132 -249.70824 3.8768971 255 255 255
4366.8613 -492.79135 5.8581243 255 255 255
5297.9126 -592.73297 6.754776 255 255 255
-2074.0117 -122.97812 -3.6124799 255 255 255
1495.0771 -61.501972 1.7234321 255 255 255
3565.6836 -611.53058 4.6709123 255 255 255
1.3944463 289.07153 -0.51449865 255 255 255
3544.1226 -412.668 5.071815 255 255 255
-53.149464 289.99228 -0.26309535 255 255 255
26.870932 295.20694 -0.52967006 255 255 255
221.14362 486.08127 -0.57529551 255 255 255
2855.4536 -201.43768 3.487334 255 255 255
-9.5667295 470.6102 -0.41434023 255 255 255
-136.80161 351.73877 -0.44203231 255 255 255
1082.0598 335.24899 0.60586673 255 255 255
-12573.056 -528.3855 -10.550673 255 255 255
-66.434586 476.06567 -0.39873087 255 255 255
-20.278194 449.21738 -0.38364816 255 255 255
-51.954826 344.87546 -0.38450447 255 255 255
-6593.6636 -401.98206 -7.2313943 255 255 255
2050.3562 -378.36755 2.0140703 255 255 255
180.9649 469.23154 -0.58357435 255 255 255
1077.6241 19.926651 1.2792809 255 255 255
-112.3166 368.01526 -0.4836646 255 255 255
-4619.1416 203.54919 -8.576848 255 255 255
-88.938896 396.71625 -0.41501182 255 255 255
3053.1885 -246.59129 3.8221676 255 255 255
-2789.7974 56.870445 -3.19175 255 255 255
-3871.0459 521.24231 -4.1274576 255 255 255
-109.79769 309.3714 -0.38176903 255 255 255
1238.9087 -292.09775 1.088623 255 255 255
143.14108 542.78363 -0.52617455 255 255 255
-25.954525 457.79996 -0.39645717 255 255 255
3871.1597 -350.75473 5.0988841 255 255 255
-129.15195 321.28378 -0.44376457 255 255 255
2465.6621 -495.70404 3.2422848 255 255 255
1500.5365 -443.23013 1.5109305 255 255 255
7061.9111 -566.48517 7.009017 255 255 255
105.83912 502.22656 -0.51078534 255 255 255
3168.5454 -239.34993 4.2133789 255 255 255
-97.360313 387.86578 -0.36900926 255 255 255
1.0062705 320.99118 -0.41779649 255 255 255
127.8122 480.19644 -0.52836937 255 255 255
-68.358498 394.33682 -0.48359469 255 255 255
-4632.6802 -2235.8481 -6.7764039 255 255 255
-101.41158 354.86475 -0.43119779 255 255 255
51.230133 407.34338 -0.27839792 255 255 255
-19.859552 474.87943 -0.37418142 255 255 255
21.795321 300.84137 -0.52762985 255 255 255
1262.5298 -259.83435 1.0481926 255 255 255
1119.1169 -29.501587 1.4687639 255 255 255
-61.993259 416.22913 -0.35313523 255 255 255
2918.634 -745.36456 3.9450235 255 255 255
1426.5215 -296.55301 1.3074162 255 255 255
-58.097633 430.91891 -0.36813149 255 255 255
-56.873928 429.54959 -0.36621472 255 255 255
-7.1451101 345.31195 -0.41638616 255 255 255
1230.4154 -112.54997 1.0194283 255 255 255
-54373.777 1333.8209 -50.078461 255 255 255
108.61295 298.73459 -0.35605064 255 255 255
114.62978 297.37207 -0.33434436 255 255 255
-12.589002 350.75275 -0.44015384 255 255 255
1993.9224 -288.03668 1.9772134 255 255 255
-69.942787 475.45453 -0.39754406 255 255 255
66.6623 308.15131 -0.55258644 255 255 255
-69.880257 475.76938 -0.39765903 255 255 255
-2.5483387 208.59747 -0.23776792 255 255 255
151.69843 470.92194 -0.55218887 255 255 255
210.99808 462.54367 -0.57112092 255 255 255
-61.670612 434.18997 -0.37132943 255 255 255
-25.120562 461.62515 -0.41125098 255 255 255
-17.393915 465.50726 -0.40720904 255 255 255
1797.2831 -5.3060818 2.1850402 255 255 255
205.07755 458.84134 -0.58350217 255 255 255
-131.18689 336.76904 -0.46377593 255 255 255
-44.507885 472.69485 -0.40370107 255 255 255
200.78664 451.45529 -0.58677429 255 255 255
-43.490471 482.95749 -0.41046235 255 255 255
908.3786 -4.5366936 1.162652 255 255 255
971.23767 241.64635 0.78323019 255 255 255
2096.8428 -139.99324 2.5019429 255 255 255
7817.2119 -685.15247 7.8439741 255 255 255
-57.794827 431.2139 -0.3683826 255 255 255
1225.9641 -197.10913 0.98421043 255 255 255
44.376862 246.04025 -0.59847182 255 255 255
126.15421 479.59232 -0.52271158 255 255 255
33.980095 210.36903 -0.3045536 255 255 255
2667.571 -96.652061 2.9360063 255 255 255
-80.078178 394.55338 -0.45884651 255 255 255
2599.4185 -211.66678 3.3841617 255 255 255
-932.46588 310.89163 -2.2408206 255 255 255
131.03876 288.44876 -0.44389048 255 255 255
20483.252 -3219.4441 29.632072 255 255 255
-89.118118 421.888 -0.42481914 255 255 255
224.6702 448.44064 -0.5733692 255 255 255
-1285.4847 295.47626 -2.5235977 255 255 255
-39.653999 353.12128 -0.32671246 255 255 255
2103.8267 -43.600842 2.350163 255 255 255
-807.56744 261.75711 -2.1074891 255 255 255
-23.954977 458.77322 -0.398081 255 255 255
-6121.3887 -428.72308 -7.5373764 255 255 255
-57.156776 425.06992 -0.37791601 255 255 255
30.741238 399.1264 -0.32177514 255 255 255
-17093.084 4016.3257 -15.632067 255 255 255
-67.177414 294.33826 -0.29901031 255 255 255
-132.10316 335.96634 -0.40048093 255 255 255
-54.300041 460.16324 -0.52031344 255 255 255
1182.4607 121.50191 1.1500009 255 255 255
-42.06525 494.53824 -0.41656423 255 255 255
-3937.8726 -47.093372 -4.7732348 255 255 255
445.95166 -68.710846 0.5877893 255 255 255
-2986.085 89.510216 -3.3830903 255 255 255
163.9716 250.39214 -0.51175588 255 255 255
-15.763415 452.63043 -0.38797548 255 255 255
14261.908 -315.3652 26.24559 255 255 255
209.29521 368.4975 -0.64654273 255 255 255
-29.525003 484.19067 -0.41667926 255 255 255
96.102165 301.24219 -0.34735379 255 255 255
13849.857 -7037.6416 17.214991 255 255 255
1543.7026 -53.419121 1.6969581 255 255 255
181.71263 359.89612 -0.38850611 255 255 255
133.04568 303.3819 -0.40672991 255 255 255
2918.314 -288.84952 3.9782412 255 255 255
-49.382996 427.00266 -0.36202517 255 255 255
1199.0385 106.98998 1.1937715 255 255 255
5432.9561 -668.66711 7.3738356 255 255 255
-135.11729 420.55298 -0.48975852 255 255 255
2011.3911 -62.845898 2.6173363 255 255 255
3.4095972 280.90396 -0.413847 255 255 255
35.564007 312.03714 -0.32933244 255 255 255
-18.84878 452.19849 -0.38870794 255 255 255
1294.5641 -71.876633 1.5451818 255 255 255
-3886.645 92.144653 -6.5490823 255 255 255
-41.943752 478.21756 -0.40789583 255 255 255
-3697.072 -105.28303 -4.5635595 255 255 255
-45.438503 501.11633 -0.4189924 255 255 255
1097.6945 60.969761 0.93829113 255 255 255
3129.3093 -739.57483 3.3834238 255 255 255
-122.84456 368.85675 -0.47410229 255 255 255
-43.670761 503.85004 -0.42085016 255 255 255
7363.8252 385.87949 8.2838078 255 255 255
-5875.4824 727.29382 -5.6640491 255 255 255
-806.43427 279.55304 -2.0646849 255 255 255
36.360191 393.16364 -0.3135784 255 255 255
1652.2502 -125.66628 2.0509057 255 255 255
-43.056042 473.55765 -0.40473059 255 255 255
85.867767 359.98282 -0.42677513 255 255 255
-23.456806 452.20428 -0.38903615 255 255 255
-116.7721 344.08429 -0.40035981 255 255 255
241.52953 561.76599 -0.50737917 255 255 255
-3408.6106 378.19577 -4.1139402 255 255 255
-97.553291 352.84555 -0.37826538 255 255 255
2100.2144 -27.893679 2.5253716 255 255 255
-30.275467 454.62402 -0.39236635 255 255 255
2170.1211 -202.44902 2.5546191 255 255 255
44.048721 393.88696 -0.41685992 255 255 255
3351.272 -269.40778 4.2184777 255 255 255
1617.4995 -95.915749 1.8237884 255 255 255
1484.0869 -703.67462 1.8607594 255 255 255
1820.3019 20.621134 1.9329057 255 255 255
3151.842 -347.69006 4.0357885 255 255 255
-68877.961 -10231.718 -75.098953 255 255 255
-124.82705 381.03735 -0.44515464 255 255 255
2732.3984 -198.32402 3.4000323 255 255 255
-59.060638 396.49823 -0.43761894 255 255 255
-108.47033 327.79431 -0.52661407 255 255 255
1003.7473 -181.81685 0.85762721 255 255 255
2007.8522 -19.040907 2.3107903 255 255 255
1474.0314 -87.248741 2.03476 255 255 255
521.23395 -1.902896 0.67897516 255 255 255
-28.955709 453.66055 -0.39111632 255 255 255
-16.948008 362.84241 -0.30200046 255 255 255
-129.37396 396.63763 -0.42346293 255 255 255
1219.3804 104.10464 1.2164416 255 255 255
-31.851053 362.6264 -0.43926534 255 255 255
-1560.6553 549.6828 -2.7429824 255 255 255
-130.40019 385.6109 -0.45121923 255 255 255
-130.39513 275.41245 -0.60078269 255 255 255
141.69325 254.36975 -0.28097296 255 255 255
-874.6037 275.6344 -2.2147458 255 255 255
2370.2385 -442.49698 2.2448831 255 255 255
-120.47762 434.52698 -0.44615901 255 255 255
-20.964901 464.37814 -0.40474343 255 255 255
17.247684 264.58264 -0.50048202 255 255 255
3267.6958 897.05359 3.3795788 255 255 255
-3.1243904 500.34293 -0.43704167 255 255 255
2269.7151 -127.11141 2.5901151 255 255 255
70.994316 420.27924 -0.26709846 255 255 255
168.45183 326.75488 -0.41895571 255 255 255
4330.2617 -457.24936 5.5945697 255 255 255
3803.6968 -436.10138 5.3090734 255 255 255
2489.7261 147.69026 2.9573267 255 255 255
1809.6978 20.337692 1.9252318 255 255 255
58.671608 620.03241 -0.44651225 255 255 255
235.5591 514.13171 -0.55752915 255 255 255
85.496277 385.8161 -0.48138151 255 255 255
-6943.0151 1045.6721 -6.4995117 255 255 255
-902.67737 283.33823 -2.2521703 255 255 255
-692.86371 -101.75112 -2.3246295 255 255 255
2049.3357 -6.6159296 2.1941469 255 255 255
1497.4767 96.420113 1.4792007 255 255 255
-39.04678 433.95285 -0.36745802 255 255 255
13.579867 306.37454 -0.51945651 255 255 255
-144.94962 329.77969 -0.45657307 255 255 255
-639.55963 -445.03348 -1.9853356 255 255 255
304.03427 359.599 -0.41747063 255 255 255
1829.996 -374.39301 2.0597808 255 255 255
-85.167908 396.28314 -0.55702394 255 255 255
643.21918 572.80249 0.055410184 255 255 255
1778.5752 -132.72588 2.2006643 255 255 255
-69.792465 470.40176 -0.43922037 255 255 255
136.91374 311.94882 -0.40317255 255 255 255
-113.1417 394.98468 -0.41565093 255 255 255
-4413.501 1022.1955 -6.1574435 255 255 255
116.40646 337.24548 -0.65757525 255 255 255
61.149708 406.46161 -0.62868869 255 255 255
-16.02265 279.68381 -0.35148525 255 255 255
1126.3497 -40.532982 1.0020086 255 255 255
2659.0576 -459.92325 3.645103 255 255 255
-25.895403 455.95874 -0.3940292 255 255 255
213.60635 442.24777 -0.5955202 255 255 255
-3742.3376 813.89185 -5.3680024 255 255 255
-1652.8264 -584.13654 -3.0378621 255 255 255
3422.1978 -332.97702 4.4848437 255 255 255
3560.3599 -366.08267 4.7451181 255 255 255
1342.8676 -24.220453 1.4215907 255 255 255
2559.4233 -78.284645 3.5669012 255 255 255
2824.9753 -611.76947 3.2335112 255 255 255
3790.4336 -453.20905 5.4433851 255 255 255
5303.6792 -667.54626 7.3508892 255 255 255
3411.8044 -318.69995 4.4276562 255 255 255
-13659.904 -1235.1068 -14.560252 255 255 255
1510.2191 -169.75218 1.6881803 255 255 255
2807.6934 -191.47456 3.4099064 255 255 255
-33.456142 440.52463 -0.37497687 255 255 255
8913.9189 828.28876 15.337672 255 255 255
244.162 339.28931 -0.40081933 255 255 255
24.389542 333.77518 -0.47110036 255 255 255
-85.330269 420.98804 -0.42050907 255 255 255
-393.564 -258.81271 -1.6292326 255 255 255
198.0623 497.74011 -0.56278938 255 255 255
-117.56335 346.33817 -0.41184792 255 255 255
-909.27161 -716.35352 -2.4993753 255 255 255
5111.0576 -1778.2867 5.6345687 255 255 255
-858.04321 86.611847 -1.8569418 255 255 255
2106.6187 -93.434769 2.840842 255 255 255
-44.172768 492.80582 -0.41503432 255 255 255
-43.800671 367.89285 -0.4340311 255 255 255
46.130428 413.13452 -0.32190293 255 255 255
3959.1609 1094.1055 7.4030356 255 255 255
-4860.0015 -3180.4521 -8.7504835 255 255 255
22.322233 630.17999 -0.51256609 255 255 255
9210.8867 -2365.968 20.382942 255 255 255
4835.6899 -588.78113 6.6745629 255 255 255
4906.4106 -542.5423 6.5360126 255 255 255
-2.2549646 462.15964 -0.40130964 255 255 255
3040.4924 -329.52197 4.3141875 255 255 255
-25127.203 1287.6489 -22.165854 255 255 255
3005.9192 -352.80048 4.1293859 255 255 255
3045.071 -327.40302 4.2946095 255 255 255
3449.4719 -299.03329 4.2958903 255 255 255
-42.007401 512.93231 -0.42555982 255 255 255
1956.1807 -290.63348 1.9371817 255 255 255
42.322155 315.88678 -0.44576392 255 255 255
1554.672 52.08717 1.6273825 255 255 255
-121.43771 345.84235 -0.47788766 255 255 255
-2233.4482 252.53001 -2.8720899 255 255 255
-95.762726 412.30048 -0.39154547 255 255 255
-48.524025 481.25266 -0.40725872 255 255 255
-138.04472 385.27228 -0.4289377 255 255 255
36484.711 -12650.88 39.416065 255 255 255
1163.5129 71.196869 1.4820838 255 255 255
2115.7205 -70.743362 2.447129 255 255 255
-2520.2927 42.886715 -3.0352573 255 255 255
156.49918 496.25516 -0.54453582 255 255 255
6065.748 -885.93555 9.5533667 255 255 255
180.9248 328.54691 -0.68237919 255 255 255
191.56993 483.7955 -0.56610554 255 255 255
5501.6284 926.09198 6.0311232 255 255 255
831.742 11.31653 1.0371326 255 255 255
-140.3735 345.66751 -0.425585 255 255 255
-50.677502 353.34641 -0.34601977 255 255 255
193.29422 358.12906 -0.34936887 255 255 255
-1372.553 450.87912 -2.9902625 255 255 255
-103.1693 310.36218 -0.55651081 255 255 255
3016.0417 -309.56845 4.1679149 255 255 255
-62.561394 457.07281 -0.421561 255 255 255
6231.0503 -708.96857 7.7483196 255 255 255
170.21317 317.99615 -0.37745294 255 255 255
1628.4907 -125.00483 2.0498278 255 255 255
-20.542589 448.97797 -0.38331944 255 255 255
5685.2183 -883.11328 7.8872795 255 255 255
-4606.6787 1036.0569 -8.7933636 255 255 255
-50.258377 449.62564 -0.52905887 255 255 255
-33.599747 439.48718 -0.37357077 255 255 255
1661.6206 -163.22961 1.5855981 255 255 255
-5471.9888 507.1767 -6.0617499 255 255 255
-63.112404 414.06949 -0.35089573 255 255 255
5468.4863 -684.31445 7.4860792 255 255 255
1827.524 36.946018 1.8947531 255 255 255
-2180.4343 497.56982 -4.546927 255 255 255
-25.006409 452.4574 -0.38926876 255 255 255
2812.364 -228.05107 3.595814 255 255 255
220.88396 441.38617 -0.59760195 255 255 255
-2394.3938 619.71918 -4.2358346 255 255 255
-15.093417 460.99426 -0.3690291 255 255 255
-22.059513 452.83444 -0.38979515 255 255 255
-136.5127 387.5065 -0.42476115 255 255 255
-47.035736 469.90479 -0.40132925 255 255 255
-584.99902 -3.920712 -1.5641601 255 255 255
134.30708 298.51614 -0.38157418 255 255 255
-95.959183 411.064 -0.44595748 255 255 255
-3767.2158 117.00802 -4.2360296 255 255 255
-111.12529 379.32898 -0.47605866 255 255 255
1567.071 87.52401 1.5579151 255 255 255
-74.397659 429.50104 -0.38596049 255 255 255
1072.5734 171.14304 1.1376338 255 255 255
-88.380577 361.92032 -0.3733485 255 255 255
6652.5347 -603.95422 10.124237 255 255 255
141.63815 216.59555 -0.24572501 255 255 255
-7.6276612 293.57697 -0.29452732 255 255 255
-27.791595 410.21469 -0.32931063 255 255 255
1144.64 -112.20897 0.90466672 255 255 255
206.51161 459.47208 -0.58378494 255 255 255
1284.6967 -252.17113 1.0974125 255 255 255
1431.4948 -299.07227 1.4814008 255 255 255
1563.5756 -121.90124 1.9125153 255 255 255
5024.0503 -624.72821 6.9792156 255 255 255
4667.4561 -456.17926 5.6893535 255 255 255
208.22121 435.90179 -0.59906852 255 255 255
1473.473 110.58776 1.429592 255 255 255
10692.562 519.64331 12.44654 255 255 255
-99.154732 440.90057 -0.50150186 255 255 255
-1665.6074 315.85144 -2.4262846 255 255 255
-2837.2063 356.16794 -3.5822237 255 255 255
13.963744 352.44516 -0.43919635 255 255 255
-27.345894 464.52118 -0.40198058 255 255 255
1305.8588 -253.50552 1.2808282 255 255 255
1367.6976 -167.58928 1.2423724 255 255 255
1467.6316 54.927139 1.5441755 255 255 255
190.24217 502.56207 -0.55788499 255 255 255
217.97874 486.42249 -0.57415313 255 255 255
1357.2881 -407.88806 1.2109667 255 255 255
-145.05565 342.33463 -0.47628766 255 255 255
-39.640438 389.0451 -0.46718121 255 255 255
4494.3062 -1717.4241 4.8357458 255 255 255
6291.8965 -772.48492 8.2528448 255 255 255
91.011223 265.2666 -0.56369519 255 255 255
-19.515566 480.92303 -0.41856551 255 255 255
-16.701233 466.30289 -0.40796322 255 255 255
-67.695724 339.83121 -0.31268024 255 255 255
194.70332 495.63684 -0.56263328 255 255 255
-120.92467 381.72681 -0.43995014 255 255 255
2140.9883 150.13167 2.4719825 255 255 255
4783.7241 45.8321 5.2375889 255 255 255
-3405.3645 -157.50029 -4.2841296 255 255 255
1189.6813 56.372292 1.518468 255 255 255
77.478546 495.21051 -0.48822117 255 255 255
495.72955 1.9583492 0.63886249 255 255 255
1738.5619 -100.49504 1.9693078 255 255 255
-137.76717 438.54977 -0.43497729 255 255 255
3639.0244 -377.0441 4.8383536 255 255 255
2503.2278 -17.530861 2.8478105 255 255 255
1544.6959 53.776882 1.6158886 255 255 255
-23.49715 452.17566 -0.38904873 255 255 255
-33.330448 440.56891 -0.3751421 255 255 255
16.08066 441.94498 -0.64570844 255 255 255
1519.8281 -543.82672 1.4739757 255 255 255
1198.9419 106.81844 1.1936865 255 255 255
-116.81734 303.97235 -0.42491707 255 255 255
5135.7954 -2526.5361 5.4277496 255 255 255
-69.290138 352.50992 -0.41053858 255 255 255
205.05028 458.91718 -0.58361179 255 255 255
-1823.644 65.155701 -2.4044697 255 255 255
2782.5476 -212.61896 3.4952865 255 255 255
-141.80794 368.39865 -0.42458084 255 255 255
111.26654 273.3353 -0.49603263 255 255 255
1762.623 66.073158 2.1912556 255 255 255
-23.987326 458.77515 -0.39806548 255 255 255
1241.5793 136.74156 1.1769493 255 255 255
11.007051 106.01688 -0.1827101 255 255 255
-2953.4602 -97.774796 -3.5847154 255 255 255
89.22599 329.07571 -0.44099423 255 255 255
227.35847 374.43033 -0.64673102 255 255 255
13.267792 107.77776 -0.16463409 255 255 255
-116.73588 329.93771 -0.54674786 255 255 255
-147.31464 315.42001 -0.59665346 255 255 255
-91.388863 358.59189 -0.48507044 255 255 255
1616.5764 5.5599952 1.8022923 255 255 255
349.93201 -136.05682 0.34252438 255 255 255
3021.0332 -183.62683 3.5109825 255 255 255
2881.0713 -238.49321 3.6872575 255 255 255
2177.6909 -407.17639 2.0377712 255 255 255
-1554.9928 80.747116 -2.401387 255 255 255
3.4209113 307.89767 -0.43482596 255 255 255
193.28427 500.09134 -0.56 255 255 255
46.740887 348.9447 -0.4541091 255 255 255
2009.2062 -60.958611 2.3329496 255 255 255
221.56892 444.65042 -0.59585303 255 255 255
152.23508 397.88831 -0.55391145 255 255 255
-3147.5674 -69.217346 -6.798737 255 255 255
9.4370556 302.38693 -0.51844567 255 255 255
1100.511 9.923358 1.3311665 255 255 255
-30.054279 296.72446 -0.31515706 255 255 255
98.448067 511.70377 -0.54200929 255 255 255
-1612.6733 420.87259 -3.1411133 255 255 255
-2944.0659 -145.3905 -4.1163311 255 255 255
22.283255 269.03619 -0.51061094 255 255 255
10.020264 280.29428 -0.50999773 255 255 255
2840.106 -67.639915 3.8738472 255 255 255
495.59097 3.0342338 0.6368047 255 255 255
2585.1904 -983.62848 2.7458804 255 255 255
-1862.7783 522.21674 -3.4886804 255 255 255
2157.5215 -106.04182 2.8971457 255 255 255
227.72269 485.72763 -0.57734483 255 255 255
1891.4113 -429.82379 1.7899833 255 255 255
2737.7952 -198.87373 3.4100225 255 255 255
-1561.7349 549.3916 -2.7453279 255 255 255
1410.0377 -561.32501 1.3904219 255 255 255
271.45728 419.58154 -0.010104476 255 255 255
-100.17593 369.04868 -0.35819897 255 255 255
222.37746 399.5455 -0.62779319 255 255 255
-112.6851 387.629 -0.47097525 255 255 255
1140.1985 -223.43573 0.98031425 255 255 255
178.36906 371.19434 -0.53340256 255 255 255
-43.121326 473.37277 -0.4046199 255 255 255
1817.4095 -34.619507 2.0921738 255 255 255
-44.252068 492.78192 -0.41502103 255 255 255
-12418.776 1319.5891 -10.027276 255 255 255
1974.5927 -24.538727 2.5541785 255 255 255
34.727356 325.15808 -0.47312036 255 255 255
-112.11378 279.21121 -0.36871797 255 255 255
-99.499542 444.5126 -0.49249452 255 255 255
909.61621 -4.3260236 1.1642916 255 255 255
134.25436 573.52155 -0.55346477 255 255 255
183.43356 517.57239 -0.54966509 255 255 255
-83.13028 446.06653 -0.4800306 255 255 255
-2345.8679 20.045687 -2.7329791 255 255 255
-43.631187 503.75775 -0.42083606 255 255 255
1442.9624 -176.56837 1.3971804 255 255 255
-2280.2976 -88.599503 -3.3888712 255 255 255
-4776.6851 1960.9705 -6.3516912 255 255 255
-25.240181 362.02231 -0.42746243 255 255 255
1178.1338 320.99603 0.70738655 255 255 255
15.562363 222.45647 -0.35799298 255 255 255
206.64793 457.50293 -0.58483726 255 255 255
-26.297407 366.82278 -0.43206099 255 255 255
89.736 517.32141 -0.53643203 255 255 255
1914.2612 80.562508 2.3780234 255 255 255
-7263.2173 -499.57227 -8.1481266 255 255 255
