ply
format ascii 1.0
comment PCL generated
element vertex 1099
property float x
property float y
property float z
property uchar red
property uchar green
property uchar blue
element face 0
element camera 0
property float view_px
property float view_py
property float view_pz
property float x_axisx
property float x_axisy
property float x_axisz
property float y_axisx
property float y_axisy
property float y_axisz
property float z_axisx
property float z_axisy
property float z_axisz
property float focal
property float scalex
property float scaley
property float centerx
property float centery
property int viewportx
property int viewporty
property float k1
property float k2
end_header
-82.954948 455.12158 -0.31317201 255 255 255
-1159.4209 -242.88623 -2.5875041 255 255 255
1416.5891 60.69347 1.8071396 255 255 255
5427.4136 721.7099 8.5435581 255 255 255
2381.3057 -380.32852 3.6743989 255 255 255
1542.2833 -70.081779 1.811721 255 255 255
-95.360413 495.89917 -0.35249424 255 255 255
3026.8542 291.02975 3.6378536 255 255 255
1252.6842 -78.878296 1.6342051 255 255 255
1457.4319 -25.911171 1.438399 255 255 255
2741.124 83.993248 4.268837 255 255 255
2126.8855 198.2744 1.637632 255 255 255
2482.3533 -183.48096 2.6602809 255 255 255
-98.191597 446.0806 -0.44061846 255 255 255
-4296.6294 -1284.6221 -8.7305231 255 255 255
1592.2498 270.68304 1.0796237 255 255 255
2550.5518 -14.871601 2.1609628 255 255 255
2049.2344 49.105011 1.7905757 255 255 255
3059.3374 -576.48419 5.1440744 255 255 255
-76.697784 458.69101 -0.31288987 255 255 255
-75.244301 511.83032 -0.36440289 255 255 255
-146.59082 379.24295 -0.42472312 255 255 255
-362.99695 -165.03532 -1.3737754 255 255 255
2964.5881 -447.35309 4.1175117 255 255 255
1236.7357 -160.59883 1.0636191 255 255 255
112.44957 438.62292 -0.5788008 255 255 255
1127.2457 -109.99026 0.97852385 255 255 255
2476.9421 638.55884 3.5820293 255 255 255
1158.9956 -129.97067 1.3105036 255 255 255
1736.1307 261.13159 1.5959431 255 255 255
-95.815346 480.22498 -0.34234789 255 255 255
-120494.89 -26323.238 -257.60901 255 255 255
1006.025 144.054 0.93256128 255 255 255
-6676.2441 -1519.2385 -8.7156343 255 255 255
-8708.0508 2465.1328 -12.928393 255 255 255
-5.6349788 293.35004 -0.35665688 255 255 255
1514.6526 914.61084 2.9879813 255 255 255
869.36334 -148.68756 0.78011101 255 255 255
1876.4595 198.21043 1.413787 255 255 255
1180.6034 3.2679999 1.3407221 255 255 255
14346.216 -3097.387 17.470566 255 255 255
1012.8958 57.677708 1.0816494 255 255 255
-116.49075 500.51935 -0.35289553 255 255 255
4690.9136 -594.34924 7.0392723 255 255 255
1172.4646 63.335102 1.2023175 255 255 255
1904.9824 -13.550057 1.8624465 255 255 255
2131.2166 -234.60542 3.5040174 255 255 255
725.73608 -25.180218 0.58756822 255 255 255
-99.173149 324.78699 -0.32532483 255 255 255
1115.0347 71.17379 1.1410227 255 255 255
-120.24776 450.87585 -0.44427598 255 255 255
-7191.8232 2792.4702 -7.6057878 255 255 255
-43.359722 538.69958 -0.38574335 255 255 255
1144.9757 4.5499439 1.3096349 255 255 255
3104.5681 148.57211 3.0774865 255 255 255
1596.1173 -152.46416 2.1483576 255 255 255
2614.8066 134.55731 3.2527375 255 255 255
-118.2668 498.79083 -0.35184744 255 255 255
1092.5879 -15.715493 1.3159407 255 255 255
-47.948898 424.95007 -0.44396105 255 255 255
1271.776 56.214584 1.2956511 255 255 255
-2319.3132 -67.042519 -5.1416569 255 255 255
109.9638 494.30774 -0.5384891 255 255 255
2553.8054 -364.97559 3.5822339 255 255 255
3524.7422 -687.42767 5.9633656 255 255 255
-107.75026 450.61133 -0.3991096 255 255 255
-6.0445375 426.68915 -0.59577346 255 255 255
1126.1569 180.91534 0.97902471 255 255 255
-895.46808 -247.90096 -2.9481692 255 255 255
1003.9071 -23.582077 1.3336481 255 255 255
-26432.221 5774.6338 -29.791517 255 255 255
265.03473 516.66547 -0.56099302 255 255 255
12570.601 -143.1897 12.125957 255 255 255
-160.38042 317.63696 -0.59030807 255 255 255
28.708023 437.5137 -0.29996985 255 255 255
-40.316322 472.92889 -0.33991775 255 255 255
-130.51566 301.13107 -0.39522085 255 255 255
2405.0505 -103.71946 2.6005063 255 255 255
138540.94 -33532.074 180.03227 255 255 255
9301.0088 684.90948 13.893895 255 255 255
1408.3848 34.954884 1.4401062 255 255 255
1068.1774 109.30726 1.0390069 255 255 255
1646.0205 -79.583801 1.907907 255 255 255
1159.6251 100.7262 1.1232276 255 255 255
1298.7334 -75.368332 1.6597587 255 255 255
3721.4067 9.2426424 6.7816176 255 255 255
-677.64594 -43.671623 -1.9963688 255 255 255
4.4449582 248.52492 -0.63643771 255 255 255
-7952.561 2667.6528 -9.6054544 255 255 255
1918.7786 117.08188 1.585876 255 255 255
1392.797 -318.61655 1.7220151 255 255 255
1211.0425 112.20715 1.1443083 255 255 255
819.77527 -95.800156 1.2777678 255 255 255
2908.1294 -543.78589 4.8947134 255 255 255
2027.046 -287.97247 3.0187171 255 255 255
1507.2506 -81.45768 1.8281467 255 255 255
1490.1353 -39.669342 1.6844103 255 255 255
1841.8799 384.64917 2.7245691 255 255 255
1745.0529 40.126202 1.6431172 255 255 255
526.2088 -35.096786 0.75398713 255 255 255
997.78314 -272.52795 1.3446617 255 255 255
1826.1465 129.07332 1.5132971 255 255 255
-94.389046 452.29437 -0.42921126 255 255 255
1544.0426 90.581848 1.5182103 255 255 255
2299.1018 -137.02426 3.5091777 255 255 255
2259.813 112.23116 2.3559568 255 255 255
1821.8019 158.55522 1.4592865 255 255 255
4460.6167 397.85086 6.8732944 255 255 255
-68977.672 -43231.043 -185.16 255 255 255
-618.71765 -248.34052 -1.8309644 255 255 255
-2363.9343 -453.25525 -4.8453374 255 255 255
-1365.2445 -484.72391 -3.232758 255 255 255
-859.06989 -400.64395 -2.662456 255 255 255
1761.2106 236.32452 1.2798258 255 255 255
1688.8425 71.462967 1.5433652 255 255 255
1488.8887 231.94284 1.1612072 255 255 255
1452.6569 62.661442 1.4112397 255 255 255
2357.0591 -36.385956 3.3376968 255 255 255
-53759.289 13556.599 -72.123558 255 255 255
703.77551 -96.498077 1.0155889 255 255 255
51089.805 3099.3435 89.017784 255 255 255
-504.36694 122.06432 -1.6213303 255 255 255
1468.073 -48.385036 1.6975844 255 255 255
1535.7455 -34.055336 1.6990415 255 255 255
-6597.6655 1909.0515 -7.793016 255 255 255
1048.6853 -9.4647837 1.262488 255 255 255
1473.712 160.46901 1.2544298 255 255 255
51.510853 489.78012 -0.33072719 255 255 255
1346.5137 -31.248377 1.5614107 255 255 255
1186.5018 111.16666 1.1274759 255 255 255
2967.8354 -561.91284 5.0390077 255 255 255
2858.1697 672.8009 2.8203452 255 255 255
-24.471674 509.50012 -0.34595767 255 255 255
1156.1503 -30.716894 1.4107968 255 255 255
1814.3502 -83.868248 2.0161541 255 255 255
1005.6625 254.78963 1.20121 255 255 255
1033.1117 219.08749 0.86174244 255 255 255
1526.1482 231.16115 1.1849275 255 255 255
1572.394 236.28555 2.0768471 255 255 255
-1133.2021 -300.90359 -2.9963017 255 255 255
1307.4641 -34.440739 1.5413027 255 255 255
1702.3259 -415.34329 2.4335401 255 255 255
-3210.5244 -193.68108 -7.3956537 255 255 255
1739.3116 -214.34088 1.875437 255 255 255
1658.4675 -319.83829 2.2988789 255 255 255
1424.2241 -30.467695 1.6144116 255 255 255
892.76318 -243.4852 1.0268818 255 255 255
140.95111 516.74524 -0.46498963 255 255 255
5660.1216 -96.006905 9.0479422 255 255 255
-128.28986 424.09802 -0.4319337 255 255 255
3447.5544 74.276848 4.5945458 255 255 255
-2245.9963 687.37091 -4.152689 255 255 255
140.87387 616.41821 -0.4891277 255 255 255
1118.998 151.10591 1.0133978 255 255 255
1462.7036 25.549192 1.5365727 255 255 255
1487.6718 -136.29172 2.0153785 255 255 255
1325.7091 -188.19217 1.1990964 255 255 255
1349.9984 -33.722622 1.5711098 255 255 255
2006.9598 135.95818 1.5971578 255 255 255
1607.7146 52.904552 1.5360752 255 255 255
3145.2229 724.50256 6.3675399 255 255 255
1773.7186 201.71507 2.2188728 255 255 255
2018.558 -283.76831 2.8241379 255 255 255
2218.3582 418.8562 2.6882811 255 255 255
1579.5195 191.2748 1.275425 255 255 255
1191.4904 100.70822 1.1496098 255 255 255
1569.7238 53.132473 1.5090489 255 255 255
702.13605 -14.031272 0.92859071 255 255 255
1082.3818 16.803495 1.2285441 255 255 255
1777.1708 235.4922 1.2841065 255 255 255
-154.37219 367.47794 -0.43862122 255 255 255
-104.99446 283.17081 -0.34702346 255 255 255
-182.0495 306.67328 -0.44872251 255 255 255
1556.6547 145.10295 1.3304356 255 255 255
2692.8845 483.82849 1.9679779 255 255 255
-50.208885 409.69763 -0.30737928 255 255 255
1194.6783 32.128407 1.2856526 255 255 255
1752.3185 -221.99268 2.5532181 255 255 255
-1786.2533 257.87573 -2.8110163 255 255 255
-3169.9521 -600.83966 -6.157589 255 255 255
-5924.5405 -570.98175 -11.248652 255 255 255
1495.1738 -54.196064 1.7319505 255 255 255
-120.23279 285.83832 -0.38947919 255 255 255
-2064.7788 -198.26093 -4.0328474 255 255 255
1111.2367 -19.800524 1.3437972 255 255 255
1494.9254 -58.38908 1.74449 255 255 255
2434.8652 -164.13086 2.5741749 255 255 255
1498.9078 -82.476242 1.8252226 255 255 255
3878.5222 -779.93732 6.7026663 255 255 255
-118.22868 301.35995 -0.28017899 255 255 255
71.545044 372.62799 -0.40320915 255 255 255
-15848.424 4731.8467 -17.405745 255 255 255
634.61182 -6.5580807 0.83333838 255 255 255
2613.1028 -383.521 3.702646 255 255 255
1255.1384 104.0992 1.1923548 255 255 255
-1086.542 414.91931 -3.2225409 255 255 255
-1069.3225 85.986023 -2.9456897 255 255 255
-7279.5781 2845.989 -7.6640782 255 255 255
-2.8382056 576.5564 -0.44997671 255 255 255
1959.9144 140.60608 1.5652399 255 255 255
-5103.5508 -488.38992 -5.9363809 255 255 255
1633.6237 142.4474 1.3812138 255 255 255
18.35449 575.45984 -0.42608476 255 255 255
1900.4807 357.87518 2.2867694 255 255 255
2447.1497 -48.575783 2.2120256 255 255 255
-144.01953 395.08456 -0.39798465 255 255 255
844.80621 -118.06794 0.88616258 255 255 255
-728.86902 -238.23549 -2.1512194 255 255 255
2063.324 222.11397 2.0337114 255 255 255
-11253.192 3520.4358 -12.711194 255 255 255
1441.1094 -103.13548 1.4475496 255 255 255
-1316.853 40.750366 -3.5769162 255 255 255
3964.6919 972.13367 4.5862536 255 255 255
4201.9136 464.77985 5.4012694 255 255 255
1422.2924 -151.19658 1.8075312 255 255 255
751.77161 -12.182727 0.98031104 255 255 255
-1035.5054 571.43756 -2.2687769 255 255 255
-3573.5959 -682.32098 -5.7066326 255 255 255
-1884.048 920.43384 -3.0984418 255 255 255
1354.6934 -132.21825 1.9084581 255 255 255
3405.3411 -666.99878 5.8484845 255 255 255
1630.4683 154.10661 1.3607965 255 255 255
1666.7118 248.46938 1.224926 255 255 255
-116.79641 266.82074 -0.3670474 255 255 255
1513.6625 137.01537 1.3168424 255 255 255
1570.4926 -123.99345 2.0215862 255 255 255
-1234.2042 -74.161713 -3.2292702 255 255 255
492.20825 -57.262829 0.51424229 255 255 255
975.45953 39.705181 1.084407 255 255 255
2395.2693 -356.43805 1.6872413 255 255 255
1541.0892 -69.423668 1.8105855 255 255 255
677.92413 -87.62822 0.96065706 255 255 255
2173.0469 -332.32535 3.0476778 255 255 255
-15.767612 540.83221 -0.39176959 255 255 255
-727.84906 162.17384 -1.920987 255 255 255
2641.5703 765.24384 3.0105696 255 255 255
1561.9525 -38.864025 1.7301874 255 255 255
3542.7874 -16.938892 5.331522 255 255 255
-151.99652 433.62308 -0.45230439 255 255 255
-120.31937 281.44595 -0.49126005 255 255 255
1713.6562 513.02057 1.6181353 255 255 255
2022.9392 94.44577 2.6481798 255 255 255
-109.85416 328.75482 -0.39897639 255 255 255
630.13214 16.862745 0.78253591 255 255 255
2549.7595 -44.601139 3.2190413 255 255 255
-1268.6178 363.70871 -2.751585 255 255 255
-155.16753 264.69858 -0.38494635 255 255 255
869.95532 -219.802 0.74733818 255 255 255
12.254372 475.48322 -0.26979831 255 255 255
1858.3163 262.03442 2.3970468 255 255 255
1929.2968 71.048859 1.6815356 255 255 255
1912.0139 -194.35614 2.4964135 255 255 255
78.674446 430.70157 -0.58862036 255 255 255
991.29999 -274.04242 0.96574211 255 255 255
-64.676933 425.44128 -0.38292289 255 255 255
-80.651909 542.74054 -0.3785134 255 255 255
-3948.5955 1556.9802 -5.1959906 255 255 255
2003.1584 -187.29111 2.5038764 255 255 255
-2263.9919 -378.65668 -4.7423687 255 255 255
3271.8577 1835.3344 5.6844268 255 255 255
-581.18964 -158.04567 -1.662199 255 255 255
1202.9059 261.37927 0.93838322 255 255 255
154.24695 599.35706 -0.49651238 255 255 255
1964.2567 -14.136304 1.8987468 255 255 255
1611.0634 155.81306 1.5891554 255 255 255
2287.5881 -354.60739 3.4942744 255 255 255
-1607.5681 768.94879 -2.9213123 255 255 255
1689.1583 3.7744315 1.6962044 255 255 255
-62.821228 513.25989 -0.36573365 255 255 255
1236.6975 58.562134 1.264781 255 255 255
-93.642242 402.63519 -0.29888305 255 255 255
-54.37759 506.14575 -0.35720995 255 255 255
20.309401 490.30243 -0.28724238 255 255 255
1587.6571 0.78787857 1.640211 255 255 255
-1263.3164 439.87872 -2.531508 255 255 255
529.47662 -72.843285 0.60029864 255 255 255
2038.1904 147.49632 1.3269831 255 255 255
1395.423 501.41202 2.0896907 255 255 255
-92.819229 436.28714 -0.37289861 255 255 255
1558.792 463.99432 2.4434364 255 255 255
1640.5009 -12.416376 1.7096117 255 255 255
1459.6167 22.319511 1.5049964 255 255 255
-198.7878 362.84293 -0.41289705 255 255 255
1203.1788 91.747185 1.0053768 255 255 255
-615.73767 440.96188 -1.7249427 255 255 255
637.86566 21.022293 0.78346735 255 255 255
-90.103333 310.21313 -0.4257094 255 255 255
-76.700211 454.99249 -0.37796706 255 255 255
-50.829018 310.73126 -0.29374668 255 255 255
-155.17575 428.62021 -0.37443084 255 255 255
1576.4436 128.1951 1.371977 255 255 255
-2540.7903 1063.3323 -3.9480345 255 255 255
1663.1094 220.96487 1.278356 255 255 255
1393.4764 491.29376 2.0508463 255 255 255
-2690.2046 921.65314 -4.8511963 255 255 255
1527.9801 96.514076 1.3972815 255 255 255
161.04749 590.99115 -0.5006479 255 255 255
1009.3685 -142.90607 1.6470747 255 255 255
-1792.403 177.3808 -2.8765893 255 255 255
29262.281 596.77301 21.261263 255 255 255
1449.7445 -131.25398 1.9709009 255 255 255
6660.1812 359.63425 10.831432 255 255 255
1560.5031 108.16367 1.3939244 255 255 255
-7.855854 454.17401 -0.57070118 255 255 255
932.35358 -29.496153 0.95781469 255 255 255
-81.79673 557.86841 -0.3841787 255 255 255
109.82351 379.06671 -0.44177952 255 255 255
1377.0387 -72.908371 1.7095044 255 255 255
1418.6095 25.439247 1.4703587 255 255 255
-3989.8806 -472.73004 -4.7886138 255 255 255
1695.0046 -214.55913 2.4890828 255 255 255
18635.078 -4252.0571 17.18675 255 255 255
1216.6427 2.9203558 1.1571288 255 255 255
1793.796 49.749962 1.6523634 255 255 255
1135.8112 -49.303661 1.1914786 255 255 255
-3704.5181 1364.553 -6.3541503 255 255 255
-14.446253 424.12384 -0.45825881 255 255 255
-3824.0193 -963.93182 -6.4857745 255 255 255
28.261095 434.31375 -0.46081415 255 255 255
1178.62 55.92181 1.2235945 255 255 255
1643.4387 -59.899776 1.8456511 255 255 255
1890.6266 157.35159 1.4986155 255 255 255
1869.0503 -165.56508 1.9705949 255 255 255
1116.8141 -77.564087 1.1350821 255 255 255
4204.0645 152.59531 4.0751252 255 255 255
2925.8647 -277.66666 3.6289079 255 255 255
1655.5338 -77.821236 1.9079912 255 255 255
1368.8104 30.078688 1.4241612 255 255 255
-9287.9297 1212.6552 -19.907831 255 255 255
2017.2451 -210.52257 2.6124933 255 255 255
5783.8818 1946.382 11.888679 255 255 255
1048.0977 -283.68036 1.3056682 255 255 255
1606.088 48.825008 1.5408623 255 255 255
1672.6696 129.75952 1.4261812 255 255 255
1637.4382 236.51666 1.2374163 255 255 255
-4376.3589 1367.0062 -7.144485 255 255 255
-6188.3594 1794.9993 -7.4282289 255 255 255
-111.08345 458.53033 -0.40500808 255 255 255
1805.2302 -45.032108 2.4479947 255 255 255
7522.7871 -1492.7473 8.3311882 255 255 255
-2129.9607 1254.3164 -3.0103002 255 255 255
-4322.3872 -1445.0973 -8.7449341 255 255 255
-46.397995 268.18515 -0.32735246 255 255 255
2745.3313 -25.67775 3.2996211 255 255 255
-97.720146 266.64795 -0.38419801 255 255 255
1052.5417 125.66873 0.77697051 255 255 255
21117.885 -4976.2417 39.487183 255 255 255
1519.6105 95.91011 1.7665232 255 255 255
-1653.8829 -600.29443 -2.9742873 255 255 255
3177.7759 768.59735 4.298512 255 255 255
-6.3703804 457.52313 -0.32424951 255 255 255
-5323.0703 -312.54901 -11.645809 255 255 255
1854.0416 -240.28079 1.8805311 255 255 255
243.20918 497.80075 -0.54520965 255 255 255
1234.6879 91.467133 0.99312079 255 255 255
869.02661 380.80325 0.45899215 255 255 255
11196.855 -2598.4641 21.395956 255 255 255
-3110.6975 1035.8744 -5.4296284 255 255 255
-1200.2537 235.0433 -2.9659863 255 255 255
1256.8794 117.52066 1.1724036 255 255 255
1611.9424 -60.093086 1.8240147 255 255 255
1577.9321 -48.883942 1.7701817 255 255 255
-25.983189 512.62494 -0.3522118 255 255 255
-36.501083 377.95502 -0.31259266 255 255 255
-109.17989 308.51419 -0.35043532 255 255 255
-6574.1958 -2326.8716 -13.433218 255 255 255
1307.6597 -2.542702 1.4568611 255 255 255
-2693.4199 276.34842 -6.0033698 255 255 255
3445.0159 -144.92548 5.6996984 255 255 255
1315.2665 83.252579 1.2730494 255 255 255
-100.22372 533.3103 -0.37080202 255 255 255
-129.14285 245.06628 -0.46065786 255 255 255
-3258.1362 1069.1816 -5.5812531 255 255 255
-147.58716 420.5549 -0.41804558 255 255 255
-2626.7874 959.2901 -4.7957506 255 255 255
-2727.1191 -492.02325 -5.7105818 255 255 255
-2088.0906 -504.37747 -3.4405723 255 255 255
1097.0284 32.878105 0.9620496 255 255 255
1845.3235 -146.0336 2.0052965 255 255 255
-1035.6555 203.63213 -2.1207209 255 255 255
-109.40788 445.55832 -0.41451091 255 255 255
-68.647812 518.47583 -0.36924717 255 255 255
1095.1611 -15.426648 1.3192177 255 255 255
1105.6667 55.392933 1.1642795 255 255 255
1258.312 14.209183 1.6447449 255 255 255
1257.262 106.37351 1.5768646 255 255 255
1564.6116 -58.720215 1.791642 255 255 255
-61.470516 400.59473 -0.51284069 255 255 255
-5323.4131 1612.2196 -8.4081812 255 255 255
1554.1232 -157.20897 2.1428678 255 255 255
1823.798 159.09143 1.4611647 255 255 255
1076.5065 240.67934 0.87135291 255 255 255
-103.92299 411.19019 -0.41155764 255 255 255
1146.6285 165.70131 1.0140727 255 255 255
2437.3147 150.74333 3.0313845 255 255 255
2064.3735 -95.456665 2.5166631 255 255 255
1725.668 -115.94272 2.3248672 255 255 255
1931.2584 -130.00508 2.1289041 255 255 255
-174.00685 412.12317 -0.3784554 255 255 255
-4318.4673 1662.4669 -5.5664372 255 255 255
1582.6216 115.44545 1.396583 255 255 255
6676.9302 2981.3901 7.3272285 255 255 255
250.9436 491.61511 -0.54392934 255 255 255
2453.813 -463.87796 4.3005857 255 255 255
1080.0415 -221.8812 1.1947473 255 255 255
1796.4652 36.560318 1.6819601 255 255 255
1523.3254 65.173973 1.4544643 255 255 255
-28.993288 93.852829 -0.12591963 255 255 255
1228.7944 -9.9339857 1.4114829 255 255 255
1530.7096 236.26753 1.1807637 255 255 255
1929.9006 -171.96616 2.4027066 255 255 255
-940.5423 185.07663 -2.0140884 255 255 255
984.73474 -12.946937 0.97131258 255 255 255
-97.523087 481.37057 -0.34336075 255 255 255
1353.9435 125.15054 1.6674935 255 255 255
1097.8643 53.042355 1.1632729 255 255 255
-79.488815 505.63724 -0.35995355 255 255 255
1373.1516 -10.351888 1.5228007 255 255 255
1217.2333 -39.17207 1.4862319 255 255 255
-12.994332 480.05734 -0.3623412 255 255 255
1591.8647 121.67593 1.3928682 255 255 255
1495.7665 108.59586 1.3543718 255 255 255
-5559.603 1155.0189 -6.7599425 255 255 255
-1942.1375 37.796894 -4.3563457 255 255 255
1604.6282 59.794922 1.5176601 255 255 255
1580.3247 113.79082 1.39859 255 255 255
2274.5186 -404.29456 2.8332832 255 255 255
1812.1146 117.47446 1.5608847 255 255 255
5240.646 -1115.5568 9.2780256 255 255 255
1150.5675 329.90311 0.77411103 255 255 255
-2640.6501 664.1748 -3.7687395 255 255 255
1414.9626 2.9394968 1.5193919 255 255 255
1202.4491 50.660797 1.3742959 255 255 255
1859.3699 415.48819 2.3273325 255 255 255
-1132.389 -259.04565 -2.8672338 255 255 255
1189.7526 248.78087 0.94478387 255 255 255
-553.56238 -164.93094 -2.0496218 255 255 255
2016.0847 -291.04779 3.0370371 255 255 255
7213.0732 -1872.12 5.5712237 255 255 255
1891.1821 197.30618 1.4271965 255 255 255
-1000.0234 -167.15778 -2.0518439 255 255 255
-7091.5151 1192.0978 -13.810587 255 255 255
-3134.1743 -733.26697 -8.8016777 255 255 255
1631.3792 -150.01057 2.1610398 255 255 255
80.02169 346.72946 -0.52453864 255 255 255
929.78979 136.65974 0.87933493 255 255 255
-8271.1904 3094.6841 -8.6090603 255 255 255
-152.96196 300.35706 -0.50044119 255 255 255
-1284.5536 -472.7085 -3.5599754 255 255 255
-66.909943 432.46429 -0.47699896 255 255 255
1152.3998 23.392071 1.2692206 255 255 255
2220.5881 -163.04611 1.4296359 255 255 255
-63.572403 424.67926 -0.49979147 255 255 255
302.98117 483.42108 -0.058850352 255 255 255
1305.6404 -306.80716 1.5225351 255 255 255
1339.157 -56.573502 1.6295844 255 255 255
1376.3793 -33.850216 1.5888319 255 255 255
2884.8516 -452.51398 4.1646061 255 255 255
2197.8132 201.15433 1.9019319 255 255 255
-2187.5427 -728.49603 -3.460073 255 255 255
236.08919 -3.9944258 0.57924992 255 255 255
1193.8378 104.01364 1.1444556 255 255 255
9085.0889 -693.58527 14.816269 255 255 255
-95.953438 480.33432 -0.34237382 255 255 255
1030.1088 110.64352 0.97873449 255 255 255
-114.52483 319.90121 -0.59657931 255 255 255
1991.0388 -178.82564 2.4617712 255 255 255
1161.4792 270.798 0.89924008 255 255 255
989.41046 -146.45047 1.2819082 255 255 255
-1442.6433 -162.86841 -3.3340909 255 255 255
2264.9065 495.9285 1.9159957 255 255 255
2382.4397 66.376091 1.9058806 255 255 255
2112.9363 11.530282 1.9083457 255 255 255
-6246.7866 2473.625 -6.7805686 255 255 255
1637.3501 -135.74663 2.1071081 255 255 255
48853.145 3530.1082 42.898987 255 255 255
1530.7947 -243.19479 2.0643523 255 255 255
1570.6238 140.93768 1.345181 255 255 255
-1774.2976 -29.605442 -4.6521688 255 255 255
-1132.3824 65.393402 -2.3075678 255 255 255
1423.2382 -227.25557 2.0598953 255 255 255
1388.9501 -4.247334 1.5197028 255 255 255
-1287.489 -201.21292 -2.9045208 255 255 255
-7226.8745 974.62665 -7.7158775 255 255 255
-1877.3468 704.6084 -3.6876171 255 255 255
-53115.277 -20050.941 -87.134651 255 255 255
-1493.3192 593.37354 -3.1494138 255 255 255
1468.1577 121.28607 1.3138638 255 255 255
-3874.5134 1678.2097 -4.7664766 255 255 255
-11443.551 4003.134 -11.572836 255 255 255
-114.28818 432.93658 -0.52779722 255 255 255
1365.8958 227.01653 1.0891843 255 255 255
-399.36398 -175.53827 -1.3895228 255 255 255
4015.7097 -270.15109 7.1577487 255 255 255
16121.675 3533.8701 22.803141 255 255 255
-13809.134 4894.7583 -13.658827 255 255 255
9942.5342 4419.7119 13.129886 255 255 255
2697.2612 37.723423 3.8273895 255 255 255
2571.2429 166.81789 3.1699007 255 255 255
265.04504 516.61505 -0.56087178 255 255 255
2776.1589 115.04655 3.7878687 255 255 255
6109.4111 481.3002 7.9713707 255 255 255
1857.9915 177.83168 1.4478695 255 255 255
1175.1073 -31.716614 0.97726023 255 255 255
10830.511 1584.9965 19.5476 255 255 255
2177.603 -319.4299 3.2439091 255 255 255
-15749.969 -2429.5818 -22.631224 255 255 255
-3142.2383 -514.63446 -4.1701465 255 255 255
1570.6835 218.58269 1.230276 255 255 255
945.07013 75.939758 0.98749948 255 255 255
992.23785 44.442722 1.297151 255 255 255
-83.250565 528.03003 -0.37172821 255 255 255
426266.59 -27292.814 724.62445 255 255 255
-2102.9214 4.5910392 -4.7697639 255 255 255
-2491.1816 870.28638 -4.5657558 255 255 255
-15404.337 4579.7935 -17.182169 255 255 255
-81.768265 557.88477 -0.38401762 255 255 255
-6.4048758 269.58575 -0.61305124 255 255 255
1151.5787 86.220932 1.1446229 255 255 255
703.76331 -17.363949 0.93784583 255 255 255
-93.403687 534.09229 -0.37247121 255 255 255
-80.485336 542.72125 -0.37840265 255 255 255
1771.6975 221.86642 1.325421 255 255 255
1848.1705 7.9321318 1.7777296 255 255 255
16389.746 -3934.3171 19.051495 255 255 255
1376.2427 -72.608139 1.7058184 255 255 255
-630.935 -422.883 -1.758513 255 255 255
138.73868 279.18866 -0.24816643 255 255 255
105.3145 585.49823 -0.47262982 255 255 255
-2533.689 1062.8788 -3.941092 255 255 255
1615.2422 246.90715 1.2080699 255 255 255
1791.3469 48.885994 1.6509224 255 255 255
18655.406 -4254.9409 17.204237 255 255 255
1053.1562 349.73492 0.647003 255 255 255
-1963.8699 -739.26343 -5.0487509 255 255 255
-7134.4365 2775.1379 -7.552196 255 255 255
587.56525 20.844561 0.72655571 255 255 255
-1788.8527 -89.296669 -4.4733558 255 255 255
1535.0673 -34.341969 1.6985618 255 255 255
-74.825104 335.37949 -0.50369507 255 255 255
-33.814816 586.89575 -0.40892774 255 255 255
35.068611 603.91931 -0.44122937 255 255 255
1007.1964 -186.99506 1.0009308 255 255 255
2759.9778 34.06464 2.0010095 255 255 255
-3932.1741 -1042.0201 -8.8273582 255 255 255
2063.3657 -74.464211 2.4411976 255 255 255
1369.996 289.49234 1.6201646 255 255 255
2276.137 99.245811 2.5265048 255 255 255
3749.4126 565.88629 5.6034036 255 255 255
1308.7018 -123.34603 1.8381411 255 255 255
-894.60284 -445.27182 -2.484441 255 255 255
1797.6143 637.04474 2.0375326 255 255 255
21.585461 411.25006 -0.25335824 255 255 255
878.03564 3.8637917 1.0727779 255 255 255
2959.9819 -561.3476 5.022788 255 255 255
1102.7939 -14.07536 1.3204449 255 255 255
1464.6981 290.9028 1.0017073 255 255 255
1478.9164 -154.32298 1.7375169 255 255 255
804.48914 11.156225 1.0505494 255 255 255
2065.2856 165.10667 2.0704968 255 255 255
1146.3927 -263.14175 0.85522115 255 255 255
3625.4429 -630.95575 2.6217995 255 255 255
-102.60985 348.50803 -0.46134597 255 255 255
1096.5762 52.395519 1.1618804 255 255 255
2453.8149 27.101448 2.3373768 255 255 255
21210.443 -5289.6143 20.750616 255 255 255
11391.977 -2642.5525 21.767492 255 255 255
-2.5950775 282.30789 -0.73063946 255 255 255
160.1649 592.07867 -0.50012791 255 255 255
-29.948114 582.89905 -0.40881261 255 255 255
25.274267 489.45972 -0.28286943 255 255 255
-80.664383 479.90567 -0.33873215 255 255 255
1531.8508 204.44072 1.2260802 255 255 255
-1321.1205 -145.51842 -3.6663623 255 255 255
1200.557 244.40103 0.95581549 255 255 255
-81.966248 489.91446 -0.4146426 255 255 255
1573.2751 127.23621 1.3698815 255 255 255
24122.121 6128.1704 49.01284 255 255 255
243.23462 497.80801 -0.54529059 255 255 255
-681.32269 -6.0157409 -1.7345666 255 255 255
1889.108 196.11009 1.4257323 255 255 255
2458.4431 -465.49677 4.3101707 255 255 255
174.45741 574.52448 -0.50897729 255 255 255
1827.9022 -147.19151 2.2511671 255 255 255
1158.7422 70.768547 1.175782 255 255 255
-12402.547 4440.4097 -12.353157 255 255 255
3606.3477 -197.59625 2.7758138 255 255 255
1058.2378 90.256607 1.0600932 255 255 255
1817.772 200.6637 2.2581294 255 255 255
-1200.2012 724.75189 -2.3282416 255 255 255
416.72086 -164.0177 0.52945125 255 255 255
620.47272 405.1416 -0.13049385 255 255 255
1612.1412 98.89959 1.4433124 255 255 255
11732.98 -2459.4609 14.247046 255 255 255
1635.1193 237.03819 1.2349038 255 255 255
1577.9939 113.01047 1.3973535 255 255 255
-3534.8254 -28.829237 -3.633579 255 255 255
2529.1045 -14.906616 2.1420205 255 255 255
1188.0337 26.942324 1.2932278 255 255 255
1.4474237 321.68445 -0.6857875 255 255 255
-1204.8799 -82.615837 -3.0127037 255 255 255
-988.72424 193.55006 -2.0667403 255 255 255
1196.5399 79.514656 1.192129 255 255 255
-3479.5208 1346.307 -4.9399972 255 255 255
-62.615726 488.29013 -0.33980906 255 255 255
1207348.1 -371992.28 1116.7681 255 255 255
-30553.477 7864.2471 -41.528339 255 255 255
-1685.4475 -549.6759 -3.4588165 255 255 255
-95.868744 385.17352 -0.51317054 255 255 255
1440.631 132.61301 1.2749707 255 255 255
1376.8971 -154.72548 1.4333094 255 255 255
2010.4249 135.02589 1.6006231 255 255 255
251.60344 491.46872 -0.54355294 255 255 255
2534.3804 -687.20251 2.33478 255 255 255
-6400.5776 2541.7666 -6.8950038 255 255 255
1537.4832 151.76257 1.784952 255 255 255
6245.7798 276.95914 9.2587633 255 255 255
984.8476 -284.23996 1.1266505 255 255 255
-7374.5327 2876.7339 -7.7520356 255 255 255
-374.99246 -249.33055 -1.6016572 255 255 255
-8301.1729 3102.4722 -8.6348696 255 255 255
1544.9142 142.22697 1.3274953 255 255 255
1807.0414 -1.385463 1.7761848 255 255 255
924.12268 -126.32005 0.96591663 255 255 255
-1036.4496 571.63824 -2.2697978 255 255 255
1193.5895 111.59833 1.1343091 255 255 255
141.11102 616.4256 -0.48921406 255 255 255
-8304.4824 783.32349 -8.696044 255 255 255
1958.3872 139.99516 1.5636567 255 255 255
-2128.9863 1253.2325 -3.0085645 255 255 255
-118.23373 474.94632 -0.46133944 255 255 255
-63.227684 470.76395 -0.37944639 255 255 255
-6548.4849 2495.5403 -7.1652703 255 255 255
162.36928 590.32428 -0.5012697 255 255 255
-82.844749 517.25781 -0.36643705 255 255 255
-8638.8027 3212.0933 -8.9353418 255 255 255
1892.6893 67.997879 1.6670122 255 255 255
-50347.957 6312.1782 -100.07688 255 255 255
5.1578536 507.78647 -0.32547307 255 255 255
-7018.8052 2763.4478 -7.4320426 255 255 255
1636.2228 142.9715 1.3838165 255 255 255
1379.8606 204.87021 1.1280727 255 255 255
1165.024 -29.015598 1.4133743 255 255 255
-44.492714 223.23936 -0.6281032 255 255 255
-14.46871 397.97412 -0.29968888 255 255 255
1390.4646 24.906637 1.2620348 255 255 255
1166.6697 -92.978073 1.5596296 255 255 255
1904.1805 -14.282145 1.8629405 255 255 255
-2529.8098 755.96722 -4.4934387 255 255 255
-90.522606 439.16183 -0.30161083 255 255 255
1029.86 8.9470758 1.0451618 255 255 255
-119.31042 466.89789 -0.47092065 255 255 255
1322.7294 53.390015 1.3395088 255 255 255
993.1745 260.10464 0.78915763 255 255 255
-2382.9485 -532.29327 -5.0424118 255 255 255
1523.6924 96.436752 1.3924346 255 255 255
-4459.5962 -563.88226 -7.9150891 255 255 255
965.65765 40.962406 1.0730788 255 255 255
1416.5549 168.03987 1.2046763 255 255 255
175.62595 337.08261 -0.63195753 255 255 255
954.59033 -131.57074 1.5454637 255 255 255
1151.9161 62.218121 1.1887044 255 255 255
-8551.5381 -841.79596 -16.136879 255 255 255
1104.8009 55.169754 1.1637977 255 255 255
1788.3663 35.643288 1.6785843 255 255 255
217.27303 513.95618 -0.55340403 255 255 255
154.38612 599.15094 -0.49658659 255 255 255
2188.4441 83.662369 1.7865423 255 255 255
171.55722 474.85895 -0.160354 255 255 255
-111.00019 519.28851 -0.36261675 255 255 255
1436.4032 -156.8573 1.8193934 255 255 255
-14838.379 4622.6157 -15.582522 255 255 255
1920.3921 -114.965 3.4534342 255 255 255
1996.5619 46.605434 1.7594795 255 255 255
1948.1506 -13.641007 1.8852608 255 255 255
1461.1837 22.128504 1.5070522 255 255 255
1365.0349 11.535062 1.4621433 255 255 255
-1815.9276 898.44147 -3.0285859 255 255 255
751.7663 -12.690587 0.98285109 255 255 255
62.821644 373.10959 -0.40838033 255 255 255
-7135.4473 -1802.1902 -8.0983553 255 255 255
944.96344 -137.16411 1.1819798 255 255 255
1388.8993 -10.737651 1.3169519 255 255 255
-3383.9119 913.67786 -5.6132712 255 255 255
-96.681541 481.87369 -0.34357142 255 255 255
-3262.2856 -466.92841 -6.7623982 255 255 255
-12.379887 91.897873 -0.074392781 255 255 255
-1882.8938 920.30908 -3.0980453 255 255 255
1929.5945 -18.329668 1.8894417 255 255 255
1791.7726 120.0625 1.7698871 255 255 255
1349.6525 -33.982952 1.5711572 255 255 255
1448.0331 -131.97247 1.9698586 255 255 255
621.21143 -6.9131846 0.81525218 255 255 255
-879.35614 -220.74043 -2.5254271 255 255 255
1477.1085 217.31569 1.3400655 255 255 255
1489.9635 61.596325 1.9424225 255 255 255
875.50989 10.434133 1.0549582 255 255 255
-1391.345 556.87769 -3.0258796 255 255 255
-160.82469 376.31464 -0.52302945 255 255 255
1200.5681 260.58765 0.93694073 255 255 255
-6332.9014 2502.7842 -6.8591199 255 255 255
3223.6091 -632.78278 5.5507407 255 255 255
3257.0093 -632.54156 5.5877924 255 255 255
-100.23891 533.41766 -0.37090102 255 255 255
2946.1516 230.05113 3.2536199 255 255 255
1568.5021 52.52504 1.5074415 255 255 255
2002.2957 -187.59975 2.5017946 255 255 255
1326.5553 -59.077438 1.3646376 255 255 255
-504.74783 -69.950493 -1.5213366 255 255 255
18.974773 576.94891 -0.42660192 255 255 255
1693.7085 3.8225503 1.7011654 255 255 255
1306.4099 -36.172218 1.5413481 255 255 255
-1370.1851 872.99762 -2.4092789 255 255 255
-15179.605 4512.4521 -16.978251 255 255 255
2866.9099 -535.74426 4.795577 255 255 255
17.69603 576.87335 -0.42609477 255 255 255
-522.33301 -317.45383 -1.710039 255 255 255
-116.0237 295.85983 -0.37895441 255 255 255
1610.8805 -60.368267 1.823162 255 255 255
1561.6057 146.39639 1.3343246 255 255 255
-62.890175 513.01465 -0.36557442 255 255 255
-43407.211 -4536.2163 -46.201916 255 255 255
1026.5066 -142.00658 1.6610422 255 255 255
1632.1403 -166.73207 2.2305048 255 255 255
-724.66986 -166.39418 -2.1983414 255 255 255
1275.2565 64.079018 1.1099237 255 255 255
1451.9762 -225.43567 2.3977227 255 255 255
47.128792 592.00195 -0.44435242 255 255 255
8431.0938 -712.40051 12.221995 255 255 255
-2489.0659 870.513 -4.563334 255 255 255
-3870.0693 1671.6163 -4.7716379 255 255 255
1594.5642 -217.92648 2.2244956 255 255 255
1488.4456 -136.43355 2.0164392 255 255 255
1245.5648 -49.107079 1.536396 255 255 255
1596.3762 235.05989 1.2194376 255 255 255
1868.4004 39.792324 1.7110358 255 255 255
4048.5212 -534.27338 3.6020432 255 255 255
1991.9412 -147.91992 2.3381953 255 255 255
-619.49304 183.09229 -1.835987 255 255 255
-95902.672 -18595.615 -178.83582 255 255 255
1332.719 -31.750814 1.3265253 255 255 255
-116.09313 270.29276 -0.34504884 255 255 255
-76.952805 298.62546 -0.29669693 255 255 255
703.51306 -14.366451 0.93075293 255 255 255
-2090.5398 207.129 -4.8172908 255 255 255
-2336.5872 -46.18951 -2.9856031 255 255 255
1810.2618 -87.465126 2.0271068 255 255 255
1593.0162 -151.88927 2.1440535 255 255 255
-1756.5245 -642.84412 -3.7069039 255 255 255
2352.8394 -87.156342 2.2814336 255 255 255
-1375.0057 271.19 -2.7346497 255 255 255
4575.4697 -21.645325 4.2563295 255 255 255
1569.3267 217.94655 1.2296554 255 255 255
-3936.4624 -1201.5303 -8.3580389 255 255 255
-194.08977 405.74811 -0.54904401 255 255 255
-44251.191 14199.486 -41.784233 255 255 255
-65.967484 439.64386 -0.40222156 255 255 255
-15602.145 4629.6831 -17.40505 255 255 255
2112.2437 455.69519 1.8588467 255 255 255
1484.2572 96.899773 1.3655695 255 255 255
679.75391 5.5899606 0.86044627 255 255 255
1158.9751 -30.994934 1.4148418 255 255 255
1696.4371 -215.26257 2.4923019 255 255 255
-60.691067 384.10587 -0.40212435 255 255 255
629.65308 -83.900108 0.809044 255 255 255
1409.3718 25.206736 1.4101385 255 255 255
1121.4252 300.08289 0.8341164 255 255 255
-962.98962 593.08832 -2.123909 255 255 255
113.80319 471.69321 -0.4510552 255 255 255
1440.0302 -289.83371 2.0501223 255 255 255
527.46753 -34.80862 0.75492084 255 255 255
1447.1 -354.85968 1.8395134 255 255 255
1041.8228 -11.487262 1.2618169 255 255 255
4578.6401 873.45844 5.8996854 255 255 255
1408.8801 116.76286 2.2631509 255 255 255
-108.9201 520.25482 -0.36342633 255 255 255
9396.0977 1022.4932 12.558054 255 255 255
-110.85395 375.03519 -0.40493947 255 255 255
1155.6128 71.524376 1.168136 255 255 255
-1085.5072 -591.90015 -2.3883402 255 255 255
-4748.751 2252.3464 -5.4216371 255 255 255
1874.6851 196.18643 1.4190508 255 255 255
-3836.1191 -822.44269 -5.2896943 255 255 255
1003.0894 53.937538 0.79595149 255 255 255
896.1748 49.951824 0.88939613 255 255 255
1391.1058 38.941406 1.4208683 255 255 255
412.16968 -85.779778 0.42539513 255 255 255
512.35852 -95.269341 0.47141033 255 255 255
1967.1873 -96.009026 3.0963085 255 255 255
264.96182 516.42365 -0.5609085 255 255 255
554.37061 16.928938 1.1566445 255 255 255
1478.2825 -157.43178 1.337943 255 255 255
18.254942 575.55402 -0.42591897 255 255 255
1214.5383 -43.530888 1.494316 255 255 255
1523.5825 42.518105 1.6944391 255 255 255
1946.854 269.83078 1.4051659 255 255 255
-64.607033 508.41309 -0.36195326 255 255 255
1168.472 265.89603 0.91013205 255 255 255
10759.439 -1682.7997 12.237595 255 255 255
1935.4884 -108.96787 1.6190196 255 255 255
-8332.1309 3147.7336 -8.6359854 255 255 255
-1363.9297 867.48254 -2.405333 255 255 255
1103.603 33.008366 1.2246989 255 255 255
4315.0605 -758.82812 6.7419887 255 255 255
1908.9087 -193.73047 2.4918802 255 255 255
-9574.168 -6556.3774 -18.423544 255 255 255
1522.0674 229.51158 1.1827172 255 255 255
1770.653 434.45953 2.4285917 255 255 255
-93.672516 506.91626 -0.35883549 255 255 255
1213.1003 154.70686 1.0790628 255 255 255
1225.9176 291.45941 0.91372442 255 255 255
-5181.8101 2148.5249 -5.8259821 255 255 255
1356.8751 58.359608 1.3531984 255 255 255
1422.1475 80.527 1.8677067 255 255 255
1102.7368 252.17447 0.87884259 255 255 255
1886.7097 34.21349 1.7353723 255 255 255
-56.047043 358.7865 -0.43037316 255 255 255
1114.2152 186.36465 0.96179426 255 255 255
34.559784 603.68848 -0.44089723 255 255 255
1689.7928 59.677147 1.5671537 255 255 255
-9758.3799 3582.7363 -9.9387312 255 255 255
1222.4551 12.002921 1.3535234 255 255 255
1169.5933 109.00377 1.1171011 255 255 255
-110.34546 344.68124 -0.43734214 255 255 255
1524.3629 -97.964706 1.8941925 255 255 255
1412.8213 -396.02673 1.8144712 255 255 255
-5381.2485 2240.3801 -5.9654808 255 255 255
-129.70401 344.96442 -0.39621001 255 255 255
-3869.4771 1675.7103 -4.7636347 255 255 255
-1199.0541 722.55206 -2.3293769 255 255 255
-2676.239 919.17194 -4.8314462 255 255 255
-155.85893 372.68585 -0.35840392 255 255 255
1664.1257 -466.49631 1.9069725 255 255 255
-1026.1306 698.37006 -2.1119201 255 255 255
46.506897 591.74158 -0.44402212 255 255 255
390.23618 472.44559 -0.33958456 255 255 255
1635.2341 -114.02766 2.4937692 255 255 255
2191.0713 -517.26379 1.7929783 255 255 255
812.6933 12.775262 1.1569338 255 255 255
-93.749367 367.45807 -0.48317012 255 255 255
1079.5145 16.473301 1.2251309 255 255 255
1662.0897 -208.27499 2.4418321 255 255 255
2523.3425 -439.77847 4.1478167 255 255 255
2794.9031 -516.94238 4.7000852 255 255 255
1430.5575 108.38685 1.3091921 255 255 255
1368.8091 29.938227 1.4241729 255 255 255
9674.8516 1020.424 8.4518995 255 255 255
2099.6853 391.94534 1.8788428 255 255 255
1476.7982 26.10268 1.5070806 255 255 255
-1526.0795 557.97467 -2.5522265 255 255 255
-6.9704385 138.0932 -0.62772375 255 255 255
1184.4594 98.372307 1.1485252 255 255 255
2792.8389 336.47842 4.2216554 255 255 255
1015.0837 99.586418 1.0080142 255 255 255
1363.9142 23.795052 1.1541107 255 255 255
1468.1777 -49.302254 1.6989832 255 255 255
-383.47769 168.91853 -1.5520526 255 255 255
1316.4514 87.563675 1.271561 255 255 255
1874.902 431.77203 1.6148136 255 255 255
1787.3864 230.58183 1.3058079 255 255 255
3257.7341 1340.7292 5.0113859 255 255 255
-2959.845 318.32959 -3.8179619 255 255 255
1567.4113 397.92987 1.4508365 255 255 255
883.14276 104.74342 0.88402843 255 255 255
-1936.8955 -652.33807 -3.2120717 255 255 255
1893.1304 156.1077 1.5018475 255 255 255
1949.9055 -3.2571039 1.853851 255 255 255
1014.9875 -141.89445 1.6510434 255 255 255
-100.20585 440.58286 -0.30951005 255 255 255
1169.2108 327.29675 0.78694797 255 255 255
68.795837 385.56992 -0.47767028 255 255 255
-1555.5796 -517.81329 -3.7713106 255 255 255
-1486.1411 -86.783737 -2.7097085 255 255 255
-7345.5073 2867.5278 -7.7284837 255 255 255
1461.2714 291.03983 0.99905491 255 255 255
174.62355 574.38385 -0.50903183 255 255 255
-709.21783 35.242836 -1.5255054 255 255 255
-0.55157173 476.65359 -0.28147367 255 255 255
-9575.4551 254.31779 -19.508297 255 255 255
-61.540573 488.32031 -0.3389512 255 255 255
1641.6633 22.876549 1.8119106 255 255 255
-15582.847 4663.2119 -17.133913 255 255 255
1954.6215 190.45441 1.954409 255 255 255
1579.3545 113.62583 1.3982866 255 255 255
1375.6968 204.472 1.1249176 255 255 255
83.403595 604.78711 -0.4472833 255 255 255
-2541.8093 -800.92505 -5.7449851 255 255 255
1042.8409 -345.44559 1.1208067 255 255 255
-962.03253 -157.76408 -2.6033938 255 255 255
1130.4517 331.98358 0.75591731 255 255 255
-21042.137 -2430.9475 -21.748884 255 255 255
-15255.135 -2323.6692 -13.867104 255 255 255
601.85437 46.971317 0.69570678 255 255 255
2496.7776 392.15585 4.3629642 255 255 255
-1025.5488 697.91528 -2.1109788 255 255 255
2396.0637 326.505 2.7165573 255 255 255
251.6335 491.17599 -0.54386961 255 255 255
1546.16 29.653351 1.5477014 255 255 255
-100.79607 341.43326 -0.36830661 255 255 255
2698.0715 324.58551 3.7029219 255 255 255
1886.8654 32.997265 1.7379868 255 255 255
2658.8904 -318.02844 2.4345853 255 255 255
13312.623 1482.5808 16.608025 255 255 255
-2233.1992 1140.2145 -3.2700708 255 255 255
-65.33979 504.93921 -0.35915425 255 255 255
241.9586 66.406784 0.20435277 255 255 255
-100.31412 422.09024 -0.47707355 255 255 255
-783.90717 -108.64294 -3.3735254 255 255 255
442927.41 64957.43 820.13989 255 255 255
1055.9779 108.07466 1.0276848 255 255 255
1044.3877 4.5248752 0.84882408 255 255 255
1426.6332 -14.509667 1.5731032 255 255 255
1.4245806 321.38562 -0.68614519 255 255 255
1299.5426 11.325143 1.7160861 255 255 255
-56.999718 554.53467 -0.38983533 255 255 255
-84.19252 295.7002 -0.25856149 255 255 255
1534.7754 234.35854 1.1843265 255 255 255
1098.9489 52.468525 1.1649947 255 255 255
-47.10677 451.5661 -0.44236618 255 255 255
1195.6763 103.87966 1.1471001 255 255 255
1692.6117 3.2482531 1.7009118 255 255 255
1477.4849 94.178589 1.3645145 255 255 255
876.63245 3.7331789 1.0709696 255 255 255
1462.7008 213.04538 1.1689841 255 255 255
-9377.8311 -2757.8105 -16.619886 255 255 255
-1561.236 -397.30017 -3.4684558 255 255 255
-65.50386 482.52872 -0.33428472 255 255 255
1185.6584 9.7490826 1.3289578 255 255 255
1051.6163 330.95822 0.72223067 255 255 255
1721.8315 127.52254 1.4589932 255 255 255
1525.4587 42.982128 1.502978 255 255 255
2287.9983 -407.76151 1.6660864 255 255 255
-1817.6017 897.64423 -3.0323703 255 255 255
983.44507 20.285395 1.1317452 255 255 255
1852.3176 -190.86195 2.2397122 255 255 255
1422.776 0.11873652 1.5346228 255 255 255
849.51172 -88.062485 0.95752966 255 255 255
-87.625832 516.6875 -0.36563671 255 255 255
1507.7253 92.553009 1.3896248 255 255 255
927.56573 184.0715 1.1122139 255 255 255
182.91029 560.74463 -0.51533097 255 255 255
-6368.2944 2530.6316 -6.868423 255 255 255
191.00432 429.31293 -0.45811993 255 255 255
1565.6406 53.058186 1.505615 255 255 255
-92.477432 478.32166 -0.34040925 255 255 255
1577.5197 189.86975 1.2754189 255 255 255
1042.7291 -11.70326 1.2637057 255 255 255
1849.0024 7.4829721 1.7792534 255 255 255
-1197.2163 723.24304 -2.3260794 255 255 255
-83.366447 550.72211 -0.38113129 255 255 255
243.14815 497.45178 -0.54533553 255 255 255
1348.8519 301.1694 0.95565504 255 255 255
4543.3735 2066.8289 4.7190757 255 255 255
-76.636147 409.73059 -0.3535552 255 255 255
1173.7406 92.323288 1.1503443 255 255 255
1025.0936 145.37314 0.9467113 255 255 255
1560.2898 220.27962 1.2210221 255 255 255
1681.9399 3.5626659 1.6932991 255 255 255
-103.07079 440.03757 -0.31108364 255 255 255
-93.209801 534.04486 -0.37257588 255 255 255
21.157637 122.80057 -0.78010213 255 255 255
-1253.776 -642.30768 -3.0576067 255 255 255
2752.3523 -390.08701 4.5269094 255 255 255
-1925.8966 -1388.7402 -5.2923794 255 255 255
7231.2134 1424.1017 14.630316 255 255 255
-81.808495 518.08496 -0.3670778 255 255 255
-6751.2681 1098.2542 -14.505011 255 255 255
1848.0916 -249.48543 2.7345433 255 255 255
-477.99677 -209.87486 -1.6935496 255 255 255
1336.4495 51.264896 0.96888274 255 255 255
-2011.6682 -445.27606 -3.7238321 255 255 255
1697.8641 -85.498589 1.960812 255 255 255
-41.975452 408.7348 -0.28356352 255 255 255
1564.98 213.01474 1.234569 255 255 255
154.338 598.80963 -0.49670872 255 255 255
1529.2726 204.87419 1.2245883 255 255 255
1527.9993 96.159554 1.398078 255 255 255
-518.92932 -112.77775 -1.8646028 255 255 255
1888.2764 195.64037 1.4270931 255 255 255
1163.1927 -28.772825 1.4114846 255 255 255
-65.303139 417.24677 -0.47830588 255 255 255
-65.163567 388.18341 -0.33844337 255 255 255
6448.7666 1374.1982 5.8591361 255 255 255
17.691458 576.64215 -0.4259463 255 255 255
1635.7856 -80.968475 2.2096128 255 255 255
1143.7334 -289.15366 0.91273934 255 255 255
-95.112907 535.76709 -0.37303847 255 255 255
-166.61028 347.84973 -0.4062084 255 255 255
1918.7839 698.61749 2.1738331 255 255 255
1421.8931 138.13618 1.2535568 255 255 255
1637.228 236.85777 1.2371633 255 255 255
-5276.7871 1856.7496 -6.8187518 255 255 255
-1252.9916 -654.2439 -3.4856122 255 255 255
47.920498 184.75148 -0.84458983 255 255 255
1573.4202 268.45068 1.1339259 255 255 255
1415.4946 167.70021 1.204531 255 255 255
639.19763 25.253944 0.77692199 255 255 255
-1616.3328 919.1499 -2.6926641 255 255 255
1478.7323 249.13905 1.1319866 255 255 255
1203.2611 244.53101 0.95874727 255 255 255
1334.7633 -249.27605 1.0065058 255 255 255
1152.4786 23.18029 1.2702612 255 255 255
2599.4709 -460.55151 4.2601962 255 255 255
7599.1494 2295.1353 16.427378 255 255 255
-666.05237 100.70618 -1.6428424 255 255 255
1212.1008 113.14923 1.1430033 255 255 255
1029.0129 -9.5324678 1.0228269 255 255 255
1237.2502 57.971245 1.2632066 255 255 255
-3.1544757 509.83682 -0.33473817 255 255 255
1250.2207 265.29904 0.96523565 255 255 255
1992.726 -265.3746 2.8770993 255 255 255
1572.6122 127.22378 1.3709928 255 255 255
970.82117 88.958534 0.98726374 255 255 255
1556.3348 -75.085655 1.8381803 255 255 255
-1618.1212 922.23578 -2.6908209 255 255 255
-245.45006 173.82816 -0.72581482 255 255 255
2306.2014 295.69107 2.8325763 255 255 255
284.30341 459.0827 -0.05913759 255 255 255
-11470.892 -2545.3115 -24.058279 255 255 255
1260.0912 811.81897 2.5011172 255 255 255
1342.3074 -110.86454 1.8175062 255 255 255
1264.9464 105.15128 1.2021894 255 255 255
2478.7124 -452.23193 4.2035317 255 255 255
-1023.8052 695.45459 -2.1125948 255 255 255
-71.089935 438.43323 -0.28615701 255 255 255
1600.12 51.001595 1.5336822 255 255 255
1477.6384 25.456495 1.5085225 255 255 255
-434.34695 -72.242432 -1.4557092 255 255 255
-8308.0479 3105.4978 -8.637743 255 255 255
1081.5186 172.11722 0.91179681 255 255 255
3933.3401 567.50073 3.4170954 255 255 255
813.02136 115.15018 0.80619329 255 255 255
1420.3295 267.0972 1.0700628 255 255 255
2794.051 -516.59882 4.6989989 255 255 255
1057.3888 89.567741 1.0602983 255 255 255
-135.85971 459.81976 -0.38276306 255 255 255
1323.9276 254.15207 1.3365141 255 255 255
-1743.097 39.906101 -2.7174144 255 255 255
1793.796 -86.520523 2.0159619 255 255 255
3392.9375 -688.52142 6.0680981 255 255 255
-1544.338 -11.10321 -3.9219251 255 255 255
1582.1866 100.14688 1.5254306 255 255 255
1612.6173 -60.349411 1.8266236 255 255 255
-1134.6324 310.91571 -3.0161035 255 255 255
587.36615 20.183025 0.72660875 255 255 255
3429.9199 1824.6573 7.8391705 255 255 255
1054.6427 -77.620346 0.92558128 255 255 255
634.1499 401.33838 -0.11836715 255 255 255
-1386.8083 327.56796 -3.6180089 255 255 255
639.78839 20.826126 0.78602022 255 255 255
-63.835194 484.91241 -0.39817345 255 255 255
-2103.1921 473.18567 -3.7553523 255 255 255
-162.42305 281.62659 -0.34061298 255 255 255
1251.4377 117.72462 1.1669673 255 255 255
-1365.1168 868.75793 -2.4072704 255 255 255
1177.5548 -84.459412 1.2361399 255 255 255
-164.33638 277.58032 -0.34425491 255 255 255
955.86853 -131.76857 1.5481638 255 255 255
1011.9095 -150.34474 1.0972953 255 255 255
1320.6064 51.764561 1.3353565 255 255 255
1355.2251 105.25986 1.2635523 255 255 255
-77.074005 347.8746 -0.3035287 255 255 255
-4011.812 -1329.2052 -9.3565245 255 255 255
1669.7993 164.69086 1.3676661 255 255 255
741.15863 -11.049593 0.96573615 255 255 255
2186.2795 -243.83253 1.938201 255 255 255
-75.71624 507.32047 -0.36133379 255 255 255
-9906.1035 3632.092 -10.078793 255 255 255
-14741.733 4403.8159 -16.516243 255 255 255
-103.2466 421.4389 -0.46903142 255 255 255
-1570.2004 679.49792 -3.0628295 255 255 255
1399.6119 171.20998 1.5631527 255 255 255
1197.4974 80.063995 1.1926218 255 255 255
3075.1243 -465.3786 4.2118359 255 255 255
1282.7684 289.93985 1.7953026 255 255 255
1122.7874 167.25713 0.99332237 255 255 255
1434.9827 -25.7164 1.6077131 255 255 255
31.847645 418.87552 -0.29816842 255 255 255
1538.8467 142.51884 1.3221655 255 255 255
-365.72449 129.41606 -1.31905 255 255 255
-913.7146 621.02612 -2.0255828 255 255 255
-5374.2803 2236.407 -5.9646392 255 255 255
-3231.6812 -536.79639 -6.6488271 255 255 255
-81.466721 557.8913 -0.38409173 255 255 255
2008.0781 -187.66087 2.5097623 255 255 255
3597.7454 237.01994 7.0543156 255 255 255
-56.310024 413.97455 -0.5927124 255 255 255
-7091.3735 2730.8433 -7.4858861 255 255 255
1380.3674 -204.95872 2.2458596 255 255 255
1689.6553 59.533211 1.5674131 255 255 255
-6274.3667 2481.8992 -6.8069882 255 255 255
1059.0753 -139.68367 0.93160766 255 255 255
-7442.0815 2905.6499 -7.8377209 255 255 255
2333.7178 -236.46925 2.9610903 255 255 255
703.19775 -17.33742 0.9372741 255 255 255
-72.445419 511.23895 -0.36429057 255 255 255
2811.0447 -697.01099 2.6404014 255 255 255
-2361.2136 191.9451 -5.6561913 255 255 255
1393.9878 -340.33789 1.0681909 255 255 255
