ply
format ascii 1.0
comment PCL generated
element vertex 1088
property float x
property float y
property float z
property uchar red
property uchar green
property uchar blue
element face 0
element camera 0
property float view_px
property float view_py
property float view_pz
property float x_axisx
property float x_axisy
property float x_axisz
property float y_axisx
property float y_axisy
property float y_axisz
property float z_axisx
property float z_axisy
property float z_axisz
property float focal
property float scalex
property float scaley
property float centerx
property float centery
property int viewportx
property int viewporty
property float k1
property float k2
end_header
-167.57748 1843.7712 1.904502 255 255 255
-1865.6307 -6800.4062 -8.1181879 255 255 255
468.32138 63.5042 -0.49015114 255 255 255
5082.8066 16894.961 13.84202 255 255 255
-891.92914 -2106.3015 -3.1092 255 255 255
2951.5042 6155.8774 5.8494453 255 255 255
217.12891 -130.02625 -0.27991301 255 255 255
360.77585 -1157.5266 -3.1164567 255 255 255
463.76932 1430.2826 1.5520362 255 255 255
642.22363 1805.1893 1.6257235 255 255 255
201.61757 -514.58813 -2.0137103 255 255 255
437.63739 -279.57632 -0.36978322 255 255 255
-14282.011 -62410.543 -67.040756 255 255 255
4147.0513 12461.749 10.19214 255 255 255
329.9744 1094.1395 0.95527363 255 255 255
351.20184 -144.15636 -0.3485952 255 255 255
181.7892 40.665852 -0.82938832 255 255 255
-3341.769 -9299.4727 -9.5893307 255 255 255
-96.564217 -133.0834 -1.1715249 255 255 255
-3788.0911 -5218.7202 -7.0651526 255 255 255
-3520.2571 -5825.9141 -6.8735919 255 255 255
349.79166 1657.975 1.8601995 255 255 255
3525.4011 7117.3809 5.5287843 255 255 255
362.61536 30.277241 -0.62916309 255 255 255
389.37726 30.675972 -0.64924651 255 255 255
-4118.7544 -20233.77 -21.30838 255 255 255
428.3815 -91.63398 -0.4027409 255 255 255
236.64417 -64.524521 -0.81334728 255 255 255
53.518173 316.95746 0.61159313 255 255 255
298.07669 -1082.5549 -3.1755567 255 255 255
1154.9597 3451.7861 4.8768353 255 255 255
365.04111 -130.26515 -0.3657946 255 255 255
-2383.9746 -8978.5693 -9.8639736 255 255 255
-15141.579 -27196.654 -30.303459 255 255 255
2331.2107 4106.0635 5.9650426 255 255 255
-448.28918 2734.5618 3.1885805 255 255 255
980.5224 2223.2188 1.9732207 255 255 255
405.1777 -136.77927 -0.37741274 255 255 255
-617.45441 -1165.2104 -2.4709034 255 255 255
-427.24588 1184.6152 1.5760922 255 255 255
346.75598 1339.1893 1.5371206 255 255 255
276.7637 1637.8711 1.5345958 255 255 255
-6425.5039 -17477.865 -17.679399 255 255 255
161.48837 676.33618 1.0386285 255 255 255
1180.6489 2404.1345 2.4708872 255 255 255
155.29942 -480.28458 -1.787641 255 255 255
1478.3722 2286.7532 2.9585731 255 255 255
1262.3856 5829.6401 4.6185193 255 255 255
312.73209 1539.6387 1.8877805 255 255 255
14903.212 26827.812 28.451483 255 255 255
-117.94067 -380.20544 -1.3368635 255 255 255
-5856.1401 -11757.706 -11.481064 255 255 255
2462.3335 4248.1455 5.7480903 255 255 255
195.74873 1228.9843 1.7538228 255 255 255
339.75595 -23.108467 -0.63536686 255 255 255
182.24927 -314.00879 -1.448786 255 255 255
351.43726 -1140.0115 -3.1065171 255 255 255
95.734985 862.0625 1.5451765 255 255 255
871.19318 1780.1809 1.5271623 255 255 255
25401.996 59668.719 73.522865 255 255 255
153.91902 -27.708115 -0.86998534 255 255 255
303.00729 -188.35791 -0.31810841 255 255 255
-3518.6238 -10671.927 -17.340179 255 255 255
340.99091 -173.45428 -0.33894324 255 255 255
141.17958 -456.89209 -1.8311397 255 255 255
345.38272 -155.14767 -0.34325957 255 255 255
7.462965 502.51294 0.46567759 255 255 255
277.06122 660.18359 0.63398427 255 255 255
-38821.711 -68512.188 -78.595093 255 255 255
1016.4024 3330.1216 2.6373415 255 255 255
226.32587 690.86694 0.65349597 255 255 255
-465.18246 -951.8822 -2.0801582 255 255 255
-2005.6732 -5434.5776 -5.3936543 255 255 255
1310.6815 3731.6072 5.1252527 255 255 255
400.85352 -135.66866 -0.29144976 255 255 255
353.97784 -163.33797 -0.53340507 255 255 255
-1597.6672 -4121.1187 -4.6538162 255 255 255
334.67068 968.24976 0.93398583 255 255 255
118.61474 478.65775 0.79368454 255 255 255
427.91656 -147.44098 -0.38318455 255 255 255
-1196.0524 -2441.9067 -3.5963147 255 255 255
119.63093 599.56622 0.61324179 255 255 255
-12148.472 -27735.916 -28.090048 255 255 255
173.03447 836.71558 1.2602614 255 255 255
128.00081 -93.817741 -0.11588123 255 255 255
428.70175 -166.34431 -0.37856168 255 255 255
-2072.3594 -5915.2856 -6.4211679 255 255 255
294.89725 -19.149199 -0.73954135 255 255 255
912.85522 3211.1121 4.874845 255 255 255
215.0406 935.17438 0.98958361 255 255 255
241.83995 -910.29773 -3.0426557 255 255 255
-4525.1133 -10149.681 -10.382233 255 255 255
98.703568 1405.7449 2.3757939 255 255 255
753.34052 1654.7784 1.673926 255 255 255
402.50821 1103.8784 1.4280196 255 255 255
478.43951 1480.5107 1.4579422 255 255 255
410.46301 -211.72807 -0.36403787 255 255 255
-510.54449 -1478.4716 -2.2297988 255 255 255
-4400.9912 -9749.0186 -10.799997 255 255 255
2985.3604 5889.6196 4.4285579 255 255 255
-1083.9078 -3056.9744 -3.7835577 255 255 255
246.70821 1522.4091 1.9628677 255 255 255
57.813084 319.76938 0.60953933 255 255 255
232.80238 1189.6558 1.601948 255 255 255
-147.88831 2889.4683 3.3063831 255 255 255
-76.884972 -184.23662 -1.1601568 255 255 255
-3383.5103 -9530.4619 -9.733716 255 255 255
16858.906 33361.18 38.618473 255 255 255
467.59064 887.37732 0.79399174 255 255 255
970.79559 1852.7681 1.6687409 255 255 255
157.99673 -25.920424 -0.46952227 255 255 255
861.69604 2152.4377 2.0422096 255 255 255
-123.60602 1090.0962 1.1469266 255 255 255
258.87625 1092.0701 1.4175929 255 255 255
3299.4463 10539.243 8.6507339 255 255 255
112.60613 870.64996 0.8556174 255 255 255
-836.11218 -1946.3683 -2.6753776 255 255 255
426.87091 16.934456 -0.35040629 255 255 255
106.67564 -28.687328 -0.38613772 255 255 255
100.16956 1393.1844 2.3531535 255 255 255
314.96024 1038.6978 0.90957201 255 255 255
509.31943 2179.6956 2.8234336 255 255 255
338.13184 1669.4592 1.8949507 255 255 255
278.43573 970.33502 1.1027596 255 255 255
566.88391 1437.3822 1.4956155 255 255 255
940.16229 5405.0879 4.2146983 255 255 255
162.35606 -16.387438 -0.87277788 255 255 255
-876.98138 -1318.7002 -2.7357209 255 255 255
490.22098 -882.84943 -2.2828805 255 255 255
344.996 -163.37769 -0.34206095 255 255 255
396.82581 35.843933 -0.62062234 255 255 255
-333.87216 -678.92102 -1.7736479 255 255 255
520.69495 958.01343 0.98335958 255 255 255
207.75098 559.69427 0.57858384 255 255 255
-749.26422 -1700.4348 -2.7193875 255 255 255
389.33264 1705.3191 1.4453536 255 255 255
-17811.928 -52550.383 -49.815334 255 255 255
529.70123 1826.6475 1.8651708 255 255 255
562.6532 -196.32449 -0.39644074 255 255 255
1584.5255 3045.614 3.6885395 255 255 255
468.10675 62.356766 -0.48957762 255 255 255
144.90762 -16.682453 -0.87795305 255 255 255
-646.33679 -2132.334 -2.868475 255 255 255
96.670158 826.19397 1.478809 255 255 255
-7646.9438 -12100.907 -12.751384 255 255 255
-407.35236 -961.86871 -2.1269546 255 255 255
272.92331 14.17295 -0.76848859 255 255 255
462.53464 -207.20755 -0.45142609 255 255 255
252.13992 886.22858 0.72665566 255 255 255
270.86438 1044.9803 1.1586283 255 255 255
361.65164 206.67014 -0.50578016 255 255 255
496.8277 -269.50031 -0.402033 255 255 255
117.37821 1143.5433 1.9112843 255 255 255
-1213.9949 -3029.4712 -3.8941596 255 255 255
607.75067 -315.48019 -0.43278199 255 255 255
-5200.7217 -16046.749 -15.285142 255 255 255
-4015.011 -8701.9883 -11.320594 255 255 255
362.84924 -202.10487 -0.49067357 255 255 255
291.41119 1050.6031 1.3038399 255 255 255
-6889.1899 -17623.23 -17.636833 255 255 255
183.80713 1102.0325 1.0204339 255 255 255
504.68399 -879.52753 -2.2627814 255 255 255
397.2811 50.662048 -0.67796522 255 255 255
4252.5718 13186.931 10.955615 255 255 255
535.85944 82.490326 -0.5118193 255 255 255
443.11975 -58.29081 -0.42239466 255 255 255
87.488052 558.87 0.54981971 255 255 255
428.31808 -155.49443 -0.38114083 255 255 255
-4839.938 -17969.781 -18.685953 255 255 255
2825.0596 6473.4463 8.5916176 255 255 255
30641.701 94581.383 72.218971 255 255 255
-465.56876 -1327.3951 -2.1250093 255 255 255
-2917.7744 -7947.5205 -8.3379936 255 255 255
-962.74133 1566.0697 2.5445237 255 255 255
2683.9128 11243.432 10.745393 255 255 255
467.23175 1771.174 2.3604169 255 255 255
175.04605 667.74854 0.99651009 255 255 255
505.02664 -895.71783 -2.2875812 255 255 255
-1932.9357 -4726.1914 -6.1827002 255 255 255
163.99078 2124.9614 2.9167426 255 255 255
227.05949 876.55554 1.1987805 255 255 255
-555.76703 -1424.4175 -2.6687245 255 255 255
1001.8502 2191.3853 1.8626785 255 255 255
373.88586 153.87787 -0.56196296 255 255 255
909.90485 -5441.6445 -10.907937 255 255 255
425.08578 71.183334 -0.28892502 255 255 255
213.97084 -532.17938 -2.0291247 255 255 255
-5254.5791 -11186.596 -11.042909 255 255 255
358.67844 913.78815 1.0704968 255 255 255
217.11134 -129.99316 -0.27983856 255 255 255
564.78101 -121.61288 -0.53419322 255 255 255
-3068.6101 -6971.0029 -7.0676312 255 255 255
224.8293 1427.4275 1.9181556 255 255 255
-2069.623 -6078.1748 -6.0734878 255 255 255
440.9249 80.221909 -0.5001992 255 255 255
201.80145 -514.27698 -2.0134442 255 255 255
735.68689 2417.209 1.962813 255 255 255
95.6633 860.68738 1.5427237 255 255 255
468.28244 63.468449 -0.49010497 255 255 255
290.86108 1052.2798 1.3067178 255 255 255
1110.1096 2750.4553 3.0123065 255 255 255
502.45795 -886.66589 -2.2768774 255 255 255
-3806.1562 -7200.1035 -9.6085939 255 255 255
-1613.5481 -2470.7959 -3.6991742 255 255 255
468.07449 62.333099 -0.48959419 255 255 255
706.12347 2647.7964 2.038801 255 255 255
227.24895 1239.3864 1.0952386 255 255 255
28.320934 311.16269 0.6509487 255 255 255
55.290359 316.68811 0.607494 255 255 255
138.98611 -35.205647 -0.85901904 255 255 255
293.54553 -77.123657 -0.74993253 255 255 255
6212.8867 8236.6152 8.2834311 255 255 255
722.77649 1880.223 1.7903897 255 255 255
-1169.8496 -3188.2974 -3.5719259 255 255 255
96.490997 382.22421 0.6596356 255 255 255
-195.21133 992.64648 1.2593106 255 255 255
444.05103 -57.069626 -0.42338234 255 255 255
444.03134 -56.644936 -0.42357582 255 255 255
-966.15894 -2275.3528 -3.2752681 255 255 255
-148.02728 -348.28506 -1.3282883 255 255 255
5050.833 8704.6924 9.3760796 255 255 255
574.47369 -316.8222 -0.42486233 255 255 255
279.1449 -192.14453 -0.30523789 255 255 255
-1389.4567 2277.5251 4.1491652 255 255 255
6137.1265 10728.226 12.075214 255 255 255
365.32306 -163.23164 -0.35281143 255 255 255
409.02698 -212.10387 -0.36346245 255 255 255
594.26306 2434.9934 2.188797 255 255 255
174.83554 -487.61084 -2.0082247 255 255 255
621.99158 1244.1002 1.5162568 255 255 255
565.12372 1000.313 1.0907224 255 255 255
-2845.8401 -3945.0427 -5.9270396 255 255 255
-22876.672 -74392.516 -72.176537 255 255 255
117.11707 1140.3058 1.9050422 255 255 255
-461.47287 -1699.8225 -2.4291935 255 255 255
1530.8568 2925.2212 3.3937993 255 255 255
297.16653 443.41223 -0.21731308 255 255 255
-1873.3929 -5913.8042 -5.7442603 255 255 255
7360.3145 12716.738 13.337159 255 255 255
-858.52783 -1664.7291 -3.2140868 255 255 255
198.09691 1420.6254 1.9923766 255 255 255
-1985.4504 -4034.4224 -5.9162226 255 255 255
-466.34976 -1351.0991 -2.3117328 255 255 255
362.49652 -131.53592 -0.36334047 255 255 255
416.85852 -77.261337 -0.4032571 255 255 255
-6850.7534 -12616.582 -14.426693 255 255 255
370.66968 815.51996 0.8630082 255 255 255
-2597.4155 -6324.6396 -7.2058244 255 255 255
223.24388 -175.23116 -0.26861697 255 255 255
431.59351 -176.31975 -0.37725052 255 255 255
-284.21405 4699.002 9.5720339 255 255 255
151.02873 648.34467 0.64369446 255 255 255
101.28681 833.19836 1.4732352 255 255 255
-2355.001 -6690.5312 -7.1018786 255 255 255
468.02206 -231.68222 -0.4484143 255 255 255
-659.98608 -1532.8336 -2.3958142 255 255 255
347.58444 1219.2036 1.9389733 255 255 255
370.51166 177.38744 -0.5422523 255 255 255
401.28711 49.340378 -0.68600857 255 255 255
153.16354 20.096651 -0.84705079 255 255 255
1241.6897 -6406.2363 -10.64442 255 255 255
232.65451 1190.226 1.6029495 255 255 255
4947.4448 6685.3799 7.1400375 255 255 255
143.68567 3665.0105 4.1240234 255 255 255
335.38428 1179.1949 1.3792068 255 255 255
356.86362 -1148.7598 -3.1075621 255 255 255
504.45758 -878.89679 -2.2616949 255 255 255
-244.63487 3705.6167 8.8014975 255 255 255
396.89249 -213.12192 -0.35914043 255 255 255
261.586 1392.5514 1.1554914 255 255 255
491.33206 -870.43323 -2.2618132 255 255 255
-2342.1897 -5452.4248 -5.7906051 255 255 255
227.37996 1098.7069 1.4967434 255 255 255
-312.67801 4961.416 10.166394 255 255 255
2621.7759 5300.8667 3.9977245 255 255 255
44.872826 102.71507 0.17789295 255 255 255
-4289.6001 -8893.7842 -10.191523 255 255 255
383.28922 53.325523 -0.62750846 255 255 255
338.36798 289.0965 -0.4057481 255 255 255
53.483131 316.81302 0.61137289 255 255 255
-1286.2841 -1445.239 -2.9850428 255 255 255
-778.60376 7101.1064 7.6416898 255 255 255
-309.71158 -1296.1855 -2.8123622 255 255 255
-17064.994 -44121.117 -44.229256 255 255 255
133.12251 3710.3855 4.2034912 255 255 255
278.20779 -66.075241 -0.75969779 255 255 255
1323.6042 2686.0278 2.8216586 255 255 255
407.07596 -101.17525 -0.39013562 255 255 255
726.17285 -2169.5378 -4.0983253 255 255 255
-4152.8848 -13732.642 -14.785282 255 255 255
381.35895 65.76387 -0.64226955 255 255 255
443.00378 -58.296074 -0.42241064 255 255 255
-6268.7007 -9743.1572 -10.722225 255 255 255
-59.871426 -116.14391 -1.1245054 255 255 255
-532.24982 -1492.7708 -2.4101081 255 255 255
798.34943 1852.3561 1.873287 255 255 255
2045.2051 9791.0996 8.2733116 255 255 255
367.19662 1344.4567 1.3519574 255 255 255
351.24872 -1138.2592 -3.102869 255 255 255
176.86134 1095.7189 1.1297783 255 255 255
566.75879 -327.91083 -0.46708784 255 255 255
371.43896 56.879032 -0.6291315 255 255 255
289.79257 2800.0332 2.9801698 255 255 255
-4486.4443 -10710.124 -11.71127 255 255 255
358.18854 -218.40367 -0.34389389 255 255 255
167.68536 -15.18438 -0.86252755 255 255 255
608.78235 1689.5244 1.7501839 255 255 255
305.41599 728.00861 0.66004956 255 255 255
-280.49313 -608.59015 -1.6257219 255 255 255
113.36563 551.79413 0.93796742 255 255 255
344.20685 817.73267 0.86958623 255 255 255
901.82312 2373.248 2.2386134 255 255 255
326.56934 930.96338 0.80367303 255 255 255
-35.116131 4967.5107 5.432322 255 255 255
-4687.9131 -13579.319 -13.780441 255 255 255
-23.846222 -736.6637 -2.730571 255 255 255
-11426.205 -27750.266 -28.194859 255 255 255
-428.86508 -814.65405 -1.9804724 255 255 255
-93.676094 -132.79137 -1.1647806 255 255 255
365.00415 -130.18063 -0.36570445 255 255 255
-1011.9312 1618.5145 2.6340971 255 255 255
-40.590481 4999.9741 5.4877567 255 255 255
588.38776 1116.9216 1.2391386 255 255 255
85.912857 552.94244 0.4484629 255 255 255
-3228.9463 -9475.46 -9.8145828 255 255 255
372.46609 936.13812 0.87938541 255 255 255
345.08832 -163.40224 -0.34210339 255 255 255
-1710.876 -4370.0879 -5.2583809 255 255 255
-267.83255 3924.1619 9.3752441 255 255 255
485.83746 49.16296 -0.48131096 255 255 255
17.518066 1881.5272 1.5554475 255 255 255
400.94336 -135.75053 -0.29149926 255 255 255
486.08148 50.155396 -0.48186594 255 255 255
-4514.9844 -8008.1187 -10.914725 255 255 255
-10615.783 -16204.278 -17.480444 255 255 255
174.22797 -7.0582709 -0.87405723 255 255 255
377.96768 50.973923 -0.61276627 255 255 255
3841.7854 8944.9385 10.557054 255 255 255
66.564316 -190.78551 -1.2766567 255 255 255
-275.7623 6550.0747 7.5322971 255 255 255
12.799116 157.70914 0.31014463 255 255 255
444.80115 863.34711 1.0185072 255 255 255
1490.3615 6095.2334 9.1464682 255 255 255
3780.834 7332.562 20.583164 255 255 255
-1894.5375 -3835.2668 -4.396039 255 255 255
410.42361 -211.67738 -0.36404929 255 255 255
428.81726 -145.10785 -0.38419679 255 255 255
-88.190155 -179.1391 -1.1675636 255 255 255
158.84058 1062.3953 0.9727096 255 255 255
156.48187 631.70184 0.97836965 255 255 255
-56.101822 -508.25992 -1.4001951 255 255 255
2232.6902 3886.2993 4.7303343 255 255 255
-6657.1372 -13620.911 -14.34022 255 255 255
384.26801 1393.4841 1.0898334 255 255 255
480.7016 1576.5723 1.7544255 255 255 255
-219.61255 -368.84387 -1.3408384 255 255 255
823.3045 2340.3845 1.9869661 255 255 255
387.44943 -175.68932 -0.36090961 255 255 255
-81.064735 863.98248 0.97234529 255 255 255
-894.03668 7843.8452 8.5143776 255 255 255
278.55414 903.23102 0.90816307 255 255 255
349.14111 -1135.0117 -3.1032264 255 255 255
806.9306 1864.9376 2.0154808 255 255 255
179.76866 -9.1432781 -0.87053949 255 255 255
460.37918 89.645996 -0.57447737 255 255 255
371.52335 176.38008 -0.54310906 255 255 255
766.89911 1923.7667 1.715578 255 255 255
443.6582 -147.44905 -0.36879501 255 255 255
224.30159 1437.7228 1.9318917 255 255 255
-200780.56 -617834.81 -619.17352 255 255 255
413.5303 85.132713 -0.620143 255 255 255
-795.50177 -1506.978 -2.4224219 255 255 255
-284.00644 6182.6304 8.5048037 255 255 255
-630.09686 -1169.5521 -2.4552934 255 255 255
365.84717 194.97397 -0.51917487 255 255 255
182.7962 21.820841 -0.84799987 255 255 255
367.16119 35.232109 -0.63835621 255 255 255
326.40686 -176.5811 -0.33070686 255 255 255
46.503811 105.598 0.18259729 255 255 255
-941.67554 -2310.0845 -3.1659977 255 255 255
-12258.671 -15949.112 -20.944792 255 255 255
359.99005 -1155.9122 -3.1143606 255 255 255
-50126.18 -84378.773 -99.304001 255 255 255
8890.415 19077.867 21.112164 255 255 255
-5832.1357 -7082.2402 -10.294759 255 255 255
-7159.6299 -26324.547 -39.376457 255 255 255
1961.2759 3621.9739 3.4997332 255 255 255
212.95914 -530.18146 -2.0278165 255 255 255
324.08374 -170.4032 -0.32975417 255 255 255
-731.32544 -975.16296 -2.0327287 255 255 255
175.56602 32.162216 -0.820292 255 255 255
1020.6696 2404.415 2.152513 255 255 255
446.27045 1136.4082 0.97081625 255 255 255
417.59238 55.896202 -0.53535157 255 255 255
383.19885 -153.78772 -0.36330134 255 255 255
802.52588 3102.0713 2.9365408 255 255 255
246.57402 -584.57397 -1.0807099 255 255 255
284.73221 -26.214996 -0.72918314 255 255 255
99.793091 1394.0543 2.3539586 255 255 255
-2808.8066 -4972.3174 -5.4412637 255 255 255
207.03163 1921.9353 2.5310209 255 255 255
8233.623 17566.314 19.356403 255 255 255
455.88223 -128.83342 -0.39771089 255 255 255
438.38596 -138.81599 -0.38926277 255 255 255
422.60257 1383.6097 1.4709692 255 255 255
327.73389 1086.5072 1.2865648 255 255 255
-975.85321 -2619.3789 -3.8325224 255 255 255
7180.7817 10194.859 12.21489 255 255 255
341.30005 -189.16338 -0.31117916 255 255 255
-8540.7236 -16142.282 -18.549223 255 255 255
-728.4408 -1644.9863 -2.6486039 255 255 255
-2926.2683 -9712.9824 -8.8150749 255 255 255
3073.376 8621.7441 7.0129671 255 255 255
-59428.754 -196166.23 -174.41495 255 255 255
318.84616 1206.7256 1.0930717 255 255 255
414.52548 1459.2747 1.5540104 255 255 255
-1282.2113 -2774.741 -3.7881143 255 255 255
-691.65814 -1728.9216 -2.6608803 255 255 255
371.94693 -143.73091 -0.35986939 255 255 255
-539.83069 -1456.9841 -2.3572714 255 255 255
-412.23578 -1448.5822 -2.2649081 255 255 255
390.94098 1233.3617 1.3826715 255 255 255
352.69156 -140.61427 -0.35056821 255 255 255
-4123.7363 -4449.5879 -7.1677785 255 255 255
-42.230007 3815.9644 5.5714273 255 255 255
3190.0283 14260.904 16.817339 255 255 255
-576.32202 -2215.0305 -2.875334 255 255 255
52.138287 2806.8069 4.1694579 255 255 255
317.11603 1100.5833 1.0616497 255 255 255
715.09186 2267.2261 2.1291585 255 255 255
422.9386 161.7585 -0.54598796 255 255 255
592.83209 -3.4157817 -0.57789612 255 255 255
-1284.2485 -5072.8662 -5.2691245 255 255 255
-59295.34 -144467.41 -122.68357 255 255 255
-29.596115 3765.02 5.4222894 255 255 255
26976.465 80517.859 87.144043 255 255 255
419.42361 -127.7197 -0.41274503 255 255 255
297.78946 -192.36755 -0.3156046 255 255 255
509.66098 1111.8905 1.2130013 255 255 255
-19025.9 -58934.605 -52.186817 255 255 255
410.51279 -165.75298 -0.50901693 255 255 255
431.37662 -122.82825 -0.3920123 255 255 255
489.24716 963.41315 1.0667025 255 255 255
24926.809 44493.082 48.603172 255 255 255
632.78101 -369.8989 -0.48581606 255 255 255
562.67157 1876.1436 2.2749159 255 255 255
151.38008 839.2865 0.74861103 255 255 255
205.40869 2741.4199 3.276078 255 255 255
857.28223 2027.6033 2.0251336 255 255 255
447.47104 1536.8462 2.3373334 255 255 255
202.8763 898.3653 0.9240905 255 255 255
797.58575 1333.4967 1.4091035 255 255 255
210.71828 972.19421 1.3662186 255 255 255
153.89073 -26.265945 -0.86092353 255 255 255
-64.357353 -119.03989 -1.131071 255 255 255
553.26886 956.55048 1.053241 255 255 255
675.34094 1730.782 2.2994175 255 255 255
348.68829 -175.75174 -0.44684395 255 255 255
26.644386 -229.27338 -1.2828921 255 255 255
-589.35999 -2138.4121 -2.8603787 255 255 255
1587.553 3274.5071 3.5794265 255 255 255
333.97693 1983.7733 1.6728345 255 255 255
6819.5342 22302.654 17.941479 255 255 255
-14.864522 176.61635 0.42642176 255 255 255
393.3443 -147.84926 -0.36931944 255 255 255
79.285454 642.30347 0.75029612 255 255 255
311.16043 949.22809 0.91285354 255 255 255
-3955.0117 -13842.257 -19.633801 255 255 255
-685.35095 -1808.9354 -2.7025821 255 255 255
-1861.228 -3959.3521 -4.9192467 255 255 255
261.69122 1837.8842 2.2607682 255 255 255
383.96609 164.79747 -0.53309566 255 255 255
10170.787 17646.639 19.17487 255 255 255
3382.762 6429.0127 6.5217323 255 255 255
563.03729 -291.22653 -0.4583557 255 255 255
283.50485 -43.980759 -0.25152206 255 255 255
980.74945 3285.24 3.2663786 255 255 255
-15231.007 -34325.609 -36.430286 255 255 255
-408.62958 -946.63959 -2.0947473 255 255 255
308.7471 771.93799 0.70589304 255 255 255
-38747.457 -106234.46 -97.364761 255 255 255
414.16809 33.868061 -0.66349685 255 255 255
351.20493 -144.15498 -0.34862503 255 255 255
4207.8169 47146.418 78.571556 255 255 255
370.84433 926.32355 0.88002682 255 255 255
2458.9968 4346.7915 5.3394594 255 255 255
142.51407 -36.042381 -0.85164976 255 255 255
-512.4425 -1973.405 -2.849267 255 255 255
2731.1865 7694.291 11.389147 255 255 255
263.69781 35.426033 -0.45487776 255 255 255
476.77838 -35.369686 -0.58474404 255 255 255
1633.191 5039.979 5.3536639 255 255 255
204.93927 96.416885 -0.74859464 255 255 255
33.901718 -225.34714 -1.2796359 255 255 255
428.46359 -91.60601 -0.40279824 255 255 255
531.23352 1558.7654 1.2281101 255 255 255
-463.85794 -1410.0664 -2.2936566 255 255 255
-688.6698 -1442.1798 -2.6032197 255 255 255
-877.47052 -1361.4104 -2.630666 255 255 255
-437.96918 -1577.9144 -2.3586001 255 255 255
25.872873 457.26749 0.57327873 255 255 255
380.71597 1064.5375 1.30177 255 255 255
5388.354 14476.173 12.840349 255 255 255
426.58221 -139.96875 -0.38487428 255 255 255
6108.728 18090.012 15.534482 255 255 255
-6625.4185 -11346.379 -11.541378 255 255 255
787.19928 3057.1934 2.3667078 255 255 255
74514.852 139393.53 151.28185 255 255 255
-2474.5652 -6931.731 -6.6550102 255 255 255
-59.005638 -182.15923 -1.1654897 255 255 255
-596.70654 -1145.5454 -2.4237535 255 255 255
-15061.213 -46601.426 -39.978474 255 255 255
333.74609 -152.95778 -0.33688042 255 255 255
2693.0586 3149.8577 4.0712614 255 255 255
-510.64731 -1939.6107 -3.2073731 255 255 255
252.12006 -93.3797 -0.75257027 255 255 255
213.50777 372.45428 0.50783831 255 255 255
-30721.07 -53879.273 -60.615894 255 255 255
583.17334 1947.4553 1.4849244 255 255 255
-2470.0776 -8191.9814 -8.2680397 255 255 255
121.27202 824.57513 0.91001207 255 255 255
-7928.6406 -23067.029 -21.344217 255 255 255
381.48636 -257.64252 -0.40078869 255 255 255
-4166.7139 -14349.579 -13.71019 255 255 255
-30948.254 -44207.758 -52.388607 255 255 255
1799.026 3866.1489 4.039907 255 255 255
150.08022 -543.89795 -1.7507905 255 255 255
398.66809 -210.52873 -0.36011553 255 255 255
47149.102 197993.31 164.99635 255 255 255
-970.42371 -2405.2239 -3.3498547 255 255 255
-4435.2886 -12117.198 -12.245725 255 255 255
-1511.2487 -4547.4272 -4.559545 255 255 255
-576.79742 -4966.4023 -4.7265382 255 255 255
468.5878 1738.6399 1.6147584 255 255 255
221.08937 -107.90298 -0.78551978 255 255 255
306.55536 -135.35698 -0.54062331 255 255 255
-371.57242 -691.46832 -1.7862787 255 255 255
106.35057 538.28198 0.93010449 255 255 255
-228.94943 -1104.7512 -1.8860028 255 255 255
6565.3672 46347.793 63.448429 255 255 255
-1425.2729 -2306.6357 -3.4975495 255 255 255
428.70215 -78.156876 -0.40851557 255 255 255
-54.336193 3864.8701 5.720037 255 255 255
442.14114 -64.183319 -0.41936308 255 255 255
1107.3425 1876.3411 1.908945 255 255 255
217.77199 870.01886 0.90182817 255 255 255
1411.0796 3503.2905 5.6725669 255 255 255
429.61301 -145.17514 -0.38441223 255 255 255
2357.4619 4432.5005 4.6702023 255 255 255
-1458.4808 -3852.812 -5.1467996 255 255 255
89.298744 -231.14618 -1.4426762 255 255 255
-3679.0239 -11751.421 -13.108247 255 255 255
112.48529 5274.6958 5.9887958 255 255 255
-682.75067 -1088.8392 -2.2950015 255 255 255
461.19772 -241.27217 -0.46570659 255 255 255
297.17688 730.09546 0.90179104 255 255 255
1012.8726 1994.6139 2.0635455 255 255 255
324.92361 -175.12654 -0.3300736 255 255 255
441.15457 78.930473 -0.49936417 255 255 255
685.99823 2501.5276 1.8453257 255 255 255
1273.4701 5840.6416 8.9480639 255 255 255
1558.3455 2923.2307 3.4344249 255 255 255
510.73453 -894.70245 -2.2801878 255 255 255
-1165.1794 -4128.5728 -4.2693434 255 255 255
217.53551 650.09589 0.89607829 255 255 255
46.248341 1937.1713 3.4038317 255 255 255
-107.00179 -1191.1016 -1.7942783 255 255 255
519.2851 -196.44589 -0.52048653 255 255 255
-150.05623 3664.6113 4.0329828 255 255 255
7855.2383 16933.953 18.956373 255 255 255
4040.7781 9041.6279 9.5307703 255 255 255
-465.05939 -656.242 -1.7124523 255 255 255
-2669.7124 -9321.0176 -9.1805744 255 255 255
96.435158 441.16446 0.77100819 255 255 255
-710.20947 -1934.8239 -2.7803941 255 255 255
443.21741 -86.432816 -0.4097662 255 255 255
487.77588 -20.169523 -0.44842464 255 255 255
428.48209 -166.41423 -0.37847531 255 255 255
176.17354 -109.56965 -0.84002292 255 255 255
-2474.0513 -3752.1731 -4.8848333 255 255 255
-2081.0444 -7012.1558 -7.1069632 255 255 255
438.50394 -89.244293 -0.40725628 255 255 255
1372.6201 19566.92 27.229774 255 255 255
2736.1313 5032.8403 6.5613422 255 255 255
348395.28 932861.81 773.68152 255 255 255
-493.98105 -1041.8616 -2.2948782 255 255 255
298.59277 -193.06912 -0.26146919 255 255 255
567.02759 1899.2679 1.7214953 255 255 255
-7426.8911 -13487.608 -14.608742 255 255 255
473.72495 101.65965 -0.50673616 255 255 255
1331.3553 3320.0776 3.1985266 255 255 255
-1305.7537 -3078.4062 -4.0192213 255 255 255
470.64059 -226.82487 -0.42429096 255 255 255
439.71262 -86.876587 -0.40848428 255 255 255
366.5564 1078.0197 0.95101798 255 255 255
-1519.6168 -5782.7495 -5.7890081 255 255 255
489.51398 1270.9072 1.3041662 255 255 255
989.22473 3309.2273 2.7028594 255 255 255
452.03012 -155.41559 -0.38870826 255 255 255
29.557423 312.3656 0.65142101 255 255 255
31.746733 -201.66771 -1.2443845 255 255 255
1966.1654 7869.8081 6.1902056 255 255 255
-581.64539 -1503.7924 -2.4114661 255 255 255
42.993008 2006.6631 3.5085602 255 255 255
374.16492 -157.69446 -0.35816282 255 255 255
44.087196 2312.7988 3.8127069 255 255 255
1781.04 6653.1484 4.7927833 255 255 255
-974.40454 1588.2164 2.5560777 255 255 255
446.80576 1051.5427 0.87770075 255 255 255
-792.53046 -1741.3079 -2.7930896 255 255 255
-279.24951 2707.1848 3.3666615 255 255 255
-1299.6377 -3747.9951 -4.8789053 255 255 255
6626.8877 10576.281 11.522377 255 255 255
414.99307 -89.842247 -0.39805585 255 255 255
625.95929 6325.207 7.652276 255 255 255
56.060032 1788.4166 3.1463039 255 255 255
1056.0984 3050.1453 4.9460521 255 255 255
443.61438 1784.4421 1.398324 255 255 255
33052.414 121595.42 101.70932 255 255 255
474.64661 -166.11896 -0.36131859 255 255 255
-74560.422 -227032.12 -208.95538 255 255 255
226.342 772.09357 0.68054426 255 255 255
-51730.543 -197628.47 -163.47369 255 255 255
360.67383 -133.22891 -0.35785487 255 255 255
660.88782 1829.3035 1.6168714 255 255 255
-2282.1555 -6480.3125 -6.1723037 255 255 255
295.70297 -209.46046 -0.31571072 255 255 255
46.569199 105.45484 0.18233286 255 255 255
363.81595 1038.2037 1.0535988 255 255 255
-7146.5024 28720.58 34.46616 255 255 255
411.46976 -214.82765 -0.36396965 255 255 255
304.77496 415.24051 -0.25163761 255 255 255
-945.90143 -2071.8433 -3.080404 255 255 255
-551.25049 -1744.9094 -2.5759408 255 255 255
400.67883 -204.12991 -0.36166948 255 255 255
-1403.4292 -4897.6001 -5.1575127 255 255 255
-868.6557 -3375.5757 -5.4872532 255 255 255
948.36774 2379.522 3.3543248 255 255 255
-33.153023 -435.25967 -1.3458066 255 255 255
-4413.2222 -13267.077 -14.855332 255 255 255
-406.30582 -678.77515 -1.787057 255 255 255
-653.8855 -1642.2025 -2.3089881 255 255 255
99.530785 -315.27258 -1.4579955 255 255 255
425.77002 47.367657 -0.31460461 255 255 255
426.58585 -139.97113 -0.38499987 255 255 255
1220.2174 3305.7107 4.3908601 255 255 255
429.39151 -145.14742 -0.38432273 255 255 255
-511.99951 -885.59503 -2.0142915 255 255 255
158.73256 20.703854 -0.84413058 255 255 255
502.01471 -885.88489 -2.275739 255 255 255
-90.00322 -133.79671 -1.1607872 255 255 255
11.047419 -190.90944 -1.4293894 255 255 255
463.44659 -209.55984 -0.36766574 255 255 255
4.8026853 -63.16951 -1.0895053 255 255 255
323.00885 712.72253 0.85536999 255 255 255
910.42688 -5454.582 -10.93297 255 255 255
-13932.594 -32371.918 -32.950768 255 255 255
778.46686 2026.0756 3.2884161 255 255 255
365.77087 192.1685 -0.52392924 255 255 255
96.173912 381.92755 0.65919143 255 255 255
-5247.7212 -11730.271 -12.782358 255 255 255
55.943947 1991.0548 3.3809214 255 255 255
481.98511 1922.9038 2.1307585 255 255 255
174.71066 667.20355 0.99601591 255 255 255
1584.4645 3883.9358 3.9739089 255 255 255
-10987.442 -18569.945 -19.456266 255 255 255
309.1615 869.49835 0.77356368 255 255 255
409.0246 -212.34676 -0.36342379 255 255 255
469.34875 -186.02159 -0.39494979 255 255 255
392.34998 161.46736 -0.5420568 255 255 255
45.091423 102.93986 0.17829745 255 255 255
505.0531 -903.22919 -2.3003531 255 255 255
-4955.4629 -7964.6558 -10.760064 255 255 255
55755.902 270767.28 219.72472 255 255 255
-5841.6538 -6473.5933 -10.405037 255 255 255
-10190.013 -18784.396 -23.369978 255 255 255
176.35275 691.49017 1.0311611 255 255 255
207.33902 1916.8816 2.5241709 255 255 255
-33951.211 -59727.039 -90.911171 255 255 255
364.60275 199.0827 -0.51275074 255 255 255
412.87933 -212.86407 -0.36461574 255 255 255
-4070.1909 -8408.4336 -12.318108 255 255 255
163.09929 -16.719849 -0.87997824 255 255 255
-3901.1819 -6174.3467 -8.2906017 255 255 255
-132.35153 -206.35667 -1.2296184 255 255 255
8321.6875 9949.3389 11.668876 255 255 255
402.30728 -209.78012 -0.3614656 255 255 255
-58.900063 -181.78581 -1.1662207 255 255 255
1172.3281 -8790.5322 -19.396839 255 255 255
323.53171 -157.3075 -0.33029547 255 255 255
-360.44565 -697.03265 -1.7992755 255 255 255
374.22397 41.143673 -0.6207673 255 255 255
-7.4842262 -265.7482 -1.3675399 255 255 255
53.687958 316.88382 0.61162269 255 255 255
504.19284 -879.31787 -2.2624075 255 255 255
410.34821 -211.81531 -0.36398399 255 255 255
194.6842 507.0654 0.54966778 255 255 255
338.60547 -170.78902 -0.33791327 255 255 255
443.2319 -86.481667 -0.40974805 255 255 255
7802.1191 20843.068 18.793535 255 255 255
-7.3612251 1346.5497 2.0699639 255 255 255
988.97949 2455.4062 2.5163498 255 255 255
-31.600153 -545.75409 -2.0296869 255 255 255
1406.7264 2253.7844 2.3694687 255 255 255
176.74947 -149.71976 -0.23021166 255 255 255
364.05655 -130.16838 -0.36323485 255 255 255
-1493.0505 -3180.2417 -4.4478154 255 255 255
13573.11 22878.584 27.421946 255 255 255
-48.024326 -1256.0493 -3.0174499 255 255 255
217.57133 649.95331 0.89587718 255 255 255
243.62242 -575.31335 -2.0686545 255 255 255
-2148.5649 -4017.4185 -5.0654655 255 255 255
136.37524 936.26074 0.76533616 255 255 255
-1551.2316 -2751.646 -3.8370559 255 255 255
-4.7851028 -222.84828 -1.1964666 255 255 255
383.40662 1156.0884 1.2865779 255 255 255
338.30615 -170.76508 -0.33774742 255 255 255
3984.9741 15396.422 24.684566 255 255 255
323.99817 -170.39301 -0.32969961 255 255 255
-5457.8955 -17170.107 -21.607042 255 255 255
-98.160759 -152.21112 -1.1569791 255 255 255
6350.2681 12717.717 13.419688 255 255 255
-59.651817 -111.51828 -1.1223667 255 255 255
-647.47754 -1591.5541 -2.472399 255 255 255
514.73322 -908.89227 -2.2991071 255 255 255
637.86511 -293.94272 -0.46613133 255 255 255
366.94135 190.00259 -0.52503276 255 255 255
362.70477 -131.63445 -0.36350042 255 255 255
512.48486 -1323.3788 -3.0374467 255 255 255
-43.28661 -144.25801 -1.1267598 255 255 255
-317.95123 -2151.6719 -2.5402486 255 255 255
100.47987 1247.8571 1.2726882 255 255 255
376.16943 -137.28513 -0.36361113 255 255 255
-4683.5977 -9478.6475 -10.766131 255 255 255
21.112766 -494.89569 -1.9906641 255 255 255
-54231.828 -123401.55 -121.08117 255 255 255
168.88843 803.87134 1.2213383 255 255 255
268.22394 734.96246 0.67710137 255 255 255
439.6907 123.34304 -0.52493393 255 255 255
981.26465 2581.0984 2.9957132 255 255 255
258.68018 1203.6199 1.5871582 255 255 255
-3311.4187 -6222.2222 -6.8196001 255 255 255
-1398.1541 -3422.9143 -4.2344851 255 255 255
8385.9668 12514.411 14.879953 255 255 255
282.05838 -25.840067 -0.72798628 255 255 255
464.84592 7.5626163 -0.46121505 255 255 255
501.59372 1261.0402 1.4336185 255 255 255
-658.40332 -1062.4706 -2.2373438 255 255 255
160.97678 674.81305 1.0366691 255 255 255
296.42233 -189.4803 -0.3145113 255 255 255
312.34143 -178.5105 -0.32291508 255 255 255
-1867.6497 -5772.0215 -5.6188111 255 255 255
-57.457169 -539.83893 -1.4419818 255 255 255
505.23621 -896.45422 -2.2886837 255 255 255
-13564.562 -23881.967 -28.008518 255 255 255
-878.32141 -1321.1903 -2.7398703 255 255 255
256.63574 613.91565 0.62592852 255 255 255
-455.6702 -866.20251 -2.0554285 255 255 255
232.41525 1190.9775 1.6041492 255 255 255
166.18309 -14.923026 -0.85997641 255 255 255
-448.36053 -849.70599 -2.0984194 255 255 255
-546.44397 -1393.5414 -2.6300943 255 255 255
442.14944 -64.20121 -0.41934973 255 255 255
42.632324 1996.4728 3.5066402 255 255 255
396.06235 44.898846 -0.61770147 255 255 255
175.65672 819.65063 1.2306319 255 255 255
342.66074 -20.336267 -0.6284647 255 255 255
348.67599 -192.30362 -0.44690824 255 255 255
332.30869 -163.51706 -0.33482009 255 255 255
184.74225 46.483643 -0.82752544 255 255 255
-614.00171 -1217.4655 -2.5412583 255 255 255
468.18619 63.366947 -0.49001756 255 255 255
-617.38812 -1165.0546 -2.4704907 255 255 255
-1419.0594 -3199.2405 -4.1942263 255 255 255
57.802994 319.18805 0.60838705 255 255 255
-3637.5029 -4691.3521 -7.1814156 255 255 255
-36783.562 -78013.664 -127.13885 255 255 255
-12848.767 -36938.488 -35.058399 255 255 255
-686.24292 -1631.2711 -2.6153321 255 255 255
-3496.7622 -8643.0332 -8.3965511 255 255 255
2604.7378 5269.2871 3.974246 255 255 255
243.01286 558.01501 0.59054452 255 255 255
-928.52643 -1193.1946 -2.5002406 255 255 255
468.02344 62.502869 -0.48965111 255 255 255
331.98651 -171.29053 -0.33417973 255 255 255
-8843.4775 -19469.141 -17.562437 255 255 255
225.90593 -38.785572 -0.81929809 255 255 255
424.52563 -154.87083 -0.3799367 255 255 255
-36.204643 1396.0603 3.3469887 255 255 255
-4907.3066 -10326.152 -11.526584 255 255 255
1009.0833 2022.5735 1.8440807 255 255 255
151.90114 -232.25047 -1.3173133 255 255 255
218.09184 -540.04706 -2.0413337 255 255 255
2060.2656 -10734.441 -15.444907 255 255 255
56615.34 181218.5 132.03252 255 255 255
174.03217 18.474775 -0.82871324 255 255 255
473.69666 101.61758 -0.50682801 255 255 255
698.07153 1624.8489 1.7364416 255 255 255
-1031.4122 -2151.4883 -3.1066768 255 255 255
440.99817 80.196022 -0.50002074 255 255 255
921.17206 2310.728 2.5347912 255 255 255
1898.2925 4837.2959 5.1771741 255 255 255
-307.67053 -6706.7329 -9.9707365 255 255 255
754.50299 1370.2526 1.3590014 255 255 255
117.25928 1139.2748 1.903639 255 255 255
-2299.842 -5413.7847 -6.2724757 255 255 255
-9833.6094 -19390.121 -24.064459 255 255 255
212.77269 1342.3647 1.7597731 255 255 255
-8597.7783 -17162.863 -21.321831 255 255 255
-2792.8074 -5759.9878 -8.7299871 255 255 255
98.499321 1403.8402 2.3736117 255 255 255
632.17841 2873.0054 2.7083054 255 255 255
411.41388 -213.31464 -0.36411154 255 255 255
492.04681 -885.38843 -2.2866311 255 255 255
257.94034 1714.7847 1.6316954 255 255 255
360.85309 209.92038 -0.5013265 255 255 255
361.48828 -167.12982 -0.62791431 255 255 255
-876.44342 -2594.8726 -3.3927214 255 255 255
367.88779 1441.6672 1.190931 255 255 255
-541.2027 -1860.4376 -2.6613932 255 255 255
1178.4115 4392.0459 6.044755 255 255 255
428.24329 -91.594383 -0.40264735 255 255 255
971.71655 2644.0078 3.1166742 255 255 255
-315.97946 -1626.3561 -2.2773678 255 255 255
-34169.93 -75039.344 -65.899513 255 255 255
247.69362 623.4812 0.0008355286 255 255 255
187.49969 855.37317 0.28521624 255 255 255
-1900.2572 -3144.3726 -4.9700785 255 255 255
144.43954 -86.38829 -0.11313352 255 255 255
335.74829 1179.8131 1.3806732 255 255 255
347.15341 -61.905563 -0.32995182 255 255 255
100.00942 1392.1427 2.3503757 255 255 255
532.07721 -227.57071 -0.42058706 255 255 255
485.98007 49.219593 -0.48134491 255 255 255
492.19571 -872.02466 -2.2645822 255 255 255
367.42389 -128.41939 -0.36404455 255 255 255
-55.895767 -149.28383 -1.1416321 255 255 255
-839.66522 -2433.198 -3.1879334 255 255 255
-5060.6938 -15641.479 -14.903562 255 255 255
488.2739 -20.724073 -0.44822407 255 255 255
191.3235 14.251046 -0.80271077 255 255 255
102.49262 1258.095 2.1436653 255 255 255
488.68536 -19.952478 -0.4486596 255 255 255
-1068.6014 -2858.7207 -3.3251736 255 255 255
491.24081 -1472.6927 -3.3923717 255 255 255
-5107.2202 -9266.5547 -10.708261 255 255 255
-2364.5186 -9953.0947 -10.134918 255 255 255
-2580.3306 -3797.8589 -5.6928844 255 255 255
181.86235 663.46655 0.52542102 255 255 255
315.0907 -168.20682 -0.32445413 255 255 255
502.19885 -901.25934 -2.3001306 255 255 255
381.4155 -152.32608 -0.36269322 255 255 255
1133.3744 5478.7197 6.9261489 255 255 255
356.76617 -1148.0609 -3.10534 255 255 255
-50.342476 -136.23232 -1.14433 255 255 255
-156.46208 -199.33748 -1.2285171 255 255 255
419.78973 1676.0354 1.8062148 255 255 255
-490.89407 -4644.3364 -7.87748 255 255 255
426.81262 13.814078 -0.35355839 255 255 255
-906.39105 -6160.6382 -5.6426702 255 255 255
996.20941 5782.7319 4.2747126 255 255 255
36.477062 157.85384 0.29242161 255 255 255
-2324.7649 -5925.7422 -6.8140378 255 255 255
-592.33313 -2026.4395 -3.2324243 255 255 255
-38786.309 -76119.484 -117.84336 255 255 255
1350.2305 12785.123 20.206663 255 255 255
52.775043 2813.8379 4.1798825 255 255 255
142.11371 3672.5732 4.1358919 255 255 255
-3587.0906 -7446.2891 -8.1433802 255 255 255
-4669.7427 -5526.0464 -8.3803968 255 255 255
-2995.3718 -4607.3833 -6.2931533 255 255 255
403.39966 -210.36745 -0.36181852 255 255 255
-128.97389 -411.47464 -1.3657442 255 255 255
8858.0049 19009.461 21.037464 255 255 255
-2013.0208 -4571.5918 -5.6063848 255 255 255
315.53641 1052.3331 0.9765178 255 255 255
190.49594 -502.82413 -2.0096931 255 255 255
-3716.6941 -7024.0566 -9.3972912 255 255 255
379.74652 -159.51031 -0.49489686 255 255 255
14062.4 23800.389 28.911282 255 255 255
-4101.4956 -7638.0654 -8.4223518 255 255 255
610.19537 2148.3918 2.229712 255 255 255
2049.3879 4886.2529 4.9806237 255 255 255
363.01181 -131.20978 -0.36064747 255 255 255
-265.49649 6492.4141 7.3987999 255 255 255
420.19821 -101.72964 -0.39565894 255 255 255
182.63766 -1.2230556 -0.8037892 255 255 255
328.85706 1027.2349 1.2170012 255 255 255
2030.3926 3896.3076 3.5996945 255 255 255
2621.9849 4020.4468 4.7736664 255 255 255
726.52191 -2171.3831 -4.1020603 255 255 255
380.33856 -171.69882 -0.35850218 255 255 255
-249.7809 1302.7977 1.4247824 255 255 255
334.74304 302.69437 -0.38924962 255 255 255
152.90656 836.0257 0.75833356 255 255 255
36308.035 62872.297 74.586716 255 255 255
-1881.3101 -5011.9536 -6.3157244 255 255 255
-2431.8843 -6655.4111 -7.2835608 255 255 255
-465.6138 -657.10541 -1.7132889 255 255 255
335.60571 -156.18059 -0.33755219 255 255 255
7289.5137 11602.235 12.789663 255 255 255
173.7758 767.26416 1.1533616 255 255 255
401.85907 -214.80449 -0.3984296 255 255 255
86.027534 2691.4399 4.2752109 255 255 255
-329.06503 -2031.1831 -3.150526 255 255 255
209.4053 840.2605 0.79343122 255 255 255
-4293.5586 -7118.8623 -7.9372969 255 255 255
18273.416 56882.992 57.395023 255 255 255
5998.9727 8533.4521 9.0696049 255 255 255
432.03085 -55.118629 -0.41919315 255 255 255
1293.2072 3004.5984 3.8567543 255 255 255
444.9584 -126.55991 -0.39513952 255 255 255
-31.224194 -541.34564 -2.0687346 255 255 255
24277.291 72500.844 64.727768 255 255 255
731.27557 -2185.8894 -4.1164994 255 255 255
433.01813 -194.90015 -0.37409467 255 255 255
443.07925 -58.30743 -0.42258814 255 255 255
384.64609 29.896925 -0.63413888 255 255 255
-63.04446 -116.88856 -1.1099705 255 255 255
-895.13794 -2035.0845 -3.0756555 255 255 255
256.31699 1186.7135 1.2269657 255 255 255
260.06296 -94.189072 -0.74411207 255 255 255
-83.100517 -419.87711 -1.3458563 255 255 255
356.40768 -1153.4712 -3.1194146 255 255 255
381.29959 1065.6455 0.88784361 255 255 255
-1940.3162 -4389.437 -4.5400572 255 255 255
-2011.7668 -4357.1172 -5.4725671 255 255 255
227.04156 1099.3768 1.4979118 255 255 255
431.80014 1291.0983 1.1449867 255 255 255
10358.994 14196.477 16.288473 255 255 255
486.28992 -192.60765 -0.47993892 255 255 255
2563.4441 7775.3706 5.9568863 255 255 255
404.02002 -210.09543 -0.3621136 255 255 255
388.48447 1846.6708 1.5520616 255 255 255
-1123.3457 -4415.4243 -4.4629054 255 255 255
-3250.5986 -8928.7451 -9.451787 255 255 255
120.52469 -71.306625 -0.1257491 255 255 255
446.73532 1223.9907 1.4345759 255 255 255
437.07022 -126.91759 -0.39263779 255 255 255
444.11606 -56.637276 -0.42369038 255 255 255
1287.1257 -6742.1035 -11.167542 255 255 255
-81.85257 -636.91992 -1.5856465 255 255 255
3792.8484 8834.6592 10.418697 255 255 255
1006.0691 1800.9526 1.998039 255 255 255
-2295.2654 -4924.3975 -5.9885311 255 255 255
-6667.6558 -17268.193 -17.201084 255 255 255
365.26797 -163.22571 -0.35274607 255 255 255
249.5228 638.88342 0.8384102 255 255 255
51.173111 1879.9668 3.3050838 255 255 255
-31212.51 -44590.43 -52.844162 255 255 255
5312.7764 11770.913 15.314081 255 255 255
419.32584 -79.314812 -0.40396252 255 255 255
-161.17883 -196.49336 -1.2162155 255 255 255
368.68118 34.779049 -0.63944972 255 255 255
-2249.2136 -5824.165 -6.4633985 255 255 255
490.36295 1600.9719 1.34986 255 255 255
440.53976 -77.092224 -0.41294727 255 255 255
-238.77432 -394.66577 -1.4570096 255 255 255
-582.90912 -1479.1942 -2.3651369 255 255 255
225.37073 -177.25711 -0.27053884 255 255 255
884.80115 2192.2097 1.9707059 255 255 255
-2255.8291 -5983.7354 -6.5783834 255 255 255
12.595645 256.92349 0.5465287 255 255 255
425.71582 -119.67273 -0.42319247 255 255 255
407.82651 -215.47937 -0.3626563 255 255 255
487.68552 -20.144415 -0.4484081 255 255 255
-708.67407 -1694.1603 -2.6744788 255 255 255
362.56848 203.32823 -0.50975013 255 255 255
476.25195 -99.506096 -0.54834253 255 255 255
381.07111 1242.5385 1.2232045 255 255 255
445.6889 -226.99745 -0.34163174 255 255 255
-9749.0107 -20585.584 -22.8032 255 255 255
-3857.8337 -6402.6406 -7.1902709 255 255 255
158.61078 -106.75729 -0.75662082 255 255 255
-2437.0593 -8821.9326 -9.7301016 255 255 255
143.37663 1188.3192 1.0230502 255 255 255
-1154.5629 -2506.8979 -3.5684226 255 255 255
-70.537392 -170.84666 -1.143988 255 255 255
-1958.5944 -4674.3486 -5.1561141 255 255 255
402.13535 -259.38571 -0.35979676 255 255 255
435.7355 -62.793602 -0.41781005 255 255 255
-847.90009 -1648.4999 -3.1842551 255 255 255
20696.531 28417.691 30.399117 255 255 255
407.00351 -205.53252 -0.36368096 255 255 255
-4734.4087 -10497.486 -11.35948 255 255 255
763.04626 1688.5359 1.7144581 255 255 255
23537.186 77073.445 67.680939 255 255 255
1036.5925 2907.8242 2.3556402 255 255 255
488.44177 1617.6836 1.5570195 255 255 255
371.14841 177.58357 -0.54049098 255 255 255
396.05392 874.08978 0.83438492 255 255 255
-49.366669 -267.82947 -1.2885072 255 255 255
361.61758 -123.10918 -0.32096592 255 255 255
853.03552 3042.8684 4.113677 255 255 255
1237.5852 2338.8367 2.3136458 255 255 255
483.85529 -156.23341 -0.38083595 255 255 255
336.43503 1409.433 1.2647971 255 255 255
407.85294 -125.23926 -0.38200554 255 255 255
343.73621 2322.584 2.3830864 255 255 255
291.85672 1589.8831 1.9207823 255 255 255
11.191925 253.51881 0.53989363 255 255 255
680.50635 1643.3506 1.5956582 255 255 255
9834.1318 24234.197 22.700087 255 255 255
5152.1665 14907.318 12.930984 255 255 255
-976.58441 -1496.7407 -2.7626882 255 255 255
361.37961 -1187.0748 -3.1821725 255 255 255
6326.9775 19907.588 17.212788 255 255 255
-291819.38 -755330.69 -737.60669 255 255 255
-376.13562 1794.203 1.740382 255 255 255
-5141.6255 -9238.3916 -12.396836 255 255 255
473.68964 101.74329 -0.50685519 255 255 255
16028.837 31054.383 31.723375 255 255 255
6099.9761 10662.861 11.999497 255 255 255
267.33527 550.20764 -0.08841005 255 255 255
140.92827 -40.933701 -0.86317468 255 255 255
1321.5338 2437.052 2.4151573 255 255 255
45.049465 102.87095 0.17823106 255 255 255
444.08334 -56.629581 -0.42351779 255 255 255
4156.9121 7296.2939 8.1416807 255 255 255
483.62701 -56.411987 -0.43161649 255 255 255
191.17772 -64.219627 -0.81012768 255 255 255
-2193.6794 -4120.4097 -5.1574168 255 255 255
-5170.3228 -10016.81 -12.981994 255 255 255
155.97829 19.047558 -0.84378707 255 255 255
935.09973 -5701.7446 -11.388437 255 255 255
1281.001 -6704.7441 -11.107816 255 255 255
362.83228 -131.7092 -0.36370888 255 255 255
12.868348 157.71907 0.31009036 255 255 255
312.33627 -63.135689 -0.75679404 255 255 255
371.84229 175.32562 -0.54427278 255 255 255
95.755913 428.06372 0.74923742 255 255 255
558.19885 -102.03458 -0.53063536 255 255 255
218.08044 -539.42017 -2.0402277 255 255 255
352.88547 -143.85826 -0.34948653 255 255 255
-4801.1338 -12697.588 -13.855366 255 255 255
-2181.1401 -7759.98 -7.6965523 255 255 255
-169.46329 -348.45956 -2.3835857 255 255 255
-63.739201 -182.2789 -1.159884 255 255 255
-1618.1779 -4906.2363 -7.055161 255 255 255
134.75554 3704.5889 4.1950331 255 255 255
516.30737 -899.02478 -2.2814708 255 255 255
3159.2969 7264.4019 9.0425663 255 255 255
260.28381 1089.7678 1.0313059 255 255 255
364.4317 -130.34135 -0.36245278 255 255 255
814.22272 2927.8386 3.2783828 255 255 255
232.40865 1191.1628 1.6044683 255 255 255
2542.5449 11740.358 10.143816 255 255 255
4387.8213 7219.9219 7.5773182 255 255 255
426.3688 30.827673 -0.33348992 255 255 255
369.43134 178.89447 -0.54224825 255 255 255
438.50125 -89.368515 -0.40725708 255 255 255
468.22177 63.289673 -0.49012655 255 255 255
141.6403 -96.557335 -0.13373455 255 255 255
4244.8438 33475.855 26.86175 255 255 255
355.76971 -28.178968 -0.62086898 255 255 255
410.26993 -211.88599 -0.36390543 255 255 255
291.7489 -1423.4442 -4.2305031 255 255 255
-1019.9781 -2771.6416 -3.7815056 255 255 255
237.88858 -168.45679 -0.27573141 255 255 255
371.86511 -193.49767 -0.39688265 255 255 255
-277.16525 6566.3799 7.5522842 255 255 255
555.03333 -380.77759 -0.40270346 255 255 255
-551.74884 -715.15497 -1.8552324 255 255 255
-994.20764 -1415.7581 -2.7717693 255 255 255
20754.232 28726.836 32.684628 255 255 255
404.08353 -210.10019 -0.36211747 255 255 255
227.34343 1098.2904 1.4972273 255 255 255
59.883045 1594.7855 2.7271266 255 255 255
60.188934 1722.6146 3.044791 255 255 255
-243.74457 3694.303 8.7751513 255 255 255
-7764.1187 -17305.859 -18.751549 255 255 255
362.67303 206.11342 -0.50424016 255 255 255
2055.77 -10709.281 -15.403285 255 255 255
3176.1726 7497.9204 8.6506567 255 255 255
-2060.1138 -6103.5029 -5.7783623 255 255 255
260.43445 40.193375 -0.6870681 255 255 255
964.14557 2770.9014 2.3538337 255 255 255
-6282.0796 -8884.7979 -12.033675 255 255 255
911.46991 -5464.3154 -10.949618 255 255 255
173.70354 767.68591 1.1535634 255 255 255
293.54254 48.837093 -0.475647 255 255 255
-2888.384 -7453.5356 -7.2795405 255 255 255
152.11093 -27.801132 -0.86497259 255 255 255
35129.445 48265.535 53.730087 255 255 255
-3166.9189 -7344.4458 -8.1864901 255 255 255
4554.4575 10017.398 10.508388 255 255 255
365.34381 824.61017 0.81736076 255 255 255
482.50757 1742.7262 1.5975163 255 255 255
