ply
format ascii 1.0
comment PCL generated
element vertex 1110
property float x
property float y
property float z
property uchar red
property uchar green
property uchar blue
element face 0
element camera 0
property float view_px
property float view_py
property float view_pz
property float x_axisx
property float x_axisy
property float x_axisz
property float y_axisx
property float y_axisy
property float y_axisz
property float z_axisx
property float z_axisy
property float z_axisz
property float focal
property float scalex
property float scaley
property float centerx
property float centery
property int viewportx
property int viewporty
property float k1
property float k2
end_header
687.04773 783.59009 1.8166329 255 255 255
-1217.855 -1840.3831 -2.8350863 255 255 255
-547.20148 -542.16071 -1.6949047 255 255 255
627.04791 790.94891 1.4771545 255 255 255
610.58478 774.12433 1.4573059 255 255 255
369.78006 380.9436 0.85035545 255 255 255
-1197.1548 -2315.9812 -5.5197277 255 255 255
-1870.6986 -2083.4192 -3.8430929 255 255 255
327.04965 807.57257 1.3275963 255 255 255
612.28345 970.06897 1.5548967 255 255 255
403.57709 410.32642 1.0727706 255 255 255
790.53424 499.24417 0.87235719 255 255 255
1039.9614 1228.6971 5.9692578 255 255 255
-733.05011 -502.39508 -3.1259134 255 255 255
-4124.6973 -8780.1455 -18.875681 255 255 255
802.19495 1143.0923 1.7194781 255 255 255
-552.95941 -525.40002 -3.0088978 255 255 255
2992.9988 1333.2827 2.8420742 255 255 255
1132.0623 862.93396 1.9192972 255 255 255
-891.935 -771.224 -2.1497765 255 255 255
252.83092 506.62921 0.42017475 255 255 255
-1324.5978 -697.19324 -2.7715149 255 255 255
603.76874 724.93713 1.4285516 255 255 255
-976.41962 -1134.0675 -2.4001637 255 255 255
2109.6462 653.20227 2.988827 255 255 255
2894.1694 1530.3429 2.6766231 255 255 255
541.84521 958.27081 1.5168121 255 255 255
-771.53815 -580.93591 -1.9668469 255 255 255
776.27869 1080.9431 2.2112408 255 255 255
580.45367 1020.4691 1.5668619 255 255 255
-29403.338 -47563.309 -102.08944 255 255 255
-2679.4431 -2427.012 -4.8765316 255 255 255
5257.4194 3127.7781 5.3865638 255 255 255
279.53873 191.84048 0.40192977 255 255 255
-856507.25 -1264149.4 -2888.3491 255 255 255
-1526.99 -3020.3567 -7.5097556 255 255 255
565.8335 705.18652 0.67959821 255 255 255
-538.63837 -865.72424 -2.3985908 255 255 255
519.21075 934.54535 1.491379 255 255 255
1168.7782 673.4895 1.9967037 255 255 255
529.50458 913.23737 1.5102812 255 255 255
-3017.575 -2833.2656 -5.5343719 255 255 255
8239.4111 2792.0088 7.8004289 255 255 255
551.74811 724.40717 1.386583 255 255 255
388.29111 384.28406 0.44147143 255 255 255
-414.02383 -312.16708 -1.5081055 255 255 255
459.07773 568.07068 0.76180285 255 255 255
350.45731 499.63138 1.0805694 255 255 255
519.22284 902.5033 1.4723976 255 255 255
388.36292 802.74988 1.2941356 255 255 255
-1384.9749 -1855.0902 -3.4543917 255 255 255
894.14429 717.53302 3.5263147 255 255 255
881.4798 1097.2281 1.9173456 255 255 255
189782.72 183663.75 254.22763 255 255 255
2945.2454 1425.2087 2.7570543 255 255 255
-5545.6299 -1501.0271 -6.927218 255 255 255
2116.9927 1387.8013 3.6453335 255 255 255
-2530.2876 -1388.3815 -3.8653638 255 255 255
787.1286 982.49438 1.651279 255 255 255
644.76544 729.73596 1.4626319 255 255 255
447.08832 962.15674 1.4828082 255 255 255
290.75839 680.22266 1.2029986 255 255 255
572.30682 751.58948 0.98617357 255 255 255
403.63254 832.3089 1.3085774 255 255 255
-225.51952 -358.43649 -1.4037946 255 255 255
621.32922 1041.1686 1.5960909 255 255 255
322.42368 402.21811 0.4007403 255 255 255
2445.1323 3072.1077 8.9942465 255 255 255
1476.6471 2334.4656 4.5134978 255 255 255
3160.0776 1247.4762 3.0677521 255 255 255
5834.3237 8877.3633 17.231487 255 255 255
2798.9204 1656.4036 2.6487796 255 255 255
526.09143 945.25122 1.4985693 255 255 255
-2544.1179 -3025.0896 -4.7778211 255 255 255
473.81509 620.9834 1.2678474 255 255 255
388.8559 275.05719 0.65555465 255 255 255
64.9226 100.52914 0.15648416 255 255 255
170.89203 1229.7621 1.6987922 255 255 255
530.50488 844.20099 1.4418968 255 255 255
2885.1387 1403.2079 2.7520387 255 255 255
-2761.1179 -3216.3459 -5.21066 255 255 255
453.19122 1231.8185 1.3811094 255 255 255
512.26477 716.69342 1.3542153 255 255 255
-976.97974 -773.47046 -2.4570782 255 255 255
599.31067 424.61676 0.62515795 255 255 255
-841.84564 -1012.361 -3.9072547 255 255 255
616.73547 773.18793 1.4599867 255 255 255
1858.4756 1717.5273 3.2839413 255 255 255
478.74448 569.55133 1.2402093 255 255 255
2608.4656 4768.3994 9.155405 255 255 255
410.39789 449.07233 1.1017892 255 255 255
338.2135 838.34308 1.3560932 255 255 255
3596.6938 1582.5281 3.6022489 255 255 255
416.49008 425.64548 1.0946983 255 255 255
486.97061 802.87 1.3928649 255 255 255
641.97693 613.3858 1.420395 255 255 255
-388.42252 -333.19379 -1.527083 255 255 255
674.00012 653.8064 1.4618099 255 255 255
419.44455 993.03546 1.4945613 255 255 255
238.07477 1122.7628 1.6007226 255 255 255
512.19098 681.35858 1.3320242 255 255 255
-363.72729 -321.31476 -1.5171089 255 255 255
-707.48273 -807.11285 -2.18507 255 255 255
856.88464 964.41058 1.2132913 255 255 255
1888.4474 2147.8259 4.0862856 255 255 255
1910.8861 1608.6885 5.4645858 255 255 255
630.23547 536.34979 2.1083765 255 255 255
527.25403 1028.7855 1.5523146 255 255 255
-594.0462 -432.07849 -1.8442917 255 255 255
-1586.6666 -3022.645 -4.3946877 255 255 255
941.49377 1435.2196 3.2326603 255 255 255
3724.0757 1079.7252 3.6359732 255 255 255
5837.8359 3355.4199 5.8768649 255 255 255
-2896.8799 -2595.7795 -5.2090802 255 255 255
405.31534 396.10593 0.88575512 255 255 255
-308.25986 -292.15707 -1.4233741 255 255 255
548.83502 651.46863 1.3466207 255 255 255
430.74072 390.8309 0.66616386 255 255 255
-727.22449 -547.95056 -2.0088551 255 255 255
769.04077 890.18829 1.1665645 255 255 255
1186.8119 1629.9044 4.0198469 255 255 255
64939.984 67691.102 92.515266 255 255 255
-1027.4121 -703.81451 -2.433378 255 255 255
562.21582 615.75763 1.342616 255 255 255
2781.0144 1185.6886 2.8883927 255 255 255
1085.7017 1226.6868 1.8979448 255 255 255
427.66449 940.02032 1.4605616 255 255 255
-2174.241 -1592.8027 -3.6874769 255 255 255
-519.18915 -497.88281 -1.7347211 255 255 255
-1862.3237 -1184.6835 -3.5160697 255 255 255
410.05716 545.89795 1.1659031 255 255 255
712.33551 511.49307 0.76011038 255 255 255
-1205.4163 -670.22461 -2.7001424 255 255 255
629.42719 662.90491 0.73598367 255 255 255
383.31177 932.7464 1.4414104 255 255 255
5155.3892 7659.9111 17.852346 255 255 255
1031.5665 1137.9449 2.736249 255 255 255
532.12695 720.76306 1.3721349 255 255 255
-257.08542 -209.946 -1.3545725 255 255 255
2942.1848 1244.0288 2.9016163 255 255 255
485.82257 263.61151 0.70251095 255 255 255
527.96326 723.03711 1.3140932 255 255 255
609.95703 1001.7388 1.5689682 255 255 255
670.28082 462.29907 0.72291631 255 255 255
53.230675 135.01111 0.37928131 255 255 255
-1472.2729 -2018.9761 -3.4310763 255 255 255
545.85553 738.914 1.3905528 255 255 255
411.82861 1013.4508 1.5088879 255 255 255
-350.83707 -615.836 -2.2945833 255 255 255
1114.1007 1463.139 3.5707927 255 255 255
518.23602 445.65674 0.62183911 255 255 255
518.67407 954.18243 1.5023233 255 255 255
-483.28949 -446.13382 -1.63975 255 255 255
-495.89569 -448.12051 -2.0253074 255 255 255
628.92566 1311.7297 1.7375175 255 255 255
559.89154 1765.0233 2.5420921 255 255 255
-344.58408 -284.96185 -1.4770515 255 255 255
376.92084 551.86542 0.51184642 255 255 255
-5790.9619 -2792.3921 -6.9706073 255 255 255
445.3468 736.73431 1.3261606 255 255 255
2734.6218 1508.5228 2.6416242 255 255 255
477.64548 1055.4355 1.5549244 255 255 255
1227.5464 1708.2749 2.6029987 255 255 255
414.56772 902.57794 1.4049267 255 255 255
689.78363 571.43085 1.4607923 255 255 255
626.414 1085.238 1.6197886 255 255 255
5927.3687 3246.9106 7.0782485 255 255 255
501.20013 995.87286 1.8911992 255 255 255
441.66647 206.03314 0.45409182 255 255 255
663.04846 641.99091 0.8109166 255 255 255
-277.26773 -305.95505 -1.4389956 255 255 255
-2544.374 -2503.0886 -4.9373002 255 255 255
-698.86755 -702.38055 -1.942645 255 255 255
-4645.9443 -4474.3716 -13.094978 255 255 255
621.03333 989.60028 1.5681779 255 255 255
-705.43787 -430.31528 -1.9438168 255 255 255
642.38849 708.5625 1.4534611 255 255 255
-56.486633 -209.41077 -1.4545844 255 255 255
76272.406 58500.34 89.207962 255 255 255
3387.3101 2394.9392 3.7780552 255 255 255
-400.36676 -425.3587 -2.1347795 255 255 255
381.19257 336.79791 1.0055375 255 255 255
2878.7852 1390.1228 2.7540677 255 255 255
-1113.2362 -986.16217 -2.5876768 255 255 255
547.43848 920.86383 1.4942731 255 255 255
-682.31372 -427.87805 -1.7900864 255 255 255
2945.0334 1245.0632 2.9038844 255 255 255
1264.9346 1682.1219 3.125103 255 255 255
578245.94 400281.16 639.96808 255 255 255
458.50314 564.82135 0.748999 255 255 255
595.08386 745.50323 1.431464 255 255 255
519.02832 820.07245 1.4220076 255 255 255
-1264.3964 -1051.9319 -2.7693853 255 255 255
-1811.9503 -2463.2883 -3.9794543 255 255 255
536.67865 927.73712 1.3174967 255 255 255
598.44543 773.25629 1.4473963 255 255 255
1665.0179 985.89618 1.8225172 255 255 255
14266.498 14446.252 19.028528 255 255 255
486.48505 802.43018 1.3922517 255 255 255
-904.46497 -780.07599 -2.2059536 255 255 255
521.52612 814.10156 1.418662 255 255 255
458.67868 790.66144 1.3708212 255 255 255
388.66168 858.55963 0.95246875 255 255 255
3639.3809 1503.4834 3.682416 255 255 255
384.0542 342.88013 1.0129377 255 255 255
614.29517 663.87268 1.4109828 255 255 255
-1187.8807 -629.43408 -2.5608938 255 255 255
1132.3219 849.15906 1.9197649 255 255 255
536.83203 868.2135 1.4601161 255 255 255
581.80334 677.3385 1.3879751 255 255 255
-1059.5018 -1693.2413 -3.0621467 255 255 255
622.44312 691.19434 1.4302806 255 255 255
602.4068 1018.605 1.5757025 255 255 255
725.9126 496.23746 0.72427338 255 255 255
-1016.1423 -786.87299 -2.4479551 255 255 255
387.36359 598.31177 1.1877879 255 255 255
5264.353 3415.5867 8.4083567 255 255 255
126.16974 906.7204 1.4239848 255 255 255
363.8847 1311.5203 1.7212511 255 255 255
522.73926 879.68213 1.4565455 255 255 255
2744.4993 1670.5376 2.4976897 255 255 255
1660.2323 1398.2968 3.9194281 255 255 255
604.19824 452.95612 1.0655589 255 255 255
571.73547 680.54938 1.3808492 255 255 255
551.42444 680.63031 1.427228 255 255 255
2912.302 1364.67 2.7860134 255 255 255
-1245.0179 -1457.4545 -2.8175983 255 255 255
497.57535 291.76065 1.1785491 255 255 255
600.77911 834.8764 1.4804095 255 255 255
-67782.25 -34481.949 -73.796646 255 255 255
-1290.6909 -1818.5599 -3.0794337 255 255 255
681.15656 1281.5549 1.7352375 255 255 255
188.33937 1196.9215 1.668829 255 255 255
586.29077 1495.4313 2.8117599 255 255 255
2433.7825 1642.198 2.4174974 255 255 255
607.20612 831.42316 1.4821732 255 255 255
384.67218 474.74469 1.0934976 255 255 255
3078.854 942.15875 3.2855299 255 255 255
476.84912 914.96167 1.461586 255 255 255
593.44623 714.61414 1.4160023 255 255 255
10624.817 6204.9849 10.868531 255 255 255
1479.7233 2096.3081 5.6283207 255 255 255
661.55023 846.73267 1.5217496 255 255 255
752.0896 370.69644 1.5663633 255 255 255
430.92624 1070.1691 1.672562 255 255 255
356.66788 578.25507 0.51813817 255 255 255
-339.15033 -443.14957 -2.2133718 255 255 255
-164.18657 -333.42197 -1.7899367 255 255 255
-59.911415 -103.88607 -1.1204528 255 255 255
944.50543 1222.2927 2.3677218 255 255 255
1135.8059 848.23187 1.9245095 255 255 255
524.52515 708.36694 1.3576754 255 255 255
423.36874 404.34637 1.0926906 255 255 255
2957.4092 1452.5792 2.748291 255 255 255
2867.2874 1495.1244 2.6875772 255 255 255
1142.1006 819.935 1.9337741 255 255 255
731.16248 464.44055 1.5079097 255 255 255
516.46417 821.59137 1.4210736 255 255 255
2868.3772 1309.9619 2.8205929 255 255 255
-7653.6294 -7471.7246 -11.036647 255 255 255
3124.9028 1764.3475 3.3631556 255 255 255
6625.0825 4717.8677 7.2633042 255 255 255
-1048.3708 -634.27112 -2.3925474 255 255 255
-5484.5063 -3987.9036 -8.6924038 255 255 255
-150.02933 -409.95532 -1.8461351 255 255 255
453.13593 1039.8158 1.5493219 255 255 255
997.8927 1162.1763 1.605351 255 255 255
5740.8188 3948.5007 6.9679971 255 255 255
633.27325 1287.7484 1.8346864 255 255 255
-2324.2458 -2815.123 -4.7844415 255 255 255
556.88098 949.80634 1.517139 255 255 255
524.39679 347.98462 0.65726286 255 255 255
9792.9395 4783.5659 9.8320255 255 255 255
-76592.852 -114530.6 -317.94769 255 255 255
291.27457 681.39069 1.2053698 255 255 255
-1820.9972 -1481.5321 -3.2052836 255 255 255
552.04694 876.76459 1.5340694 255 255 255
-1375.2838 -2983.197 -7.2091975 255 255 255
359.30807 437.76065 1.0422661 255 255 255
581.84473 980.21997 1.5448096 255 255 255
15429.66 16222.133 26.167551 255 255 255
-2939.2712 -2965.031 -5.4981952 255 255 255
460.52759 373.13007 1.1299318 255 255 255
1406.1071 1136.8271 1.5524026 255 255 255
-2094.925 -2600.4543 -4.400681 255 255 255
602.70032 1020.7458 1.5768479 255 255 255
-601.22839 -571.17822 -1.8826464 255 255 255
1829.1431 1021.4153 2.2236061 255 255 255
319.15048 427.56726 0.99402475 255 255 255
383.6134 933.42596 1.4429427 255 255 255
2819.4104 4922.771 9.1853743 255 255 255
1402.2255 1207.0565 1.8238457 255 255 255
1237.1556 1247.9946 1.6504195 255 255 255
423.30368 485.52756 1.4662259 255 255 255
2455.1584 1454.6173 2.5680425 255 255 255
1338.0096 1854.3162 2.8826399 255 255 255
183.28545 1184.639 1.6613109 255 255 255
493.67987 476.95526 1.2092801 255 255 255
674.57465 638.04492 1.4594961 255 255 255
587.9364 734.32751 0.73841286 255 255 255
1094.5593 449.60983 1.7034386 255 255 255
288.42731 213.91893 0.32817295 255 255 255
1098.8844 1166.9615 1.8996037 255 255 255
976.09564 1055.8246 1.7892954 255 255 255
594.28137 777.90521 1.4479038 255 255 255
-4339.5293 -3026.1648 -6.8409119 255 255 255
532.16528 335.62695 1.1881757 255 255 255
607.21948 703.25134 1.4218185 255 255 255
604.71729 778.13232 1.4555516 255 255 255
94.065842 941.30884 1.4603781 255 255 255
-889.67731 -513.69495 -2.1733892 255 255 255
56.134563 782.06995 1.3085393 255 255 255
423.22556 370.76721 1.0783132 255 255 255
654.90491 876.07825 0.90090996 255 255 255
2754.6587 1149.0309 2.5722039 255 255 255
-1901.6791 -1597.2316 -7.3824239 255 255 255
-356.87585 -477.24881 -1.8352028 255 255 255
621.38965 710.51007 1.4365282 255 255 255
-584.22852 -609.68567 -2.4023945 255 255 255
419.51141 993.12213 1.4949232 255 255 255
505.20175 994.86072 1.5236179 255 255 255
1185.8442 1793.9064 3.0726964 255 255 255
684.24524 739.54633 0.82241827 255 255 255
653.61462 723.38385 1.4661938 255 255 255
-2149.3184 -1431.3206 -9.3505974 255 255 255
2400.1729 1685.7484 2.552707 255 255 255
523.66724 685.17645 1.3444031 255 255 255
601.41193 755.59454 1.4413068 255 255 255
-784.5119 -990.77454 -2.3184671 255 255 255
617.04639 773.45367 1.4615339 255 255 255
699.94946 1341.7179 1.4277571 255 255 255
683.06342 1026.7378 1.471772 255 255 255
2060.8108 990.68604 2.0894237 255 255 255
-972.02765 -1038.5653 -4.2553978 255 255 255
187.21715 1202.2761 1.6745707 255 255 255
1215.8358 1017.4736 3.208169 255 255 255
642.32574 613.15802 1.4203287 255 255 255
677.91449 1334.1182 1.7574614 255 255 255
832.83899 1946.0441 3.9081922 255 255 255
442.48749 337.01251 1.0992631 255 255 255
363.94769 1306.4478 1.7164475 255 255 255
444.75061 449.77481 1.1130764 255 255 255
-1671.8009 -2232.2476 -3.3541353 255 255 255
2911.387 1366.7996 2.782357 255 255 255
1429.2755 1613.3246 2.2621677 255 255 255
-4511.4131 -7117.188 -11.648524 255 255 255
-51014.746 -26257.35 -51.681362 255 255 255
3517.3005 4567.5869 13.623296 255 255 255
666.93982 505.94684 0.72634226 255 255 255
439.82547 530.46301 1.1825024 255 255 255
-1448.2709 -1162.5118 -3.0102308 255 255 255
664.82104 918.29169 1.4915172 255 255 255
317.94189 898.01453 1.4012588 255 255 255
468.52966 958.16364 1.4870293 255 255 255
2991.0044 1332.1637 2.8388586 255 255 255
2932.4475 1290.2523 2.847996 255 255 255
-201889.44 -119023.37 -219.79576 255 255 255
378.00671 185.78325 0.38586468 255 255 255
-1036.8026 -993.69495 -4.1228781 255 255 255
624.47351 1015.759 1.5839471 255 255 255
-1922.3276 -3496.9114 -10.100173 255 255 255
-4328.3398 -4343.1309 -12.677018 255 255 255
2790.5471 1485.2954 2.658705 255 255 255
4329.3237 2612.8667 4.5443697 255 255 255
1890.0756 1239.2301 3.648674 255 255 255
-3965.6667 -4154.9731 -6.8203077 255 255 255
590.84637 320.83646 0.7725454 255 255 255
-3970.4009 -1896.8839 -6.0662823 255 255 255
501.11478 436.16995 1.2036905 255 255 255
2648.176 1789.978 2.9403005 255 255 255
-499.29694 -418.42636 -1.7984077 255 255 255
-540.3103 -477.01044 -1.7696351 255 255 255
1139.4447 787.14178 1.9353774 255 255 255
-10889.641 -5700.2383 -13.305145 255 255 255
-819.75641 -801.71002 -2.0319083 255 255 255
-828.6972 -622.99884 -1.9879876 255 255 255
1516.3396 1360.1233 2.1405456 255 255 255
572.17633 865.02448 1.477843 255 255 255
471.71594 946.34546 1.4800531 255 255 255
1126.8665 994.28595 1.9119158 255 255 255
334.28903 397.67908 0.77626735 255 255 255
504.21844 990.7832 1.5195135 255 255 255
161.45953 137.76993 0.528359 255 255 255
951.87573 1122.4105 2.4594557 255 255 255
545.94141 836.69336 0.79913354 255 255 255
1489.3938 1341.1238 2.0545032 255 255 255
105.26821 269.60101 0.64162666 255 255 255
643.42999 1050.3782 1.6089181 255 255 255
1495.8805 1985.5309 4.2205644 255 255 255
542.04138 191.15349 0.61355203 255 255 255
1367.7098 1535.3811 4.1607623 255 255 255
-609.85376 -543.49713 -1.8055803 255 255 255
527.05945 860.27014 1.6689025 255 255 255
542.73773 395.74634 1.2470864 255 255 255
620.59747 623.30725 1.3998387 255 255 255
2939.1375 1355.4391 2.7313633 255 255 255
351.19421 501.10568 1.0836688 255 255 255
590.18555 732.33331 1.4213589 255 255 255
1550.9812 1293.1508 1.7236611 255 255 255
567.53247 693.22736 1.382358 255 255 255
479.33279 780.63898 1.3760614 255 255 255
1089.1204 723.59949 1.07621 255 255 255
638.54272 1039.6312 1.6030242 255 255 255
680.79059 649.32825 1.4684885 255 255 255
-2094.1125 -2692.7656 -7.458765 255 255 255
-728.41852 -498.11334 -1.8571774 255 255 255
487.83267 420.94049 1.1809694 255 255 255
184.50098 1191.8425 1.6666567 255 255 255
648.24274 1291.1348 1.73147 255 255 255
760.64325 613.79181 0.99878752 255 255 255
472.84244 567.89844 1.2338426 255 255 255
2787.5002 4323.1489 9.17064 255 255 255
501.18387 603.43768 1.2796111 255 255 255
408.69858 350.8493 1.0515298 255 255 255
502.73499 828.62433 1.4183298 255 255 255
482.517 415.25916 0.5414601 255 255 255
319.68314 208.4205 0.86185551 255 255 255
918.92908 537.04688 1.9469192 255 255 255
524.53839 624.29352 1.0630513 255 255 255
423.31421 352.91562 1.072343 255 255 255
478.91898 569.39893 1.2405869 255 255 255
-3568.6047 -1965.7427 -7.8156133 255 255 255
424.20694 581.06836 0.66040599 255 255 255
-754.38922 -848.92853 -2.0793602 255 255 255
438.99442 437.93872 1.1292639 255 255 255
178.2023 834.74884 1.3439895 255 255 255
-2337.1702 -2805.0454 -4.6555362 255 255 255
-4715.1094 -3955.0146 -14.687288 255 255 255
-1885.422 -2197.988 -3.942838 255 255 255
-552.27344 -493.3606 -1.7301694 255 255 255
1206.3217 770.81818 1.2427961 255 255 255
2679.178 2047.5945 2.8226523 255 255 255
442.10861 660.85223 1.0553354 255 255 255
1242.108 548.19031 2.1469204 255 255 255
382.6777 394.22595 0.6682266 255 255 255
601.58191 519.64435 0.68676549 255 255 255
-13147.734 -9923.918 -19.466263 255 255 255
235.05617 554.84332 1.0576036 255 255 255
6176.7568 5761.9028 8.7512188 255 255 255
2727.554 1525.2444 2.6333184 255 255 255
548.93073 651.62787 1.3467032 255 255 255
45.164364 827.92383 1.3606522 255 255 255
1123.3849 1186.7261 2.3601422 255 255 255
543.72961 891.45953 1.4767914 255 255 255
4765.3701 2522.832 4.904171 255 255 255
-856.11139 -631.7699 -2.0363595 255 255 255
2761.5457 1202.1367 2.8662612 255 255 255
486.60797 870.0835 1.4358926 255 255 255
325.25516 815.76996 1.3341912 255 255 255
-2103.8999 -1451.7084 -4.9562731 255 255 255
13536.774 7399.8037 13.709082 255 255 255
86.004074 917.35846 1.4387604 255 255 255
4042.8948 1338.4139 4.0948915 255 255 255
20466.768 8047.7012 22.096607 255 255 255
-298.13293 -407.83392 -1.4736933 255 255 255
773.21326 967.45508 1.6353304 255 255 255
165.28499 328.37485 0.75948298 255 255 255
-536.44568 -648.53082 -1.7962824 255 255 255
369.64771 339.5928 0.99191797 255 255 255
540.28693 1303.8723 2.0051739 255 255 255
3414.8926 1092.1953 3.2397273 255 255 255
-1098.6198 -785.95422 -3.8985643 255 255 255
488.00198 975.83655 1.5055155 255 255 255
549.15906 386.67062 1.2589741 255 255 255
114.75669 308.56921 0.7036401 255 255 255
587.13666 930.08234 1.5208664 255 255 255
-531.97711 -886.01752 -2.3934846 255 255 255
536.25531 482.65421 1.26131 255 255 255
-97629.023 -68723.188 -120.04719 255 255 255
390.38751 471.76129 1.0964612 255 255 255
837.14197 939.2467 1.6269989 255 255 255
1861.7833 1247.1384 3.0780425 255 255 255
-285.5632 -328.75952 -1.4162602 255 255 255
270.89948 508.85449 0.75382096 255 255 255
1051.6847 842.39679 3.2918897 255 255 255
-3111.2134 -3781.0815 -5.8647089 255 255 255
2487.4204 1454.9315 2.5812309 255 255 255
1125.1183 904.9649 1.9091079 255 255 255
1415.575 1842.5311 4.0518003 255 255 255
-1000.746 -524.0011 -2.720793 255 255 255
546.23334 868.58362 1.4663204 255 255 255
1038.2239 1589.6947 3.0941935 255 255 255
463.82535 1030.6129 1.5346016 255 255 255
2468.4587 2320.8618 2.7386103 255 255 255
670.89984 1164.5319 1.6777712 255 255 255
515.02954 455.33762 1.2264992 255 255 255
-1490.3143 -1460.684 -3.3338695 255 255 255
-1323.7966 -2564.5149 -3.8620875 255 255 255
-34663.215 -46404.816 -83.073288 255 255 255
-1957.3634 -2412.9702 -3.6338573 255 255 255
306.00516 503.68503 1.049324 255 255 255
477.30194 913.11041 1.4694463 255 255 255
460.42282 1043.2063 1.5430197 255 255 255
-1298.2867 -1152.1797 -2.6429408 255 255 255
528.29498 1030.2191 1.5543771 255 255 255
571.73035 868.8811 1.4784951 255 255 255
1085.3936 1698.1239 2.9431915 255 255 255
-1014.142 -1171.5981 -2.8615763 255 255 255
510.82785 368.74469 0.52639019 255 255 255
721.96149 892.77142 1.5759377 255 255 255
49.146248 363.28561 0.77495432 255 255 255
602.28693 753.52637 1.4413158 255 255 255
537.18018 839.84125 1.4434967 255 255 255
670.59882 1227.3105 1.7043103 255 255 255
3100.0562 1682.793 2.9433153 255 255 255
198.93362 1246.6451 1.707062 255 255 255
-371.47342 -213.34521 -1.4943324 255 255 255
8025.4888 2426.5857 7.6121106 255 255 255
493.19492 824.55939 1.4093633 255 255 255
534.35846 833.0144 1.4382533 255 255 255
446.38626 503.4595 0.94151831 255 255 255
-23976.025 -23980.926 -34.775558 255 255 255
-456.47131 -600.4007 -1.7416364 255 255 255
4163.1367 2083.0403 4.8402743 255 255 255
527.09137 820.86957 1.426578 255 255 255
381.52237 368.02109 0.75520349 255 255 255
682.04346 1291.5795 2.010345 255 255 255
-13664.817 -12164.395 -18.828035 255 255 255
-463.45856 -597.79834 -2.2368896 255 255 255
650.13971 724.1629 1.4631536 255 255 255
475.84509 643.14221 1.2825388 255 255 255
-774.34894 -922.02344 -2.218122 255 255 255
-778.34222 -1239.7617 -3.7006087 255 255 255
824.4295 794.39288 1.3801092 255 255 255
1308.3353 1994.9717 3.0195591 255 255 255
329.2106 292.3092 0.37639034 255 255 255
746.58038 2052.3979 3.7100573 255 255 255
-2774.2522 -6002.4282 -10.722386 255 255 255
-2528.363 -3254.5627 -5.5232286 255 255 255
1835.6925 830.11285 2.5648365 255 255 255
2630.0078 4489.8481 7.6549273 255 255 255
-987.2417 -944.62048 -3.3211191 255 255 255
806.50739 988.46283 1.678795 255 255 255
534.94128 180.13983 0.52324992 255 255 255
388.12888 582.52472 1.1762573 255 255 255
1731.6146 5887.2549 10.110008 255 255 255
636.71509 1096.3726 1.6297597 255 255 255
-1573.4531 -1792.6769 -3.1526227 255 255 255
452.65039 445.29837 0.67270625 255 255 255
1767.8508 1567.9626 2.2390907 255 255 255
489.73929 854.41907 1.4263716 255 255 255
396.62936 476.1058 0.80237228 255 255 255
3168.679 747.67535 2.9722178 255 255 255
654.9173 2205.811 3.1526093 255 255 255
574.32141 721.05389 1.4026664 255 255 255
3409.1299 4551.5259 7.9635935 255 255 255
-2044.6544 -1466.054 -4.9234576 255 255 255
730.2865 329.71036 0.87846351 255 255 255
396.29636 459.21173 0.55357057 255 255 255
653.83032 725.93903 1.4515834 255 255 255
975.17194 2735.5923 4.3947921 255 255 255
579.57391 721.12054 1.4072455 255 255 255
990.40222 552.64856 0.98928523 255 255 255
11663.542 19730.334 41.603825 255 255 255
483.25394 871.32056 1.4348642 255 255 255
555.47418 917.34473 1.1012983 255 255 255
2609.9104 1817.9777 2.4827983 255 255 255
1553.1895 1294.88 1.7275547 255 255 255
55847.609 57743.781 85.407906 255 255 255
-631.19287 -478.18427 -1.8109342 255 255 255
-834.60236 -746.21167 -2.0341582 255 255 255
600.9967 828.29761 1.4770652 255 255 255
-184818.3 -103686.72 -200.9883 255 255 255
381.14081 456.47617 0.74196982 255 255 255
-494.08984 -551.99579 -2.5375609 255 255 255
1122.6772 976.36206 1.9084325 255 255 255
-2083.5789 -2085.9897 -3.7222486 255 255 255
557.4729 763.45154 1.413131 255 255 255
389.14343 910.41162 1.4105411 255 255 255
612.6955 833.26935 1.1580509 255 255 255
707.8808 426.02133 0.7637524 255 255 255
787.43433 982.57861 1.6521502 255 255 255
216.41565 1163.2803 1.6377413 255 255 255
-1762.8059 -2624.6609 -4.2925043 255 255 255
573.33185 665.89032 1.3753747 255 255 255
1738.9338 3321.4709 5.9338541 255 255 255
1581.7887 1428.9596 2.1600175 255 255 255
-301.31039 -406.45105 -2.1742442 255 255 255
-703.50787 -689.70343 -2.0047095 255 255 255
-636.30249 -596.84399 -2.0043874 255 255 255
-3264.6958 -1528.6343 -5.0563917 255 255 255
561.9469 615.94824 1.3423142 255 255 255
12620.19 7428.0493 23.135456 255 255 255
202.7697 1305.7081 1.7514641 255 255 255
939.57812 1701.197 2.9323084 255 255 255
1487.2941 1959.2511 4.6275716 255 255 255
-1300.5582 -1207.1422 -2.8989027 255 255 255
477.07217 773.83911 1.3695538 255 255 255
-1006.0153 -1054.0502 -2.6148143 255 255 255
624.20184 1072.1857 1.6132236 255 255 255
372.27798 685.79333 0.97293669 255 255 255
620.92657 959.62207 2.0380063 255 255 255
623.17749 1035.6854 1.5927953 255 255 255
536.99994 497.41898 0.72475946 255 255 255
-292.96335 -358.02826 -2.3363044 255 255 255
-270.19809 -200.42068 -1.5964105 255 255 255
-749.1936 -583.14392 -2.0106175 255 255 255
618.45966 992.74884 1.5695951 255 255 255
585.05902 721.96625 1.441813 255 255 255
441.2363 447.21716 0.98040879 255 255 255
-912.42352 -674.79718 -2.3680496 255 255 255
-759.46326 -362.42099 -1.9833162 255 255 255
306.64661 239.34584 0.82281274 255 255 255
-956.19958 -1829.3959 -4.7420154 255 255 255
-947.65601 -1015.517 -2.314621 255 255 255
477.95636 712.74103 1.3372103 255 255 255
-1004.9111 -810.86444 -2.2458484 255 255 255
621.14789 990.47162 1.569357 255 255 255
683.13214 1336.2129 1.760299 255 255 255
2271.1941 1671.6389 2.4129152 255 255 255
257.46832 566.00983 1.1461194 255 255 255
642.7218 768.82654 1.2163854 255 255 255
402.98615 256.75919 0.43996125 255 255 255
6602.0498 4991.7959 6.7928772 255 255 255
6083.457 2305.6636 5.9457355 255 255 255
8893.2607 3063.2825 8.431819 255 255 255
-229.09831 -411.77872 -1.6871046 255 255 255
-804.62109 -785.51746 -2.1055746 255 255 255
-464.84171 -410.32047 -2.2079065 255 255 255
-1852.0033 -2194.1772 -5.1052675 255 255 255
1767.8271 1675.3036 2.5349824 255 255 255
605.60809 1040.2262 1.5866078 255 255 255
-795.70319 -428.94791 -2.14397 255 255 255
-525.69287 -628.00647 -1.8751645 255 255 255
-992.70404 -1375.4749 -2.5719554 255 255 255
-824.33972 -590.85791 -1.9760852 255 255 255
481.27908 1365.161 2.1365364 255 255 255
-185.56242 -196.2401 -1.281938 255 255 255
-147.9631 -91.652634 -1.1704897 255 255 255
274.25552 605.18878 1.2957063 255 255 255
571.06506 1061.1075 1.5870816 255 255 255
-1911.5603 -1390.0192 -3.3175135 255 255 255
-2327.1616 -818.64081 -3.8226826 255 255 255
-3375.4233 -1868.5247 -7.4571662 255 255 255
1776.288 1449.972 2.2412705 255 255 255
601.11859 756.06097 1.441292 255 255 255
557.04364 949.35858 1.5165582 255 255 255
10291.148 3227.2166 10.154639 255 255 255
-1405.2732 -450.43054 -2.7288136 255 255 255
11367.319 5525.0278 11.407578 255 255 255
2714.1797 3679.845 9.5199165 255 255 255
1515.2681 1360.3691 2.1395462 255 255 255
-1662.2672 -1058.4055 -3.7959621 255 255 255
387.85486 323.29059 1.0100824 255 255 255
556.71368 700.43048 1.3765646 255 255 255
818.68469 917.82227 0.95659769 255 255 255
3682.1445 1112.0264 3.5917037 255 255 255
486.22302 868.88306 1.4348899 255 255 255
670.71204 1177.4957 1.3948331 255 255 255
583.04932 900.05389 1.5022238 255 255 255
1696.816 873.23657 1.7482375 255 255 255
-795.2583 -591.04871 -1.8951606 255 255 255
548.61584 291.40808 0.58165771 255 255 255
-1046.0319 -886.91425 -3.2990491 255 255 255
375.02576 452.97699 0.45991683 255 255 255
50579.527 27112.068 53.170475 255 255 255
620.58441 732.57764 1.4448327 255 255 255
-635.65295 -369.23502 -1.7277745 255 255 255
1573.0323 1429.2917 2.1620145 255 255 255
223.63895 264.53351 0.25748876 255 255 255
1705.4906 1508.3501 1.9048818 255 255 255
3073.5063 941.11993 3.2807846 255 255 255
3583.7617 1735.3502 3.7240181 255 255 255
-2087.5442 -2084.2678 -4.2059097 255 255 255
1471.739 1385.2043 2.1014116 255 255 255
1387.0892 983.4718 1.487043 255 255 255
602.1665 753.57678 1.4412974 255 255 255
1125.7477 1230.2736 1.9219575 255 255 255
-921.89868 -848.72778 -2.3582845 255 255 255
-23611.674 -41666.672 -81.866089 255 255 255
-3065.2144 -2979.1077 -5.4960003 255 255 255
17774.725 5214.811 17.899498 255 255 255
2909.8818 1312.5645 2.8281758 255 255 255
332.6748 138.12648 0.30876943 255 255 255
372.20694 395.33963 1.0271516 255 255 255
2006.8917 1514.3494 2.3332906 255 255 255
450.06363 493.76056 1.1698099 255 255 255
426.56473 292.43192 1.0613546 255 255 255
2906.9438 1364.9674 2.7784121 255 255 255
-161.9221 -198.72124 -1.6777848 255 255 255
586.74426 762.81915 1.4329246 255 255 255
591.91357 767.38776 1.4394436 255 255 255
-161.50655 -263.77057 -1.5295911 255 255 255
-262171.91 -137971.75 -275.48709 255 255 255
977.70532 1058.1042 1.7941554 255 255 255
4807.4497 1608.7471 4.8616471 255 255 255
512.67377 712.43066 0.91643006 255 255 255
1133.7125 849.17206 1.9228233 255 255 255
470.7626 618.61963 1.2628485 255 255 255
589.26038 731.86627 1.4200343 255 255 255
460.08942 372.64679 1.1290685 255 255 255
1026.442 1101.5193 3.1083777 255 255 255
70.57 399.64557 0.83119726 255 255 255
532.65375 698.22388 1.3591359 255 255 255
-954.39392 -916.66626 -2.3893197 255 255 255
1037.978 1414.9901 2.333128 255 255 255
421.62772 403.10864 1.0895506 255 255 255
3006.3098 1340.3051 2.8356793 255 255 255
2962.8127 1408.8256 2.7836661 255 255 255
2843.3435 1423.4591 2.7195802 255 255 255
2007.52 1515.9054 2.3303418 255 255 255
-2240.7727 -2338.0544 -4.6022582 255 255 255
252.6539 161.56932 0.71902037 255 255 255
643.95996 1052.1531 1.6105791 255 255 255
-270.37711 -819.61804 -2.7447703 255 255 255
161.8076 138.11575 0.52958852 255 255 255
2743.6882 1208.6288 3.5410821 255 255 255
178.0351 832.98065 1.3402135 255 255 255
-8957.0654 -14644.2 -36.761452 255 255 255
536.31897 838.82025 1.4414538 255 255 255
235.18547 554.43945 1.0568933 255 255 255
613.75549 768.00958 1.456063 255 255 255
1240.5615 1138.7592 1.4770075 255 255 255
-895.89233 -1067.8405 -2.3993695 255 255 255
520.94769 678.89948 1.3388394 255 255 255
299.22501 1621.6633 2.4799182 255 255 255
414.022 499.97314 1.1380627 255 255 255
-415.41019 -384.23849 -1.5646709 255 255 255
590.69806 771.01245 1.4407549 255 255 255
45.324673 827.21997 1.3596257 255 255 255
1288.3932 1653.0044 3.4138374 255 255 255
-549.46478 -546.15338 -1.7579634 255 255 255
2485.8538 1454.7762 2.5805242 255 255 255
603.89404 777.27301 1.4538146 255 255 255
616.20502 772.51349 1.4592582 255 255 255
605.82239 830.90741 1.4781255 255 255 255
93.980316 941.92816 1.461129 255 255 255
548.4469 761.10254 1.3239014 255 255 255
595.15521 875.01599 1.4960909 255 255 255
661.62274 383.92987 1.4239347 255 255 255
593.49731 714.64215 1.4152652 255 255 255
11204.237 23475.129 34.389435 255 255 255
1586.9266 1372.6509 2.1672449 255 255 255
353.52496 364.69598 0.98457366 255 255 255
-53850.504 -38109.102 -66.652092 255 255 255
-7277.4282 -5977.2876 -17.564859 255 255 255
2999.3828 1348.5398 2.8243196 255 255 255
718.375 1865.7344 3.5116577 255 255 255
1615.3208 832.96692 1.610584 255 255 255
527.86755 391.60782 1.2638347 255 255 255
2832.4382 1552.468 2.6545978 255 255 255
695.48969 973.43628 1.2512989 255 255 255
965.48273 822.31677 1.546533 255 255 255
-24.890566 -120.95734 -1.1868536 255 255 255
-1041.162 -1245.6821 -2.5414934 255 255 255
394.2796 564.4632 1.1658137 255 255 255
-625.039 -1198.2729 -2.8359768 255 255 255
-1512.7112 -1218.2725 -3.3891826 255 255 255
86.092865 918.11908 1.4396263 255 255 255
1184.0679 621.83655 2.0338905 255 255 255
-100.92981 -165.69012 -1.1720486 255 255 255
-5269.3833 -6626.4351 -9.4022169 255 255 255
606.30878 506.76044 0.76871878 255 255 255
403.63406 410.87943 1.0720129 255 255 255
-1388.0701 -1343.4896 -5.7120638 255 255 255
587.90417 692.91425 1.3990539 255 255 255
788.47064 899.64258 2.3015401 255 255 255
2980.0132 991.28772 3.1863258 255 255 255
1106.0956 1047.0256 1.8964852 255 255 255
2983.8389 1231.2008 2.9297688 255 255 255
-737.22052 -716.28424 -2.0464067 255 255 255
9204.2812 2740.53 8.8688879 255 255 255
-2969.2085 -3562.0239 -5.6274047 255 255 255
549.07373 954.26251 0.86441737 255 255 255
533.32513 837.61469 1.4382561 255 255 255
544.96075 380.83008 1.2501183 255 255 255
594.18323 744.02869 1.4285842 255 255 255
1602.5737 1379.3977 2.18223 255 255 255
384.47116 474.20343 1.092577 255 255 255
354.47421 761.19238 1.2990899 255 255 255
3200.2542 2688.3931 3.6073053 255 255 255
420.70822 442.17828 1.1093822 255 255 255
832.41302 1300.3402 1.88703 255 255 255
375.89957 384.25562 0.74011111 255 255 255
2987.5554 1331.1409 2.8362372 255 255 255
-24622.018 -21697.676 -36.784363 255 255 255
1862.5214 1310.7279 4.4533644 255 255 255
383.90906 342.93246 1.0125158 255 255 255
-794.9762 -675.88318 -2.0056579 255 255 255
374.90277 340.49811 0.9978466 255 255 255
-13881.273 -12048.903 -41.665558 255 255 255
-514.83008 -233.85217 -1.5674005 255 255 255
260.80219 1376.632 2.8211505 255 255 255
620.08875 514.77075 1.3690157 255 255 255
438.44608 437.2067 1.1268355 255 255 255
-21013.766 -21757.531 -31.054211 255 255 255
422.15524 370.00439 1.0759181 255 255 255
473.36957 574.2019 1.2406864 255 255 255
-1522.0537 -1839.7701 -3.3941534 255 255 255
-817.79578 -1237.5668 -2.3037415 255 255 255
355.34933 212.5948 0.48462492 255 255 255
-1019.9299 -869.92615 -2.5743387 255 255 255
522.48236 816.21344 1.4224328 255 255 255
2997.8877 1338.5081 2.8413217 255 255 255
2896.8364 1364.5863 2.7784133 255 255 255
128.14513 217.85973 0.58884466 255 255 255
648.39789 1291.6354 1.7325091 255 255 255
489.47293 311.33539 1.1645257 255 255 255
-1946.764 -1290.0864 -6.6217785 255 255 255
2841.9387 1435.0542 2.7106004 255 255 255
1140.5751 862.04974 1.9410012 255 255 255
-434.60577 -363.54849 -1.5091747 255 255 255
-1070.4794 -965.14911 -4.4319491 255 255 255
585.57123 384.61386 0.6090498 255 255 255
166.96764 398.1669 0.84751081 255 255 255
472.6781 609.22241 1.2588536 255 255 255
408.74344 462.84744 0.88306397 255 255 255
543.88892 468.30826 1.2654765 255 255 255
1556.8679 1350.283 2.1607778 255 255 255
543.4892 891.9079 1.4781766 255 255 255
2938.5291 1243.5328 2.8969281 255 255 255
-577.18439 -702.55426 -1.8952816 255 255 255
327.09195 808.00073 1.327933 255 255 255
-430.61176 -411.21954 -1.8512235 255 255 255
-902.32465 -593.87567 -2.0651598 255 255 255
511.9281 830.86554 1.4217259 255 255 255
582.29761 980.66193 1.5462121 255 255 255
-514.69458 -256.03766 -1.7244774 255 255 255
251.01782 642.06519 0.9248541 255 255 255
347.94955 191.4633 0.35507768 255 255 255
4787.8735 3871.0579 5.2058659 255 255 255
2640.9673 1983.6191 2.7627933 255 255 255
-1165.0081 -2520.2637 -6.4928212 255 255 255
4773.6694 1580.9911 5.6038198 255 255 255
573.21259 842.74078 1.464841 255 255 255
-2040.9176 -1847.3524 -4.9550734 255 255 255
9062.8955 3171.8608 10.193413 255 255 255
-1613.072 -1315.351 -6.1022158 255 255 255
8760.7656 5224.1533 8.8755217 255 255 255
1297.1427 1255.6476 3.4102254 255 255 255
-3255.0286 -4148.3516 -6.2739844 255 255 255
748.34174 509.80066 0.82086271 255 255 255
-757.43707 -545.5047 -2.0492444 255 255 255
-1872.8221 -1125.6202 -3.1303532 255 255 255
1556.1199 1235.4702 5.2720737 255 255 255
-902.16376 -1653.0197 -4.7034101 255 255 255
-560.58563 -852.16022 -3.4065728 255 255 255
3766.0256 1314.139 3.7350128 255 255 255
245.56961 454.27829 0.67310625 255 255 255
-226.75679 -349.733 -2.081058 255 255 255
5950.4272 3420.4324 6.1421623 255 255 255
528.15894 652.22223 1.3287282 255 255 255
517.91638 1045.391 1.5612606 255 255 255
-981.40314 -469.88278 -2.1156197 255 255 255
-1602.5477 -3336.28 -5.9655466 255 255 255
958.95856 1377.9581 4.5979843 255 255 255
-3667.634 -16222.596 -23.691082 255 255 255
-321.76959 -202.45256 -1.4554024 255 255 255
1692.1022 1515.6896 2.1925197 255 255 255
-5203.5088 -4424.6782 -8.3366947 255 255 255
574.12915 405.75687 0.65129137 255 255 255
5924.6592 4524.0171 6.4511194 255 255 255
628.26154 936.20673 1.5458616 255 255 255
2640.9607 4198.5483 8.012085 255 255 255
3495.0381 900.24402 3.4754772 255 255 255
372.80084 406.91788 0.67013335 255 255 255
-1247.4189 -779.92615 -2.8043435 255 255 255
702.55164 1185.9104 0.96290004 255 255 255
885.19073 572.68231 0.9676156 255 255 255
2212.7749 1500.799 2.4461198 255 255 255
713.97418 1266.8463 2.2165573 255 255 255
527.78021 1030.4186 1.5542451 255 255 255
658.89929 546.3905 0.7076472 255 255 255
-333.63507 -323.06622 -2.1610897 255 255 255
399.27148 797.08258 1.3463362 255 255 255
635.13068 636.21558 1.4207187 255 255 255
463.69211 1030.6744 1.5344633 255 255 255
-1086.1532 -1132.9517 -4.3040175 255 255 255
602.76843 1021.2625 1.5783955 255 255 255
-6598.084 -6613.2969 -10.780351 255 255 255
1571.8743 1514.3732 1.6975175 255 255 255
664.05542 1080.126 1.8996928 255 255 255
4758.7603 3456.9978 5.3040318 255 255 255
1603.1974 1723.205 4.6810045 255 255 255
3079.4473 1480.4357 2.7454722 255 255 255
137.10098 269.01035 0.57068419 255 255 255
2831.9001 1427.3756 2.7140281 255 255 255
259.53455 592.79041 1.1063317 255 255 255
4169.8105 1272.0837 4.1263909 255 255 255
641.61633 707.78766 1.4517175 255 255 255
472.33035 866.56262 1.4249188 255 255 255
-324.3949 -219.86446 -1.4206601 255 255 255
624.98645 417.31674 1.3666261 255 255 255
618.13068 791.69995 1.4716543 255 255 255
-216.14012 -271.50626 -1.364747 255 255 255
-1665.7565 -1186.5851 -3.2425325 255 255 255
-370.59442 -381.29541 -1.608451 255 255 255
-862.44751 -858.55194 -2.271872 255 255 255
746.91345 753.34296 0.90718096 255 255 255
-12886.029 -5887.8823 -22.497101 255 255 255
533.18707 583.96936 0.61611009 255 255 255
-19052.908 -13297.909 -23.744753 255 255 255
183.29869 1124.8182 1.6108433 255 255 255
737.43622 685.6203 0.72848415 255 255 255
-1208.9321 -884.44531 -2.4377697 255 255 255
846.28265 1141.8855 2.4600139 255 255 255
1461.5079 1152.1915 1.5253011 255 255 255
429.1304 309.66144 0.7709533 255 255 255
52.658306 348.10538 0.59529698 255 255 255
-581.1449 -591.68927 -1.9179755 255 255 255
575.73059 1022.791 1.5653756 255 255 255
-779.28387 -705.80792 -4.6419063 255 255 255
1396.6066 890.77533 2.1519742 255 255 255
612.20056 710.422 2.643096 255 255 255
615.70795 701.99408 1.4261225 255 255 255
3976.4292 4765.3706 5.8736043 255 255 255
112.57247 1047.5928 1.5541481 255 255 255
-1401.4567 -1416.9423 -2.8127203 255 255 255
-394.57602 -590.36365 -2.4084432 255 255 255
446.71661 503.3335 0.94036758 255 255 255
2791.9194 850.34442 3.2650745 255 255 255
-14173.615 -17996.023 -40.179634 255 255 255
637.35193 1096.4226 1.6298872 255 255 255
-163.96022 -65.226677 -1.2035835 255 255 255
433.24252 208.7618 0.43393648 255 255 255
750.91565 370.95187 1.5649009 255 255 255
-341.74112 -393.38123 -1.5353631 255 255 255
1857.3799 2143.9207 2.7152073 255 255 255
476.68552 914.55811 1.4612399 255 255 255
2519.6348 1885.4232 3.6950092 255 255 255
736.36823 2476.7351 3.7329788 255 255 255
4521.144 1534.1475 4.4197693 255 255 255
515.73639 644.01398 1.3143642 255 255 255
478.62622 627.63159 1.2751189 255 255 255
618.33978 793.83356 1.4725802 255 255 255
157.25877 1162.7394 1.6466118 255 255 255
787.29352 517.99164 0.84715325 255 255 255
2966.7554 998.72253 3.170449 255 255 255
-798.11572 -1053.6659 -2.2149465 255 255 255
1751.3264 1055.7607 2.0945551 255 255 255
-479.50253 -571.8587 -2.6076765 255 255 255
-223.44699 -613.39661 -1.9696472 255 255 255
2946.2747 1517.0338 2.689383 255 255 255
504.99133 993.30621 1.5233308 255 255 255
487.71259 975.09796 1.5041311 255 255 255
105.21588 268.71194 0.63914645 255 255 255
878.78937 1229.5392 2.1803944 255 255 255
-941.42627 -1206.6539 -2.4912267 255 255 255
2774.2078 1471.1173 2.6776879 255 255 255
-956.86084 -851.31744 -2.1867836 255 255 255
398.27603 282.05878 1.0136846 255 255 255
-522.91956 -547.25464 -1.7640351 255 255 255
-764.21985 -1095.0587 -2.3536658 255 255 255
1697.8519 1525.5217 2.2173557 255 255 255
1179.13 780.7229 1.1911998 255 255 255
113.99265 881.7428 1.4001116 255 255 255
305.38019 503.05734 1.0484914 255 255 255
6080.9121 2884.8542 5.8544149 255 255 255
587.0741 930.42615 1.5205022 255 255 255
-1857.0326 -3439.0959 -5.0211854 255 255 255
1705.1819 891.1142 1.7790157 255 255 255
19352.053 24620.062 43.421696 255 255 255
-759.74329 -2073.9268 -4.0908122 255 255 255
369.16245 339.47745 0.99112248 255 255 255
2639.9878 1795.7618 2.4838626 255 255 255
-646.97375 -1843.7897 -4.0292201 255 255 255
452.6124 570.78796 1.2191325 255 255 255
688.68115 687.83734 0.80836636 255 255 255
1114.6837 986.91351 1.9017128 255 255 255
-627.03906 -320.44958 -1.6986824 255 255 255
372.13474 424.23013 1.0444251 255 255 255
-1420.7349 -1607.135 -3.0209892 255 255 255
479.28485 463.33432 1.1866 255 255 255
-1159.5906 -718.83905 -2.533021 255 255 255
-2412.9226 -2730.7146 -4.7142711 255 255 255
-441.54581 -371.51825 -1.5267727 255 255 255
-12992.981 -11613.699 -39.608231 255 255 255
-21050.246 -21837.367 -29.364986 255 255 255
351.18948 366.17325 0.81421858 255 255 255
-3106.6584 -3813.5691 -11.874013 255 255 255
-439.47903 -597.86621 -2.3173161 255 255 255
1169.684 1849.5217 3.5830832 255 255 255
626.98785 719.40186 1.4441137 255 255 255
100.02463 259.78027 0.62247068 255 255 255
2042.4338 1602.2083 2.3496256 255 255 255
-1634.6591 -1497.9304 -3.2203705 255 255 255
198.49516 410.0311 0.61023784 255 255 255
2367.3796 1313.8719 2.1875801 255 255 255
620.59491 974.43854 1.5608215 255 255 255
493.15878 476.61392 1.2070774 255 255 255
-40042.395 -51183.496 -92.262238 255 255 255
-428.04794 -395.61716 -1.5472013 255 255 255
2639.5928 733.0719 3.8734379 255 255 255
516.62616 822.16632 1.4215206 255 255 255
4552.7715 1912.1051 4.3908978 255 255 255
423.73752 351.27829 0.45219988 255 255 255
410.50421 501.57089 1.1367247 255 255 255
679.73328 648.15137 1.4655423 255 255 255
464.21878 429.5766 0.52108043 255 255 255
2867.1392 1393.4478 2.75734 255 255 255
3821.2412 1991.2983 3.7331355 255 255 255
691.84198 1092.3035 2.3040841 255 255 255
897.52448 567.25934 1.245977 255 255 255
515.94202 456.09467 1.2289243 255 255 255
2105.8755 1012.4944 2.1432395 255 255 255
4359.7568 2402.9646 4.5291247 255 255 255
-2840.1333 -4025.9819 -5.8602238 255 255 255
-599.86731 -648.46924 -1.9077369 255 255 255
968.849 970.09601 2.0839894 255 255 255
430.35846 1015.7525 1.5947181 255 255 255
1063.3367 980.4176 1.5284081 255 255 255
-1051.2347 -1546.8243 -3.1835799 255 255 255
-2335.748 -1606.1671 -3.9130836 255 255 255
620.60626 690.17297 1.427485 255 255 255
-281.92624 -138.46294 -1.3698119 255 255 255
683.37885 721.70789 0.81207472 255 255 255
-3860.2214 -4658.4556 -7.0736122 255 255 255
-393.76559 -221.34789 -1.4470829 255 255 255
-33.037518 -100.69714 -1.1751984 255 255 255
1896.5867 3396.8657 6.6294689 255 255 255
4904.8018 2207.8425 5.1475596 255 255 255
-22528.166 -22409.367 -57.176201 255 255 255
602.90356 943.49377 1.5361527 255 255 255
-2437.6963 -3508.8022 -5.1396379 255 255 255
-3804.0366 -3609.5303 -6.3394856 255 255 255
-12404.264 -4948.729 -16.877274 255 255 255
33669.566 34130.223 81.593391 255 255 255
1444.4125 1068.4429 5.6399579 255 255 255
-528.54303 -493.03049 -2.2069571 255 255 255
-2548.0195 -3025.2339 -5.0531192 255 255 255
-2344.4514 -2788.0657 -9.3801432 255 255 255
-1116.4323 -1042.9653 -2.698456 255 255 255
-457.64722 -313.24716 -1.6852548 255 255 255
-1118.9646 -772.47064 -2.5682452 255 255 255
4862.6245 2046.5243 4.8205442 255 255 255
-825.81451 -619.62274 -4.4145942 255 255 255
317.90872 898.88104 1.4025884 255 255 255
-287.69904 -400.85916 -1.9234132 255 255 255
-443.36749 -457.85739 -1.5943345 255 255 255
-1557.0323 -1888.4728 -3.2983 255 255 255
160.76878 1073.8331 1.5695878 255 255 255
2084.2673 3435.3667 6.5922227 255 255 255
-10482.937 -10253.764 -15.163702 255 255 255
613.80096 827.28876 1.4850471 255 255 255
622.83997 1070.6089 1.6107645 255 255 255
894.69812 1180.7693 2.9875922 255 255 255
-1376.9607 -1602.6288 -2.8772094 255 255 255
2924.6191 1290.6211 2.8409863 255 255 255
1062.0531 1791.9298 2.0376358 255 255 255
51.399883 136.41696 0.21850358 255 255 255
471.74213 946.86029 1.4810332 255 255 255
38.29237 944.44135 1.6504488 255 255 255
643.43683 861.03088 0.8926509 255 255 255
-458.19684 -5722.1802 -25.963408 255 255 255
860.37671 612.78259 0.92882377 255 255 255
3091.0129 1186.3254 2.9931576 255 255 255
336.20303 228.90959 0.37384883 255 255 255
-209.4722 -111.41286 -1.2767901 255 255 255
461.06329 372.61954 1.1302339 255 255 255
442.979 323.03885 0.6854822 255 255 255
-6600.0625 -5616.7051 -10.135318 255 255 255
112810.42 44208.008 111.55005 255 255 255
1510.4613 1353.3096 2.1318974 255 255 255
1554.6906 643.7121 2.437844 255 255 255
2983.2739 1231.6412 2.9283054 255 255 255
3732.021 2164.5769 3.7841663 255 255 255
2905.312 1346.6655 2.7951322 255 255 255
-965.94336 -539.21027 -2.118017 255 255 255
-653.51385 -373.0426 -1.7527744 255 255 255
539.198 758.05841 2.8278952 255 255 255
643.26666 1050.819 1.6084733 255 255 255
425.7388 358.00427 1.0767165 255 255 255
557.25555 949.48029 1.5170997 255 255 255
-4330.6201 -4916.3799 -12.678184 255 255 255
488.47388 310.88211 1.1634731 255 255 255
508.59924 170.61464 0.49009952 255 255 255
-528.41388 -382.66867 -1.7295781 255 255 255
517.61145 448.05765 0.61155397 255 255 255
2961.8081 1408.6478 2.7821686 255 255 255
482.40829 468.98853 1.1931037 255 255 255
517.84436 372.83499 0.54550016 255 255 255
434.68295 268.63861 1.0731876 255 255 255
588.17236 692.70355 1.4000039 255 255 255
415.38422 424.74899 1.0937803 255 255 255
873.4729 1310.6307 2.9821353 255 255 255
-8824.2354 -5943.8218 -11.706901 255 255 255
-118.62321 -220.36827 -1.3836772 255 255 255
3055.9133 932.28668 3.2698381 255 255 255
-494.70767 -667.19202 -2.5550666 255 255 255
520.50989 673.84937 1.3342558 255 255 255
581.5943 2835.5 5.3726873 255 255 255
-666.58948 -424.51706 -2.2067637 255 255 255
2046.9268 1603.5239 2.3559752 255 255 255
175.61041 274.60626 0.58463216 255 255 255
-201.95494 -109.86248 -1.233151 255 255 255
3247.6475 1164.1824 3.0715675 255 255 255
5976.1709 4351.0405 6.5250864 255 255 255
2859.9348 1437.8462 2.7161856 255 255 255
-7457.0952 -8868.7334 -12.633888 255 255 255
3192.4656 1641.8285 3.3767319 255 255 255
526.74628 711.68335 1.3634566 255 255 255
610.79956 1836.2736 3.687942 255 255 255
4521.0894 7241.6431 14.208795 255 255 255
-981.23059 -603.90613 -2.2657173 255 255 255
621.35638 732.62891 1.4453086 255 255 255
-282.259 -119.46714 -1.3575484 255 255 255
5655.4653 4374.7759 6.1663628 255 255 255
595.73248 744.54297 1.4304572 255 255 255
414.16635 499.85486 1.13826 255 255 255
1165.8591 1110.6144 1.3996687 255 255 255
-826.80316 -465.68439 -1.8957936 255 255 255
1466.0701 1378.796 2.0928757 255 255 255
2909.5276 1366.0154 2.7806664 255 255 255
468.61798 1020.9604 1.6923212 255 255 255
2898.9309 1367.0942 2.7775803 255 255 255
-1082.0918 -560.0556 -2.375689 255 255 255
418.43524 211.3743 0.44321167 255 255 255
497.79688 245.20639 1.1897599 255 255 255
3409.2012 753.35699 3.6906586 255 255 255
972.93176 696.5058 1.1913071 255 255 255
