ply
format ascii 1.0
comment PCL generated
element vertex 1107
property float x
property float y
property float z
property uchar red
property uchar green
property uchar blue
element face 0
element camera 0
property float view_px
property float view_py
property float view_pz
property float x_axisx
property float x_axisy
property float x_axisz
property float y_axisx
property float y_axisy
property float y_axisz
property float z_axisx
property float z_axisy
property float z_axisz
property float focal
property float scalex
property float scaley
property float centerx
property float centery
property int viewportx
property int viewporty
property float k1
property float k2
end_header
331.45993 896.16193 1.6513993 255 255 255
9095.2607 15323.471 25.657562 255 255 255
344.3212 478.16089 1.2348795 255 255 255
276.51266 826.81714 1.2977418 255 255 255
443.73041 1268.2335 2.5089288 255 255 255
84.415901 237.95927 0.74385971 255 255 255
341.53845 723.21368 1.4764551 255 255 255
-638.34473 -1935.7474 -4.3023863 255 255 255
1339.498 1669.2734 3.033108 255 255 255
-176.20589 -1482.6864 -3.0951498 255 255 255
-1536.0062 -986.33551 -2.7250166 255 255 255
-885.34265 -1865.236 -4.4228106 255 255 255
-4972.8188 -4693.6465 -13.697592 255 255 255
-824.4826 -923.31763 -3.006767 255 255 255
-367.90164 -1538.0453 -3.2243946 255 255 255
-1619.3108 -2388.053 -6.4003382 255 255 255
-1596.3983 -1794.7494 -4.940351 255 255 255
9261.4629 4156.6812 11.002399 255 255 255
4157.1426 3614.7864 13.72009 255 255 255
-5934.2915 -16849.93 -29.610411 255 255 255
-494.47385 -602.85339 -2.0304663 255 255 255
-390.29153 -1238.7156 -2.7836959 255 255 255
-3362.2104 -3359.2903 -11.822336 255 255 255
-3640.3413 -5148.9556 -12.900581 255 255 255
7968.394 4733.5591 9.455636 255 255 255
301.4556 265.99066 0.99642634 255 255 255
698.25555 436.49155 1.8283048 255 255 255
-426.46399 -602.66791 -1.8876925 255 255 255
745.42523 1125.5424 2.4519742 255 255 255
-767.01025 -834.00366 -2.8018515 255 255 255
-342.83545 -1442.8306 -3.0884771 255 255 255
2188.3064 1809.777 3.9783056 255 255 255
856.59247 1652.5277 2.6851003 255 255 255
8457.6172 4705.5176 9.9343214 255 255 255
-260.31665 -522.06024 -1.8060333 255 255 255
70.823242 226.84605 0.4098753 255 255 255
-616.76697 -588.72211 -2.7049501 255 255 255
1619.9253 2689.4683 4.0738416 255 255 255
-902.16193 -1387.4652 -3.7389786 255 255 255
7989.4839 4932.6323 9.4630766 255 255 255
222.87193 542.97156 1.1781623 255 255 255
227.3344 401.73438 0.74309838 255 255 255
948.52515 512.66052 2.2442038 255 255 255
1801.1315 1908.4296 4.7549376 255 255 255
770.4859 909.39819 2.0710943 255 255 255
15879.484 4522.5156 18.09201 255 255 255
484.36389 476.41522 1.4401505 255 255 255
-648.72968 -1497.0798 -3.2067032 255 255 255
272.97589 345.47562 1.009853 255 255 255
-2819.5852 -4323.3218 -13.802898 255 255 255
1708.7428 3345.9111 5.9988885 255 255 255
-960041.25 -1439743.2 -4640.2476 255 255 255
156.06239 368.91037 0.57648057 255 255 255
701.15179 436.65897 1.8348714 255 255 255
685.77649 446.54242 1.8004785 255 255 255
966.09503 1398.3601 3.0154271 255 255 255
1834.7916 2682.0361 7.2540002 255 255 255
1038.5778 1034.9849 1.5255439 255 255 255
779.03363 1624.5474 2.5655582 255 255 255
-268.88571 -593.07025 -2.1368172 255 255 255
1255.7921 883.99158 1.5913111 255 255 255
-881.53101 -1962.3293 -4.5040607 255 255 255
4345.5601 2308.6138 6.4548192 255 255 255
216.88271 246.94797 0.45252731 255 255 255
-508.55603 -220.43195 -1.8496376 255 255 255
335.23911 575.64355 1.0941446 255 255 255
73.224495 235.13756 0.34206301 255 255 255
656.07635 725.32904 1.8262327 255 255 255
1662.9343 1921.1533 3.4306042 255 255 255
-619.07935 -1120.4437 -3.4051328 255 255 255
7192.4937 2530.7634 10.002143 255 255 255
-298.96951 -820.8739 -2.2526696 255 255 255
691.97864 486.17508 1.7566634 255 255 255
281.2103 693.65454 1.3983065 255 255 255
-1175.7318 -2245.7263 -4.7838607 255 255 255
382.1413 543.86877 1.342998 255 255 255
1261.7399 1101.7131 2.7631595 255 255 255
-1911.4885 -1247.2083 -3.7403553 255 255 255
176.7795 971.99237 1.666679 255 255 255
-2165.9336 -3858.0425 -8.7915535 255 255 255
1015.6059 1927.847 2.9206583 255 255 255
897.01935 1876.4681 2.8192599 255 255 255
-517.9682 -348.8916 -2.2132027 255 255 255
-397.87677 -520.16718 -2.2859492 255 255 255
-689.07861 -846.31604 -2.6596081 255 255 255
292.22827 1269.9639 1.7523988 255 255 255
8107.4438 4429.7632 9.6875153 255 255 255
-4089.261 -3930.3965 -15.187037 255 255 255
1882.6478 2032.5475 7.0374384 255 255 255
161.62772 365.82474 0.67317969 255 255 255
-992.95178 -854.71051 -3.5460644 255 255 255
-644.40265 -621.26782 -1.9443736 255 255 255
628.26337 844.69183 1.8670373 255 255 255
-564.68976 -388.6041 -1.7786493 255 255 255
1059.1672 1970.4592 2.9747045 255 255 255
542.02924 3159.2078 6.0405607 255 255 255
-1395.1509 -5152.9463 -12.025232 255 255 255
490.05673 952.54852 1.817059 255 255 255
-7287.29 -3851.0066 -10.229136 255 255 255
705.03668 667.20538 1.8670517 255 255 255
296.56696 948.98065 1.6849878 255 255 255
1198.9631 2101.4873 3.1446664 255 255 255
-1919.0277 -4721.8291 -14.332862 255 255 255
-469.71384 -376.60257 -2.0348432 255 255 255
584.67499 965.92554 1.6363711 255 255 255
209.22156 236.41881 0.67617959 255 255 255
10266.962 5101.9824 11.560581 255 255 255
-4384.1772 -3267.9158 -16.679501 255 255 255
-330.93011 -512.77771 -1.7625377 255 255 255
420.9017 538.96106 1.228433 255 255 255
-17716.844 -21720.131 -56.637188 255 255 255
318.00891 1042.7018 1.7942426 255 255 255
343.98209 872.01947 1.5703019 255 255 255
-1320.1069 -1199.0107 -2.8595593 255 255 255
680.88287 847.73676 1.9283268 255 255 255
1384.6414 903.62988 1.8218741 255 255 255
600.89374 586.44489 1.1988521 255 255 255
373.41306 412.60294 0.90574449 255 255 255
3988.7561 3962.3574 13.505155 255 255 255
931.94574 1377.6046 2.5075963 255 255 255
11821.103 8916.9121 19.237955 255 255 255
-444.80661 -509.18347 -1.970294 255 255 255
255.53001 815.45825 1.5202605 255 255 255
8519.125 4838.1294 9.9481277 255 255 255
1110.9231 844.92792 2.5185502 255 255 255
-620.19086 -461.8606 -2.3620062 255 255 255
1160.7979 1845.2026 2.9695823 255 255 255
-2528.9924 -4743.6968 -11.108838 255 255 255
-678.36377 -954.8963 -3.1631222 255 255 255
320.30713 1362.1327 2.8280728 255 255 255
671.5202 255.24202 0.79546481 255 255 255
520.65088 541.66669 1.5292447 255 255 255
1115.1671 746.34259 2.5305934 255 255 255
3929.6873 3519.3591 5.8260841 255 255 255
38.355423 970.82452 1.6508578 255 255 255
-368.004 -990.61993 -2.4939268 255 255 255
-12520.628 -29236.531 -49.768444 255 255 255
249.14969 446.88211 0.75356996 255 255 255
979.8678 1291.5183 2.4172227 255 255 255
-2349.1045 -1938.3914 -8.5293255 255 255 255
-504.79214 -4399.8018 -7.3230281 255 255 255
3439.4021 2558.2737 11.446108 255 255 255
-1782.5726 -1734.4761 -7.2653198 255 255 255
377.84036 302.08163 0.49522257 255 255 255
162.24008 1204.9213 1.921167 255 255 255
-574.95789 -2067.0308 -4.0933962 255 255 255
-700.40033 -503.71072 -2.5851526 255 255 255
1164.7126 1436.0288 3.7386796 255 255 255
-3902.9148 -5471.5713 -11.511925 255 255 255
3516.7556 2702.4446 5.4124017 255 255 255
38.992104 203.05846 0.53543395 255 255 255
690.67517 1151.3849 2.8182676 255 255 255
-5950.1021 -7720.1938 -13.115631 255 255 255
1467.2057 968.79883 4.3226986 255 255 255
598.65881 926.60577 1.8021467 255 255 255
366.12961 472.91464 1.2606498 255 255 255
365.73935 514.31256 0.85354418 255 255 255
1030.7404 1060.1659 2.4497948 255 255 255
-4662.5215 -3365.7432 -14.082515 255 255 255
1317.7664 1621.6909 2.9873462 255 255 255
377.84497 887.68799 1.6732481 255 255 255
156.17278 253.76054 0.73292708 255 255 255
-4494.0698 -2983.3628 -6.0531187 255 255 255
-418.20126 -915.60907 -2.432832 255 255 255
-5475.6885 -3575.6816 -11.893261 255 255 255
2972.9395 4580.687 13.887643 255 255 255
1742.5653 2361.3813 6.9099164 255 255 255
822.63733 528.72778 2.050338 255 255 255
-5506.5986 -6457.1401 -19.294138 255 255 255
685.78302 446.3501 1.8002818 255 255 255
2867.9958 2167.7615 4.7534223 255 255 255
1261.2898 2372.1833 6.0202894 255 255 255
508.26807 335.8298 1.450011 255 255 255
485.66043 524.30615 1.4693671 255 255 255
-2823.8857 -1787.8888 -9.8324928 255 255 255
-1232.3641 -1474.3591 -2.9019527 255 255 255
-213.6615 -258.22012 -1.6202835 255 255 255
-745.98663 -858.06775 -2.1654391 255 255 255
450.36414 505.59091 1.4050025 255 255 255
620.29755 740.26233 1.7887264 255 255 255
9947.6514 5100.9492 11.275532 255 255 255
2612.6562 3961.6638 10.205627 255 255 255
1760.486 1153.8558 3.3832374 255 255 255
194.27298 675.10004 1.3229871 255 255 255
-4988.0405 -9082.7871 -15.208692 255 255 255
-1753.7534 -2117.8325 -6.3566294 255 255 255
329.16629 371.76236 1.1193933 255 255 255
-2288.2297 -2733.0066 -8.1926689 255 255 255
356.92813 549.59741 0.84618157 255 255 255
-1083.7126 -1407.0385 -5.4855309 255 255 255
434.70056 1233.0494 2.1622684 255 255 255
-664.41034 -552.62476 -1.9252511 255 255 255
-10471.003 -4954.7573 -13.400499 255 255 255
781.32666 1420.7104 2.7361622 255 255 255
333.63937 901.89008 1.6596748 255 255 255
852.10736 1355.6429 2.4263868 255 255 255
461.5209 407.50861 1.1128308 255 255 255
-3038.8474 -4382.9663 -12.132998 255 255 255
1302.8862 1457.9614 2.9098082 255 255 255
8261.3984 4885.916 9.6977615 255 255 255
404.03604 248.9819 1.3611277 255 255 255
689.90808 640.90094 1.8365023 255 255 255
-4072.6877 -2130.324 -13.291962 255 255 255
14136.1 34761.758 88.380539 255 255 255
8320.041 4696.2515 9.7942982 255 255 255
-680.03143 -741.50012 -2.5805397 255 255 255
-805.38007 -1240.3402 -2.3501885 255 255 255
360.56631 1027.6851 1.8038483 255 255 255
356.12552 417.06088 1.1999246 255 255 255
928.12341 809.30157 2.7170908 255 255 255
-1052.6747 -912.03986 -3.6815987 255 255 255
687.8092 654.90308 1.8380655 255 255 255
758.76135 792.85114 1.035079 255 255 255
-715.43219 -1372.2894 -3.7419803 255 255 255
1507.9991 2151.3369 4.9983201 255 255 255
349.70221 314.91241 1.060632 255 255 255
1709.9423 2349.6716 7.0352349 255 255 255
1092.4768 1404.7789 2.669311 255 255 255
577.63995 513.92297 1.6110651 255 255 255
-5001.3613 -3646.3523 -9.2925911 255 255 255
1616.3287 1103.8875 3.2564993 255 255 255
664.90961 1182.548 2.1456928 255 255 255
314.68173 994.93634 1.7435238 255 255 255
341.10098 722.48773 1.4754881 255 255 255
251.26357 474.94797 0.7897175 255 255 255
597.92798 1326.8093 2.5207155 255 255 255
473.99588 473.78815 1.0468779 255 255 255
-639.9267 -705.95337 -2.7550204 255 255 255
-315.98627 -463.23508 -1.8369874 255 255 255
-116380.64 -83249.898 -162.8735 255 255 255
-1383.7762 -1334.6146 -4.6198401 255 255 255
345.20117 448.02115 1.2089947 255 255 255
630.77295 1607.1669 2.4698403 255 255 255
610.1283 1596.0305 2.4502752 255 255 255
-5731.4316 -4460.2573 -21.548208 255 255 255
-3046.9414 -3278.4592 -9.2391424 255 255 255
383.34412 1204.0927 1.7696418 255 255 255
9441.3535 4220.6597 11.154346 255 255 255
537.53729 489.45068 1.535103 255 255 255
69.067345 296.85156 0.72176248 255 255 255
214.59579 189.56642 0.37024325 255 255 255
7137.5356 15429.946 39.565372 255 255 255
180.26704 344.13528 0.88568258 255 255 255
-996.24005 -2799.9211 -6.4670668 255 255 255
-602.31921 -283.2099 -2.1164749 255 255 255
-629.50952 -480.9899 -1.8603714 255 255 255
687.64911 449.26624 1.8048307 255 255 255
540.43494 290.01382 1.1504966 255 255 255
557.4953 854.78308 2.7285318 255 255 255
2189.5974 4063.4949 7.416141 255 255 255
188.01822 1213.7412 1.9320908 255 255 255
-813.93774 -1607.5977 -4.1267562 255 255 255
-484.5285 -793.14386 -2.2717226 255 255 255
648.41125 525.21729 2.1602407 255 255 255
3439.3352 1553.687 5.7353854 255 255 255
371.0759 443.80176 1.2440555 255 255 255
986.43011 1458.5948 2.6045949 255 255 255
708.94818 2533.0579 4.3947229 255 255 255
-1346.8174 -1589.1774 -6.3041096 255 255 255
5326.3096 5541.6396 17.283157 255 255 255
-1071.7153 -1012.0789 -3.9384646 255 255 255
668.96698 754.95886 2.2836249 255 255 255
345.20776 362.30823 1.1381223 255 255 255
-559.85931 -619.45636 -1.9521039 255 255 255
8186.9087 11794.725 27.201494 255 255 255
1645.0962 2117.2244 5.2567534 255 255 255
-623.61493 -407.06305 -2.2313838 255 255 255
101.24575 105.22401 0.42013147 255 255 255
3798.5596 3711.5684 5.1914225 255 255 255
866.98889 1812.8613 2.7581122 255 255 255
-301.77274 -727.14447 -2.0817294 255 255 255
1138.1857 579.93915 2.6386557 255 255 255
-5073.1133 -2523.0859 -7.0473895 255 255 255
-3573.074 -7213.8794 -14.730192 255 255 255
-502.71259 -841.90027 -2.8419688 255 255 255
465.92844 584.4978 1.8152266 255 255 255
274.19199 900.96033 1.6211996 255 255 255
663.01978 370.14023 1.7822074 255 255 255
5775.5054 5594.2314 8.1587772 255 255 255
19788.867 30519.998 55.801647 255 255 255
573.7326 876.19653 1.4471923 255 255 255
3300.4238 3521.4661 5.005403 255 255 255
672.79401 704.91937 1.8414607 255 255 255
696.25323 950.24835 2.0071878 255 255 255
336.21854 270.73413 1.0711266 255 255 255
226.08945 166.50452 0.57678717 255 255 255
202.03699 563.59369 1.1857666 255 255 255
227.62578 600.71039 1.2516632 255 255 255
732.23389 648.97766 1.9032544 255 255 255
963.55914 1733.5543 2.5910044 255 255 255
278.3656 694.99146 1.3976343 255 255 255
7028.7759 3502.2322 8.9712305 255 255 255
8437.0918 4324.832 10.072398 255 255 255
35.299633 753.3479 1.3745883 255 255 255
-1157.9651 -1374.4635 -2.7565098 255 255 255
-541.17554 -393.96225 -2.2166157 255 255 255
139.41383 1178.1077 1.8895366 255 255 255
3090.5107 3644.1763 11.80093 255 255 255
-1633.3097 -3263.2852 -6.5854073 255 255 255
881.33539 672.99792 2.1453173 255 255 255
144.52573 199.5486 0.64037967 255 255 255
839.47229 1682.9697 3.1928909 255 255 255
-414.62268 -816.44183 -2.2311788 255 255 255
597.52032 631.89551 1.6987641 255 255 255
-958.65302 -1855.2866 -3.5001562 255 255 255
994.37347 566.53369 2.3671687 255 255 255
13421.538 3098.7881 17.609682 255 255 255
481.83154 894.38019 1.7580873 255 255 255
-2464.96 -3167.7195 -9.0561533 255 255 255
276.98688 629.28784 1.3230389 255 255 255
-1086.056 -1300.8732 -3.0601442 255 255 255
1154.0867 1580.6178 2.8184972 255 255 255
10202.957 5084.604 11.508433 255 255 255
39868 52939.238 103.4761 255 255 255
4472.9131 1403.1481 7.5113559 255 255 255
-4218.999 -2837.9082 -8.4199371 255 255 255
433.20041 1050.5673 1.868031 255 255 255
814.85077 687.68152 2.0402241 255 255 255
-728.30536 -939.12012 -2.1839011 255 255 255
-476.71765 -512.87683 -1.8705548 255 255 255
8434.3623 4684.7954 9.9284258 255 255 255
-456.95789 -740.68488 -2.1401877 255 255 255
463.87238 757.17554 1.6227359 255 255 255
3310.6179 5186.3691 10.59682 255 255 255
1084.8821 1404.198 2.6612146 255 255 255
197.01891 1360.7145 2.0876133 255 255 255
823.45752 1379.2484 2.9136658 255 255 255
1649.2705 1820.9407 5.2658725 255 255 255
-1070.5399 -841.84119 -2.5393932 255 255 255
253.16026 572.12476 1.2383379 255 255 255
364.18182 455.24496 1.0741874 255 255 255
-1100.3837 -1913.566 -5.3518233 255 255 255
626.25293 841.65417 1.8597746 255 255 255
-279.96249 -315.40204 -1.7119161 255 255 255
-781.77795 -992.45538 -2.2515471 255 255 255
275.4071 1081.0461 1.8177046 255 255 255
2246.4202 1398.7843 7.6437774 255 255 255
585.42456 481.55084 1.6125062 255 255 255
37.950611 757.73163 1.3817254 255 255 255
-1586.6895 -3273.6514 -7.1837387 255 255 255
296.23434 376.95135 0.82003027 255 255 255
1318.7252 981.24384 1.7206458 255 255 255
-7509.231 -9898.2285 -16.312265 255 255 255
2183.5186 1806.3192 3.9678674 255 255 255
3545.158 2726.3303 5.4435081 255 255 255
-977.68146 -1135.6886 -3.5948739 255 255 255
-3239.2256 -14705.949 -22.591631 255 255 255
-461.61087 -388.48712 -1.6957062 255 255 255
10022.018 12956.58 33.015076 255 255 255
1660.2815 1514.0365 4.8035402 255 255 255
2988.2361 8223.8008 11.739785 255 255 255
3145.1792 1705.2583 5.215857 255 255 255
828.01361 589.76862 1.7821816 255 255 255
1475.6727 1462.8673 2.2749798 255 255 255
511.15802 331.54733 1.4565898 255 255 255
-1006.2171 -1171.6583 -2.5634854 255 255 255
21112.518 4617.1167 24.32699 255 255 255
772.0119 845.85632 2.0373168 255 255 255
764.52197 851.27527 2.030293 255 255 255
-2899.5886 -2934.8147 -5.332387 255 255 255
-11276.746 -5846.1299 -16.012924 255 255 255
-360.07181 -345.52087 -1.5567359 255 255 255
530.07056 739.57288 1.3813075 255 255 255
-441.70209 -918.5907 -2.2103624 255 255 255
595.0777 1553.1359 2.407681 255 255 255
-59411.988 -140377.03 -261.71475 255 255 255
-667.90845 -996.94379 -2.9860225 255 255 255
-492.6687 -476.09055 -1.6896322 255 255 255
-483.60367 -305.3212 -1.6167771 255 255 255
793.84247 505.53754 2.0038698 255 255 255
510.3891 920.4837 1.8051012 255 255 255
417.03128 215.3488 0.6128819 255 255 255
1688.6934 1227.3175 5.981504 255 255 255
-271.71844 -249.20572 -1.6555313 255 255 255
-620.2547 -1247.1439 -2.8828306 255 255 255
-777.57336 -966.94763 -2.170718 255 255 255
-1621.6215 -1646.3701 -5.3435898 255 255 255
-1342.0842 -3066.6873 -7.6886511 255 255 255
-2268.8923 -3552.7925 -5.9177885 255 255 255
457.7117 1235.4717 2.0537834 255 255 255
848.00525 1895.6807 2.8075728 255 255 255
225.88562 562.01483 1.2024151 255 255 255
368.12991 654.19904 1.6037039 255 255 255
-832.02399 -1346.2075 -3.7871175 255 255 255
8293.4395 4652.1094 9.800828 255 255 255
-785.84283 -1148.0634 -3.5312347 255 255 255
1200.7125 172.16231 1.3817135 255 255 255
813.11847 576.65765 2.0301168 255 255 255
3134.916 1703.6912 5.2137322 255 255 255
9121.373 4160.0547 10.846681 255 255 255
22760.551 5071.6348 25.331268 255 255 255
751.11414 751.28198 1.9676447 255 255 255
-1240.0519 -717.82263 -2.6313365 255 255 255
344.38007 477.98541 1.2345893 255 255 255
238.6414 534.76691 1.1803168 255 255 255
292.73358 239.07196 0.96387988 255 255 255
1176.2777 1085.8464 3.923393 255 255 255
-489.48669 -225.77751 -1.5661665 255 255 255
234.96344 350.59113 0.87604827 255 255 255
876.15289 1452.8499 2.5088797 255 255 255
-11306.212 -5861.3818 -16.023565 255 255 255
296.51422 752.79193 1.3950584 255 255 255
201.73187 392.87775 0.98656946 255 255 255
10105.621 3153.7969 13.047558 255 255 255
-247.66406 -288.48706 -1.3550385 255 255 255
906.41309 726.41235 2.1907933 255 255 255
-434.67337 -971.64423 -2.509799 255 255 255
-930.88959 -2027.3003 -4.0285268 255 255 255
-477.81049 -447.08548 -1.6484152 255 255 255
1114.5532 1675.0747 3.0119658 255 255 255
460.99057 896.10345 1.7435837 255 255 255
432.50604 296.61398 1.2848941 255 255 255
246.90318 473.19977 1.1180642 255 255 255
193.00961 526.93243 0.7290712 255 255 255
184.12396 505.52383 1.0307368 255 255 255
-12247.515 -3752.7915 -21.064865 255 255 255
636.34167 514.32526 1.7090353 255 255 255
859.41821 750.94165 2.0540695 255 255 255
284.59271 580.95392 0.92945439 255 255 255
999.70312 1045.9917 2.4068053 255 255 255
280.99796 616.84003 1.3132207 255 255 255
587.85553 350.4086 1.6188637 255 255 255
356.03711 870.7691 1.6389573 255 255 255
-637.1972 -563.38989 -2.4127188 255 255 255
1675.1869 1779.7866 2.9177237 255 255 255
173.12114 345.96411 0.88182384 255 255 255
-1129.6881 -974.41284 -2.7191281 255 255 255
1043.6833 891.55084 1.4537076 255 255 255
2922.76 6528.958 8.9700241 255 255 255
8186.4551 5337.105 9.576726 255 255 255
-541.44293 -1042.2128 -2.6503253 255 255 255
-1160.0712 -1460.3445 -4.8680053 255 255 255
434.52802 1028.723 1.821546 255 255 255
778.31946 750.73016 2.0028028 255 255 255
-2774.3167 -3301.4612 -10.104425 255 255 255
516.63898 804.38934 2.464247 255 255 255
-622.30835 -399.85895 -2.5566537 255 255 255
-748.66656 -1588.6749 -3.1700637 255 255 255
5108.7173 3062.7751 7.04668 255 255 255
13874.383 12178.399 22.159859 255 255 255
1018.7504 638.53741 2.3866537 255 255 255
-2081.6013 -1954.3143 -9.7895098 255 255 255
13689.591 4697.7051 15.364748 255 255 255
6863.3179 12522.229 25.654203 255 255 255
-564.73602 -388.70398 -1.7793245 255 255 255
-862.4743 -2874.6274 -6.6942582 255 255 255
-504.97626 -914.87048 -2.1383173 255 255 255
-5607.2344 -8084.9043 -20.62945 255 255 255
938.30621 957.06812 1.4306122 255 255 255
-2151.7336 -6316.4307 -10.622304 255 255 255
489.70215 951.47675 1.8148637 255 255 255
-5001.6284 -9960.4238 -18.71191 255 255 255
256.27594 710.61511 1.3997409 255 255 255
726.38312 1128.4814 2.159246 255 255 255
827.60004 1184.4178 2.2155483 255 255 255
305.74164 1279.1985 2.0300169 255 255 255
452.44666 655.72198 0.74106103 255 255 255
672.44952 832.24536 1.9068148 255 255 255
490.67987 459.07034 1.4439145 255 255 255
-595.58893 -793.54395 -1.9446751 255 255 255
485.14362 471.66901 1.4404668 255 255 255
690.2572 675.34747 1.8516536 255 255 255
-349.96759 -472.93903 -1.7305785 255 255 255
710.95166 360.98102 0.86969888 255 255 255
559.84814 1073.9622 2.2253406 255 255 255
888.41199 6483.3364 9.9851217 255 255 255
-502.32089 -474.84824 -1.8324889 255 255 255
-664.05084 -1250.3815 -2.9165354 255 255 255
588.12988 761.638 1.7627851 255 255 255
1588.6161 1237.8835 3.2069733 255 255 255
-10076.858 -8298.3691 -15.73455 255 255 255
-4345.2588 -10217.352 -16.322536 255 255 255
-615.9306 -665.06183 -1.945999 255 255 255
-547.05432 -465.7847 -1.8145278 255 255 255
-1551.1552 -3243.3132 -9.2921762 255 255 255
1276.4011 1760.3049 2.8242612 255 255 255
826.50507 1655.505 2.6190505 255 255 255
-1459.0245 -1771.337 -7.7179065 255 255 255
1017.8792 1610.9036 2.7235181 255 255 255
681.25781 806.81763 1.9039427 255 255 255
653.92255 978.70801 1.9844515 255 255 255
449.58749 1195.781 2.0098405 255 255 255
-638.85645 -2751.3855 -5.6822238 255 255 255
561.71637 478.59338 0.92395079 255 255 255
-710.26904 -1082.6466 -2.5256801 255 255 255
900.47968 1793.5898 2.7617557 255 255 255
-2514.3293 -699.91895 -3.4626963 255 255 255
566.0802 621.72211 1.8132222 255 255 255
39.024273 397.20557 0.87857223 255 255 255
-242.93695 -733.64685 -2.0899296 255 255 255
841.40277 1187.7206 2.573055 255 255 255
1082.4447 1326.486 2.6224725 255 255 255
920.20441 1633.5437 2.7479091 255 255 255
334.3092 1032.0667 1.7919689 255 255 255
1160.5818 1845.2198 2.968739 255 255 255
419.01288 1361.1655 2.1515241 255 255 255
620.11365 543.66205 0.89581221 255 255 255
1991.5109 1402.2578 3.1427534 255 255 255
859.45996 1765.3882 2.7182474 255 255 255
-902.48712 -1357.752 -3.8016059 255 255 255
-6330.5298 -4321.291 -9.4935179 255 255 255
12457.282 8248.6152 38.354694 255 255 255
-7968.0181 -8218.7031 -14.03881 255 255 255
914.64734 1465.9207 2.5498412 255 255 255
-4839.1982 -12437.955 -21.256336 255 255 255
840.44226 1637.0078 2.613488 255 255 255
2847.8928 2513.1995 4.7311969 255 255 255
207.43326 471.05493 1.0766072 255 255 255
-760.26086 -1057.9558 -2.2736006 255 255 255
8394.5488 4328.5195 10.0098 255 255 255
-1391.3053 -2420.208 -6.3193398 255 255 255
724.88593 633.35181 1.8498449 255 255 255
816.62561 1029.7695 2.1874764 255 255 255
-992.95599 -2485.97 -5.6102061 255 255 255
261.5784 413.18713 1.0650152 255 255 255
14515.055 4425.583 16.677448 255 255 255
1166.785 551.31708 1.3936323 255 255 255
670.94537 1146.3571 2.9361157 255 255 255
-582.07892 -822.22833 -2.6135657 255 255 255
-848.71252 -949.17444 -2.5619531 255 255 255
409.16351 983.97607 2.1438825 255 255 255
1743.8179 2623.9185 3.108808 255 255 255
889.74866 1209.5402 2.3667994 255 255 255
280.85452 361.6759 1.0377946 255 255 255
5008.2051 4723.166 22.87731 255 255 255
-2991.9187 -2483.7974 -9.0473137 255 255 255
2926.1045 1963.5377 4.8461266 255 255 255
8398.4619 5035.2295 9.8134766 255 255 255
460.56436 750.08032 1.4092535 255 255 255
-630.40314 -1931.7234 -4.2875443 255 255 255
892.8476 1920.2246 2.8477144 255 255 255
-207.81934 -1258.7579 -2.7477436 255 255 255
343.52292 688.73987 1.442745 255 255 255
672.20697 1052.7446 2.0524054 255 255 255
8518.415 4836.3428 9.9455643 255 255 255
313.27127 391.93924 1.1118172 255 255 255
631.92883 618.29803 1.9079491 255 255 255
6196.4175 4395.6274 7.8783894 255 255 255
824.41632 1706.264 2.6554465 255 255 255
1793.5247 1189.1156 2.3403673 255 255 255
204.65178 494.17181 1.1031667 255 255 255
-8099.4307 -19926.043 -42.184021 255 255 255
378.32822 456.53308 1.2632908 255 255 255
477.46133 1190.1869 2.2007155 255 255 255
3227.2966 3181.8813 8.88696 255 255 255
107.71164 109.18655 0.59890932 255 255 255
653.5799 768.34576 1.8468069 255 255 255
-1588.8929 -2548.3538 -7.7893891 255 255 255
796.90289 1818.8827 4.5525889 255 255 255
-15740.904 -9837.2529 -21.923471 255 255 255
1477.6394 1980.9872 3.3346674 255 255 255
-347.77585 -769.71405 -1.998418 255 255 255
-1554.381 -2101.0425 -5.9446874 255 255 255
-621.86255 -901.42639 -4.0617342 255 255 255
546.96191 508.733 1.5580577 255 255 255
414.54385 465.2674 0.94415861 255 255 255
385.57587 1109.0273 1.9949741 255 255 255
1906.224 2301.0774 5.3934283 255 255 255
1060.0088 1971.782 2.97756 255 255 255
-1401.5614 -2343.5271 -6.0074258 255 255 255
-169.37744 -156.11443 -1.2839355 255 255 255
-906.48059 -1401.4595 -2.6688461 255 255 255
1142.9641 1569.4215 2.2125583 255 255 255
347.3486 1165.5309 1.9298004 255 255 255
834.46637 1877.2437 2.7882056 255 255 255
5592.3945 16047.786 30.239166 255 255 255
1068.2273 920.24585 1.4012991 255 255 255
1104.1051 1642.7775 2.8077991 255 255 255
9247.7979 4203.6865 10.751571 255 255 255
876.39838 1184.4084 3.3022473 255 255 255
4817.9136 3692.4509 6.648304 255 255 255
1390.3602 694.48199 4.9701605 255 255 255
-470.98148 -513.01318 -2.2124605 255 255 255
791.46338 1677.7264 2.6133418 255 255 255
841.41718 1142.785 2.0022528 255 255 255
-1847.3638 -941.73639 -6.0034885 255 255 255
-624.05981 -1316.4055 -3.4939177 255 255 255
178625.97 164312.56 728.35071 255 255 255
-3880.7988 -10054.826 -22.628572 255 255 255
506.52362 754.56653 1.6650704 255 255 255
494.45895 285.56567 0.74643302 255 255 255
-717.55975 -1001.053 -3.1187611 255 255 255
1234.4683 2007.9332 3.0839682 255 255 255
1081.125 1401.8949 2.6595955 255 255 255
-1145.4452 -6056.0186 -11.528784 255 255 255
-117.3972 -211.86717 -1.4767672 255 255 255
344.67206 1245.0619 2.0109322 255 255 255
526.43427 509.73438 1.4255525 255 255 255
9681.7041 13869.665 39.748535 255 255 255
12018.924 8259.5488 32.397995 255 255 255
-969.43317 -1358.8073 -3.930686 255 255 255
-236.99321 -224.74919 -1.3358029 255 255 255
2226.8164 2261.354 4.0766993 255 255 255
5181.6011 4144.5298 7.999577 255 255 255
566.10492 1862.129 4.1471491 255 255 255
1167.8879 1699.6381 2.8953934 255 255 255
289.6521 916.53973 1.6490948 255 255 255
136.99507 332.60043 0.8256824 255 255 255
-2251.8389 -1985.5846 -6.900393 255 255 255
740.40088 876.88098 2.0165048 255 255 255
13981.051 5328.2129 15.123184 255 255 255
-34761.082 -12799.646 -52.923428 255 255 255
-1745.1985 -6919.5273 -10.782266 255 255 255
1298.5154 1460.7622 2.9056473 255 255 255
-1508.6205 -3498.6099 -7.74722 255 255 255
430.38889 111.27357 0.51626217 255 255 255
91.091164 1150.4961 1.8559748 255 255 255
2891.8086 4122.4082 11.699822 255 255 255
919.20093 1941.2438 4.2100053 255 255 255
724.36591 726.14215 1.9172155 255 255 255
559.25708 1358.6331 2.7715981 255 255 255
-553.72217 -1588.765 -6.2012148 255 255 255
428.42667 531.54242 2.3266783 255 255 255
3257.3213 3373.0686 4.5137634 255 255 255
-499.69589 -852.216 -2.3005891 255 255 255
38.031849 757.09827 1.3802685 255 255 255
3366.3994 2116.0164 13.694114 255 255 255
-5481.7319 -4310.1313 -13.409603 255 255 255
-2096.3599 -3337.845 -8.7438726 255 255 255
210.59161 848.23444 1.119621 255 255 255
790.6496 1338.9144 2.3628068 255 255 255
-111810.16 -62831.344 -167.24318 255 255 255
2843.2073 2153.457 4.7221637 255 255 255
-894.97125 -1040.4882 -2.6651952 255 255 255
242.75153 158.28598 0.86966825 255 255 255
585.86481 527.0014 1.6315491 255 255 255
392.54602 992.2124 1.7858706 255 255 255
8320.5283 4667.9194 9.8352661 255 255 255
157.55615 678.10516 1.3115584 255 255 255
1215.2479 611.48907 2.7701609 255 255 255
700.57465 456.6958 1.8294321 255 255 255
7015.0669 3498.1208 8.9583693 255 255 255
653.09167 375.82068 1.755438 255 255 255
-1759.0067 -1255.4236 -5.7453594 255 255 255
69.303566 296.82587 0.72149205 255 255 255
351.66696 412.65012 1.1855835 255 255 255
-453.24405 -780.5564 -2.6333272 255 255 255
344.64319 478.159 1.2350214 255 255 255
-639.75891 -646.61157 -1.9414014 255 255 255
449.44952 1197.2881 2.0114775 255 255 255
1211.5927 2135.6094 4.7592511 255 255 255
15983.334 4554.8291 18.222158 255 255 255
-420.80804 -135.96394 -1.4272686 255 255 255
-361.08823 -223.41243 -1.4855953 255 255 255
-614.47852 -1591.9354 -3.8577733 255 255 255
481.93939 895.53705 1.7600024 255 255 255
2072.2732 1546.847 3.8736947 255 255 255
709.89813 987.94824 2.0447459 255 255 255
757.20221 761.40466 1.979399 255 255 255
916.14685 2210.9177 5.0383587 255 255 255
10085.443 3146.7854 13.022014 255 255 255
31.877111 666.37524 1.2125998 255 255 255
238.33415 368.8577 0.65540528 255 255 255
-692.76007 -425.27646 -2.8379178 255 255 255
696.3949 469.82162 1.8169277 255 255 255
-830.1759 -556.88739 -2.1132264 255 255 255
-2170.5867 -5537.6694 -9.4832287 255 255 255
8787.5801 4348.8853 10.399506 255 255 255
1136.968 579.37219 2.6361606 255 255 255
449.79395 411.3876 0.78316677 255 255 255
-414.02579 -469.52365 -1.6505982 255 255 255
1111.2125 1624.3394 4.5970073 255 255 255
-534.66968 -543.37244 -1.9748583 255 255 255
474.25256 937.26746 1.7914034 255 255 255
-299.99548 -723.55371 -2.0760658 255 255 255
39.067924 202.51318 0.53396058 255 255 255
55.094872 378.82416 0.80293512 255 255 255
1614.4327 1102.4617 3.2520885 255 255 255
34.422199 718.33917 1.3276312 255 255 255
824.01373 529.25763 2.055968 255 255 255
-43498.883 -24448.996 -62.657635 255 255 255
787.7962 873.8512 2.5464835 255 255 255
416.24939 335.79706 1.2572534 255 255 255
-658.50159 -552.39362 -2.4553297 255 255 255
335.90515 537.95898 1.0085678 255 255 255
21267.783 4649.0991 24.51018 255 255 255
5617.7729 4154.7129 7.0114837 255 255 255
-2646.1992 -3147.3955 -9.9182911 255 255 255
664.5943 1181.13 2.1441598 255 255 255
35.534473 754.63934 1.3767494 255 255 255
-419.67975 -662.64832 -2.0200453 255 255 255
743.11188 880.43359 2.0227151 255 255 255
865.32581 1811.1536 2.7552574 255 255 255
-13917.161 -11614.634 -18.468441 255 255 255
522.0813 747.67877 1.3691767 255 255 255
599.64429 329.63742 1.65413 255 255 255
-630.89685 -1806.038 -4.8765941 255 255 255
10425.626 3142.6438 13.476506 255 255 255
1588.5146 7368.5186 17.195604 255 255 255
-562.97906 -1528.3148 -4.0670719 255 255 255
-379.6618 -673.97235 -1.875798 255 255 255
555.45734 376.27533 1.5474626 255 255 255
1972.1315 1903.6371 2.6692569 255 255 255
1152.634 1844.2709 2.9597681 255 255 255
307.3869 860.22809 1.5962603 255 255 255
-507.04196 -1195.601 -3.0030713 255 255 255
2120.5852 2000.4076 3.9242005 255 255 255
3454.6399 1558.3875 5.7490773 255 255 255
340.48157 2141.3181 3.5847654 255 255 255
-568.48431 -1394.7555 -3.4826989 255 255 255
8319.5312 4781.7695 9.7526913 255 255 255
6249.9155 2402.1377 19.375044 255 255 255
-542.89478 -669.26208 -2.0264957 255 255 255
-252923.62 -412963.84 -1187.743 255 255 255
716.39545 939.3125 2.0249045 255 255 255
6182.0537 4325.9624 7.8570724 255 255 255
1671.0057 2530.1716 3.0825896 255 255 255
4783.5835 3672.2859 6.6125627 255 255 255
901.73071 1047.4319 1.2878151 255 255 255
344.11554 447.16684 1.2063807 255 255 255
122.78037 574.28546 1.1603979 255 255 255
408.34906 404.90125 1.2749182 255 255 255
9457.501 4231.1992 11.175927 255 255 255
630.05304 1048.6483 2.0123389 255 255 255
-456.7009 -811.71857 -2.4155364 255 255 255
9348.3223 5685.2266 10.590105 255 255 255
166.21248 1025.3156 1.7249354 255 255 255
466.88104 306.18967 1.3620522 255 255 255
170.78934 341.57166 0.87183154 255 255 255
829.99976 831.43268 1.2451108 255 255 255
4442.4795 1397.0721 7.4788499 255 255 255
766.44122 481.46539 1.9536549 255 255 255
298.24719 665.30865 1.2611673 255 255 255
549.87103 478.03162 1.5514413 255 255 255
-647.35718 -659.51825 -1.9488068 255 255 255
-6025.9282 -7724.1133 -13.352355 255 255 255
-522.38446 -312.48358 -1.6378405 255 255 255
203.55299 558.18384 1.1824944 255 255 255
4607.3408 8131.3633 23.366016 255 255 255
-3488.9043 -2887.6372 -5.7560525 255 255 255
-1153.1611 -1470.5289 -2.8200085 255 255 255
1088.7001 1409.8779 2.6722965 255 255 255
2895.3716 1949.8164 4.8055553 255 255 255
730.62952 467.84409 1.8883363 255 255 255
-3106.0542 -3000.6123 -9.7491198 255 255 255
508.54053 336.23972 1.4512944 255 255 255
752.36853 1640.8011 2.5617659 255 255 255
544.41675 349.84854 1.4458749 255 255 255
1326.4813 2822.2053 4.0167074 255 255 255
478.13586 365.48141 1.143405 255 255 255
48.774712 1430.335 2.5446506 255 255 255
-1291.1309 -1086.1443 -2.937351 255 255 255
671.19678 703.53809 1.8378755 255 255 255
92.863861 287.52963 0.79299837 255 255 255
-896.93213 -1551.0743 -4.3078313 255 255 255
-656.77753 -945.4223 -2.9858687 255 255 255
-3796.9204 -5905.1357 -11.79775 255 255 255
-1943.7034 -3193.115 -8.2389641 255 255 255
-666.89056 -491.40646 -1.9068834 255 255 255
2867.157 2772.5576 4.7777643 255 255 255
411.47232 591.24304 1.0825014 255 255 255
-3776.0356 -4069.3479 -12.093188 255 255 255
688.74408 455.48203 1.8071976 255 255 255
2859.1631 2162.042 4.7405038 255 255 255
-615.7677 -535.12622 -3.672364 255 255 255
572.88312 1025.2814 2.0890684 255 255 255
-1307.0942 -2814.1565 -7.0341353 255 255 255
435.18585 404.98193 1.3223888 255 255 255
562.34424 902.28296 1.0416266 255 255 255
780.76019 1007.3202 2.2216742 255 255 255
3336.0144 4961.792 8.5973406 255 255 255
1739.3124 1326.2437 4.020761 255 255 255
26541.986 5486.0317 29.299204 255 255 255
-401.46362 -336.86697 -2.1357942 255 255 255
369.59796 1318.0095 1.9672312 255 255 255
365.88617 739.01349 1.8271145 255 255 255
-428.91742 -650.63556 -1.9733636 255 255 255
1107.365 3246.0283 5.3952565 255 255 255
-821.77747 -921.59399 -3.2811167 255 255 255
282.93094 895.04791 1.620171 255 255 255
1330.6521 1500.6888 4.063983 255 255 255
-1098.0074 -1498.8716 -4.734899 255 255 255
544.94092 736.49603 1.6939337 255 255 255
402.11359 2565.2346 4.5170083 255 255 255
369.96747 442.42859 1.2407203 255 255 255
8504.3516 4831.1128 9.9314394 255 255 255
8731.4043 4448.4404 10.288854 255 255 255
226.13548 1100.5872 1.8202715 255 255 255
662.87476 853.68713 1.5606513 255 255 255
-1811.9424 -948.99005 -3.7282734 255 255 255
-590.68042 -1720.3625 -3.9095657 255 255 255
-933.28589 -1089.6985 -3.5434353 255 255 255
-945.91858 -1475.0878 -3.0868733 255 255 255
164.51776 820.74835 1.4873294 255 255 255
-1226.7262 -1105.3572 -5.1113238 255 255 255
-2391.3152 -2804.439 -10.003304 255 255 255
672.20306 623.01593 1.802438 255 255 255
-798.69843 -342.37277 -3.3866849 255 255 255
486.9248 525.60583 1.4731542 255 255 255
-319.96997 -581.42523 -2.3122506 255 255 255
353.28769 1050.204 1.8202991 255 255 255
9092.1953 4146.3452 10.814161 255 255 255
-5121.9009 -5893.2031 -15.73419 255 255 255
172.39653 262.08337 0.75219727 255 255 255
344.31601 489.58298 1.2468841 255 255 255
314.78885 683.49548 1.4118809 255 255 255
817.51514 1140.9691 2.2518861 255 255 255
382.77161 440.56476 1.2571977 255 255 255
5435.874 4192.4287 10.738553 255 255 255
11873.865 4713.4561 13.43288 255 255 255
1163.9139 1525.9027 2.7968316 255 255 255
-1565.817 -837.01691 -5.7624865 255 255 255
685.008 933.26611 2.367413 255 255 255
596.20398 1704.2159 2.5334909 255 255 255
1038.0385 2639.1257 3.6723275 255 255 255
-470.08661 -565.47241 -2.7024848 255 255 255
1043.2365 1271.5308 2.2198682 255 255 255
-4978.4478 -8270.917 -22.394718 255 255 255
-414.88971 -772.44873 -2.0503137 255 255 255
-9778.7637 -21433.209 -43.167149 255 255 255
431.04962 282.65326 1.2801963 255 255 255
252.92766 147.85893 0.33908945 255 255 255
1270.3096 1298.9493 2.823329 255 255 255
431.07477 594.68732 1.1158791 255 255 255
356.5571 872.15393 1.6421833 255 255 255
2908.5146 1952.865 4.8164597 255 255 255
4866.4907 3409.3899 6.7178931 255 255 255
414.77505 798.74731 1.6139302 255 255 255
14651.253 9316.1279 18.81365 255 255 255
464.91547 525.04022 1.4399819 255 255 255
-476.02649 -684.33514 -2.1478317 255 255 255
847.45197 590.94373 2.0898483 255 255 255
-173.50566 -1506.1366 -3.0894358 255 255 255
-731.27783 -662.83691 -2.0725646 255 255 255
3290.3689 10399.441 21.502644 255 255 255
-2302.636 -797.58551 -4.4213147 255 255 255
-301.31537 -377.25995 -1.5451144 255 255 255
8622.1943 4434.3677 10.201385 255 255 255
956.12103 1005.8831 1.6781471 255 255 255
-499.30283 -578.16333 -2.918236 255 255 255
2228.6448 2264.6541 4.0816145 255 255 255
2852.1973 2764.4431 4.7627487 255 255 255
690.73999 641.28162 1.83772 255 255 255
-209.939 -913.44 -2.2744184 255 255 255
833.48004 569.54724 2.0642936 255 255 255
377.4295 886.04144 1.6704415 255 255 255
5712.6743 13024.61 22.658613 255 255 255
521.90295 142.43607 0.67259175 255 255 255
447.09283 636.06549 1.5024273 255 255 255
-1055.3496 -844.01703 -4.4133053 255 255 255
862.13928 1120.9277 2.2879431 255 255 255
-566.17224 -633.70306 -1.9637508 255 255 255
549.86401 726.66241 1.6956607 255 255 255
539.24908 238.36763 0.67607266 255 255 255
1208.4844 1653.6586 2.8137841 255 255 255
-2361.3916 -1396.1257 -5.1664095 255 255 255
274.71808 900.82751 1.6216508 255 255 255
-664.71722 -791.13245 -2.2639964 255 255 255
489.79272 458.99625 1.4419223 255 255 255
-1556.8813 -2526.7615 -6.0462613 255 255 255
1271.4255 1257.4692 3.5345287 255 255 255
671.53473 831.16174 1.9046302 255 255 255
740.78076 573.65149 1.6710542 255 255 255
-27183.07 -2756.6052 -37.828861 255 255 255
826.26318 760.97894 2.0748456 255 255 255
120.33325 202.28792 0.44975597 255 255 255
8177.4204 4957.3809 9.6187754 255 255 255
1427.3521 1727.8351 4.2604465 255 255 255
873.40979 1815.7756 2.75986 255 255 255
-445.73611 -408.28336 -1.5842553 255 255 255
9262.1963 4174.1675 10.981156 255 255 255
326.00119 1101.261 1.6516405 255 255 255
440.57538 411.60379 0.94307566 255 255 255
-214.91025 -1050.7605 -2.5272496 255 255 255
-2240.823 -2534.1318 -4.4189491 255 255 255
332.87085 913.61725 1.672038 255 255 255
483.54822 782.97522 1.3260232 255 255 255
687.35687 1047.0043 2.0650961 255 255 255
311.12698 784.3349 1.6834677 255 255 255
929.47266 853.97278 2.2490242 255 255 255
-494.14346 -464.9187 -1.6383035 255 255 255
-597.32727 -705.90521 -4.1335669 255 255 255
3153.8865 1709.917 5.2308564 255 255 255
-881.46552 -1186.6506 -3.6357293 255 255 255
1020.1517 638.49738 2.3878703 255 255 255
527.56439 974.91315 1.8606122 255 255 255
21281.006 34229.414 72.142807 255 255 255
584.40808 1630.6781 2.5857387 255 255 255
-1068.8594 -1233.8934 -4.0347457 255 255 255
513.54657 855.6601 1.8494313 255 255 255
121.54517 275.67908 0.63624781 255 255 255
3431.5364 1552.0153 5.7249813 255 255 255
-1444.9033 -3052.7021 -5.9880266 255 255 255
3034.7617 3268.1494 10.906005 255 255 255
1031.975 1061.229 2.4528437 255 255 255
-461.61877 -681.06512 -2.9506412 255 255 255
1090.9738 1402.1949 2.6642992 255 255 255
-912.38104 -1019.0975 -3.6851742 255 255 255
-702.99152 -824.98047 -2.8139479 255 255 255
435.08521 2460.5872 4.6270976 255 255 255
366.40851 984.45435 1.7645344 255 255 255
-1758.5623 -1260.1511 -5.7337027 255 255 255
6173.585 2627.9929 8.5733871 255 255 255
1090.7515 1638.1201 2.7980754 255 255 255
-2309.6116 -3312.177 -9.4224939 255 255 255
34.22905 197.30946 0.52167588 255 255 255
7141.0767 2513.2163 9.9367409 255 255 255
-806.49799 -884.05597 -2.1438098 255 255 255
3925.2419 2577.1482 5.8557301 255 255 255
8395.1006 4666.6094 9.8852091 255 255 255
-1493.6589 -2212.5237 -3.5263596 255 255 255
836.93573 1557.8517 2.5222244 255 255 255
852.03345 1356.1823 2.4264467 255 255 255
971.44592 1678.7015 1.9029118 255 255 255
-438.55121 -490.08267 -2.2626548 255 255 255
1503.2954 1756.2422 3.1641796 255 255 255
227.0481 586.78442 1.2346817 255 255 255
8358.8047 5011.1318 9.7660217 255 255 255
1070.5171 1682.9707 3.5718994 255 255 255
516.99274 605.74445 1.5671904 255 255 255
-333.72586 -472.37607 -2.0964167 255 255 255
2905.9839 4388.2427 8.2015076 255 255 255
-444.9252 -583.4826 -2.3415248 255 255 255
-1885.8873 -2160.8564 -4.0583978 255 255 255
110.36707 1180.3726 1.8895953 255 255 255
5386.9268 2848.6912 7.4519391 255 255 255
368.57745 531.11707 0.91692942 255 255 255
307.43939 1075.6299 1.8338565 255 255 255
-404.44098 -356.06784 -1.5694668 255 255 255
370.41196 890.66766 1.66932 255 255 255
1336.9165 1665.7966 3.0265529 255 255 255
783.27423 743.28107 2.0089931 255 255 255
878.47357 769.01282 2.1583128 255 255 255
-1688.015 -2075.2463 -3.5997176 255 255 255
-2029.3392 -2281.6538 -7.2825351 255 255 255
-928.37549 -1649.8839 -3.4936969 255 255 255
290.58401 735.82635 1.449643 255 255 255
-387.90814 -623.22485 -1.8135176 255 255 255
939.66193 1592.4042 3.1104593 255 255 255
1953.5372 3408.4912 6.6273465 255 255 255
-478.19876 -435.23987 -1.654609 255 255 255
182.83517 1191.1934 1.9276187 255 255 255
-3644.342 -5556.5005 -22.329201 255 255 255
266.22943 1210.6162 3.4660034 255 255 255
680.2204 523.7384 0.99225277 255 255 255
5064.5996 9467.5957 24.201775 255 255 255
623.54883 869.25525 1.6913323 255 255 255
-247.20564 -176.15746 -1.296398 255 255 255
1406.3837 990.82733 1.8231796 255 255 255
1490.2528 1503.7065 2.5144026 255 255 255
731.08929 1120.566 2.15762 255 255 255
-1032.5365 -1422.9935 -3.7393239 255 255 255
1589.0928 1434.0387 3.2237656 255 255 255
-938.38904 -1283.5699 -3.6429305 255 255 255
1354.0586 4139.7627 6.9013805 255 255 255
934.75079 887.5791 2.501035 255 255 255
-499.42935 -549.86493 -3.0917163 255 255 255
-413.68909 -630.40417 -2.0010653 255 255 255
4003.8616 3941.2698 5.4907918 255 255 255
33.660679 310.00626 0.73162067 255 255 255
-611.80402 -905.8399 -2.9144959 255 255 255
9313.6875 13810.615 30.511818 255 255 255
857.3421 1774.3633 2.7250354 255 255 255
5057.7568 3039.1726 6.9885521 255 255 255
2070.1318 1974.5807 3.8559155 255 255 255
1009.5266 1599.9722 2.70734 255 255 255
-1008.407 -2581.3701 -7.3125257 255 255 255
5121.1631 3071.9585 7.0671749 255 255 255
6196.0879 2631.1924 8.5894108 255 255 255
-544.46234 -578.55859 -1.8248423 255 255 255
825.29333 1638.7251 2.6029074 255 255 255
764.6283 1117.7968 2.1869838 255 255 255
-2245.4353 -15915.209 -36.897984 255 255 255
907.02502 672.79053 2.1894498 255 255 255
72.788651 315.4133 0.7550146 255 255 255
-874.38196 -2279.3245 -5.0116978 255 255 255
8095.2437 26065.123 57.664257 255 255 255
-538.99677 -998.09662 -2.945056 255 255 255
348.59888 446.34268 1.2111344 255 255 255
4839.8013 3396.1594 6.6871352 255 255 255
-357.66324 -837.29773 -2.0732169 255 255 255
214.13403 705.28748 1.5899764 255 255 255
836.64429 1326.103 2.3931355 255 255 255
9844.2109 27988.432 50.684505 255 255 255
-900.54651 -1530.3948 -2.9512689 255 255 255
866.49951 630.79437 2.1170611 255 255 255
737.12921 873.18762 2.0073454 255 255 255
594.87067 1007.2761 1.9501191 255 255 255
783.66315 543.80591 1.9790341 255 255 255
223.05894 554.02661 0.9073391 255 255 255
1589.3542 1954.0629 5.4155874 255 255 255
-198.29907 -407.02649 -1.6054153 255 255 255
-276.79089 -320.55029 -1.8105825 255 255 255
-816.84418 -876.19348 -2.1128631 255 255 255
9212.6348 6371.2832 10.371043 255 255 255
2036.9551 1561.9122 8.0152416 255 255 255
-697.68109 -812.76117 -2.7032399 255 255 255
883.31531 1815.1395 2.7640872 255 255 255
-219.81963 -559.85376 -1.8209599 255 255 255
947.75348 1892.7286 2.8582571 255 255 255
781.69476 1042.1775 2.1464703 255 255 255
220.21002 1177.9426 2.0451608 255 255 255
-754.95337 -1016.2404 -3.4799621 255 255 255
1278.6862 1391.1619 2.8577356 255 255 255
7325.9946 6223.0854 12.761488 255 255 255
-466.7196 -1235.9628 -2.9923956 255 255 255
-511.64081 -537.75964 -1.8468614 255 255 255
-2067.3979 -4114.9668 -6.5302682 255 255 255
6652.9648 16043.574 29.483974 255 255 255
4505.6865 1410.9342 7.5719342 255 255 255
529.70557 458.54153 1.5103952 255 255 255
-868.0647 -704.23962 -3.1474917 255 255 255
-667.42365 -567.71509 -2.4953222 255 255 255
183.88036 347.92062 0.89584744 255 255 255
37.739922 758.76282 1.3840909 255 255 255
690.25928 641.26984 1.8376964 255 255 255
342.96796 487.3468 1.2414308 255 255 255
209.03554 595.53564 1.2321336 255 255 255
360.00644 288.00085 0.49135235 255 255 255
123.14382 574.23718 1.1601347 255 255 255
2825.031 1552.0613 11.670014 255 255 255
8358.9775 4286.0469 9.9796896 255 255 255
1228.4358 2249.6897 3.7271566 255 255 255
9196.9746 6353.6138 10.349742 255 255 255
2044.3035 3324.6904 6.6038098 255 255 255
347.5722 235.48108 1.0853025 255 255 255
716.8028 438.59546 1.8662022 255 255 255
-5785.3501 -4117.6523 -8.9948406 255 255 255
932.49097 360.46265 1.186709 255 255 255
535.35645 552.46448 0.9485234 255 255 255
-915.89008 -1269.5735 -4.0930724 255 255 255
-810.77179 -1216.4658 -2.8396411 255 255 255
449.32773 631.90753 1.5017155 255 255 255
1543.0135 1111.1829 1.9617475 255 255 255
24671.426 29038.92 97.396988 255 255 255
596.29468 1703.5184 2.5333707 255 255 255
155.04642 728.89362 1.3741708 255 255 255
-1128.9053 -1267.1752 -2.7190037 255 255 255
516.10687 496.89423 1.2530041 255 255 255
1147.2496 1743.458 2.8983815 255 255 255
5273.8521 6999.1685 21.229015 255 255 255
-458.42252 -1218.047 -3.4355011 255 255 255
546.2113 1073.4297 1.9573214 255 255 255
244.25876 537.6795 1.1913619 255 255 255
148.06314 858.7796 1.527789 255 255 255
1583.9785 1428.859 3.2211792 255 255 255
188.20232 422.5007 0.99628735 255 255 255
11626.921 5234.5493 12.774006 255 255 255
1015.2661 1961.2749 2.9443204 255 255 255
-474.81186 -336.93835 -1.6661404 255 255 255
-928.90082 -3630.834 -6.1409936 255 255 255
430.55673 1462.1852 2.8970993 255 255 255
-828.20593 -908.44928 -3.2605903 255 255 255
282.00146 415.71091 0.87766546 255 255 255
-1324.3062 -1452.2123 -4.7163486 255 255 255
352.72446 803.15784 1.5636816 255 255 255
1252.6421 900.16339 3.89938 255 255 255
1777.3756 3571.2622 6.9061222 255 255 255
789.57391 1339.9894 2.3618519 255 255 255
435.30032 481.06268 1.3654696 255 255 255
-516.70752 -1460.608 -3.5638041 255 255 255
289.75433 419.53745 1.1066839 255 255 255
1313.99 1244.5529 3.6132636 255 255 255
247561.78 76856.594 295.5903 255 255 255
413.52963 213.63936 0.48160529 255 255 255
-586.97424 -909.80884 -3.012094 255 255 255
-11300.218 -5827.8052 -16.019749 255 255 255
-298.90344 -314.56509 -1.7877758 255 255 255
305.59607 1279.2316 2.0301435 255 255 255
393.30249 721.67804 1.5230397 255 255 255
-1549.8065 -2054.7559 -6.0500097 255 255 255
-734.16522 -1883.6252 -3.8770053 255 255 255
140.77527 264.45251 0.72857189 255 255 255
104350.83 157354.89 326.26108 255 255 255
705.92834 1212.6377 2.5204649 255 255 255
197.62692 567.76611 1.1902044 255 255 255
107.13786 248.85454 0.43092284 255 255 255
268.56586 1043.6857 1.770169 255 255 255
853.99371 813.29285 2.1307492 255 255 255
975.18292 1055.542 2.3797634 255 255 255
-1280.4768 -2524.7625 -4.2613549 255 255 255
781.91608 1061.9989 2.1689074 255 255 255
1564.075 2402.2021 2.8170474 255 255 255
568.80951 459.58292 1.5798984 255 255 255
817.8269 794.36316 2.074527 255 255 255
495.85904 478.5722 1.4596314 255 255 255
-1759.8899 -1585.7051 -3.549046 255 255 255
753.24536 475.76001 1.9268712 255 255 255
56.047455 175.81207 0.4919472 255 255 255
-1797.0975 -2527.3896 -6.5899086 255 255 255
55.35725 1196.0634 1.9028521 255 255 255
428.35406 1205.2386 2.0076237 255 255 255
519.65869 1043.0873 1.9184717 255 255 255
-273.40686 -205.73195 -1.3855247 255 255 255
475.06604 938.40228 1.7947102 255 255 255
87.62397 1011.9085 1.6989578 255 255 255
-3076.0256 -5646.7168 -9.000639 255 255 255
4149.584 5063.2334 17.160263 255 255 255
51.917805 329.42044 0.76984233 255 255 255
-252.49725 -343.88403 -1.5616963 255 255 255
727.25269 968.16376 2.0526338 255 255 255
619.75714 213.27296 0.74443167 255 255 255
-177.34047 -335.01163 -1.7402357 255 255 255
-3065.9583 -3575.8882 -10.28368 255 255 255
546.22461 878.14197 2.4358408 255 255 255
2853.5181 2156.0974 4.7297268 255 255 255
-1388.4791 -1448.6743 -4.9096122 255 255 255
-27702.885 -2818.8352 -38.548744 255 255 255
-3711.2798 -4550.6562 -12.713721 255 255 255
313.69183 993.45093 1.7399832 255 255 255
-629.04163 -682.77112 -1.9666017 255 255 255
303.93082 1236.6617 1.7303377 255 255 255
2857.1082 9123.9736 20.11573 255 255 255
671.80353 563.48688 1.7810429 255 255 255
-5991.6279 -4075.8279 -10.001994 255 255 255
589.22687 954.47876 1.9044864 255 255 255
455.05832 1231.2406 2.0454056 255 255 255
