ply
format ascii 1.0
comment PCL generated
element vertex 1107
property float x
property float y
property float z
property uchar red
property uchar green
property uchar blue
element face 0
element camera 0
property float view_px
property float view_py
property float view_pz
property float x_axisx
property float x_axisy
property float x_axisz
property float y_axisx
property float y_axisy
property float y_axisz
property float z_axisx
property float z_axisy
property float z_axisz
property float focal
property float scalex
property float scaley
property float centerx
property float centery
property int viewportx
property int viewporty
property float k1
property float k2
end_header
-1523.0775 -696.30652 -5.1091433 255 255 255
996.87183 894.75116 1.932041 255 255 255
1190.6587 1059.6385 2.5739758 255 255 255
-841.3728 -732.93909 -3.0923383 255 255 255
160.56155 405.1344 0.88113493 255 255 255
1982.7351 1248.9845 3.9917829 255 255 255
669.38635 1061.8762 1.8541359 255 255 255
1559.6884 338.18021 3.637233 255 255 255
1259.0078 1905.5873 4.3772988 255 255 255
1209.8989 753.56671 2.7914968 255 255 255
-895.9278 -248.96007 -1.9547069 255 255 255
-453.29608 -401.2323 -1.5569079 255 255 255
943.72797 472.27573 2.0198987 255 255 255
1991.552 3019.5632 7.354393 255 255 255
-2839.4355 -2179.6426 -9.2490549 255 255 255
-1944.3025 -776.44141 -5.7383962 255 255 255
-523.56384 -466.51599 -2.1115868 255 255 255
-1681.1195 -1081.6216 -5.4866862 255 255 255
-851.29181 -551.87494 -3.0902576 255 255 255
-3402.4194 -3946.449 -9.4922438 255 255 255
-2062.1133 -4101.1421 -7.8598962 255 255 255
1017.5176 1108.8864 2.3142469 255 255 255
5119.0449 3375.1313 11.774459 255 255 255
1060.5848 1015.4883 2.3898284 255 255 255
-19630.256 -22409.359 -71.735306 255 255 255
-844.12451 -908.83087 -2.1281576 255 255 255
1049.8427 1092.8715 2.3606625 255 255 255
5609.9536 3984.9556 15.299537 255 255 255
1084.3223 1185.8016 2.8604691 255 255 255
-1851.0546 -3900.6104 -7.2940264 255 255 255
743.67078 620.05579 1.2347291 255 255 255
2589.6685 2018.0304 6.6611252 255 255 255
-666.18555 -564.94556 -1.8049742 255 255 255
274.64166 371.57803 0.5802722 255 255 255
1092.4703 842.71814 2.4958563 255 255 255
-1377.0428 -1081.1277 -3.688092 255 255 255
796.64233 1229.3651 2.0373504 255 255 255
-1295.0044 -1242.8315 -3.6857111 255 255 255
-1344.9169 -1358.0591 -3.0427005 255 255 255
1447.8019 2528.8662 4.0853004 255 255 255
628.78729 675.13324 1.7546029 255 255 255
-728.40686 -598.93512 -1.9502848 255 255 255
-1074.7509 -815.41089 -2.3292141 255 255 255
1450.0957 1095.9302 2.9868956 255 255 255
75708.859 113665.23 231.69044 255 255 255
-1176.1 -1346.912 -3.8030417 255 255 255
1087.5349 1060.1228 2.0141006 255 255 255
1294.7341 810.50439 2.9101753 255 255 255
1299.2504 506.86038 2.8094895 255 255 255
898.34625 719.67676 1.2185383 255 255 255
-656.2782 -378.80408 -1.7178283 255 255 255
1339.7512 1284.4224 1.6930991 255 255 255
1666.9862 1047.9017 3.421392 255 255 255
964.37341 431.11453 1.4625474 255 255 255
-1363.0773 -1662.5825 -3.7822731 255 255 255
1115.9714 739.95734 2.6073263 255 255 255
6480.7241 2218.3467 10.549141 255 255 255
-1494.1324 -1003.6177 -3.1095867 255 255 255
1173.1381 1215.6553 2.513675 255 255 255
2091.6882 1120.5286 4.7363248 255 255 255
1132.9421 761.58728 2.6258373 255 255 255
-1745.2379 -1061.5216 -2.90783 255 255 255
-719.02478 -952.00305 -2.9659381 255 255 255
-995.00415 -1133.8303 -2.8926296 255 255 255
1149.4154 918.59613 2.5665317 255 255 255
763.31024 499.55911 0.90496057 255 255 255
-6286.4106 -3429.8066 -7.8122888 255 255 255
619.78265 693.45282 1.6990081 255 255 255
-844.45844 -843.15948 -2.9131632 255 255 255
-701.89935 -1380.2231 -3.1378131 255 255 255
-3470.9138 -2264.783 -11.04136 255 255 255
43512.18 10609.624 50.744213 255 255 255
-2512.1042 -3093.7024 -8.3935452 255 255 255
2008.757 890.96252 4.3723855 255 255 255
1031.2471 859.88159 2.3763914 255 255 255
1041.6129 1090.7007 1.3215806 255 255 255
-7788.5195 -5408.1367 -20.635674 255 255 255
895.29218 647.82306 2.2175584 255 255 255
1330.5068 667.59735 3.1744149 255 255 255
-1000.6367 -809.06848 -3.0327435 255 255 255
1362.8582 829.21692 1.7649623 255 255 255
-1010.2782 -477.23044 -2.298929 255 255 255
-940.40582 -1082.0652 -3.3288248 255 255 255
-577.70636 -1748.6001 -3.6706386 255 255 255
1096.5122 1077.9333 2.4340775 255 255 255
3332.4783 2240.8503 4.9127107 255 255 255
414.74286 408.38031 1.2398525 255 255 255
3002.0195 1735.3489 8.6756191 255 255 255
630.8053 493.19708 1.155049 255 255 255
1894.8076 825.94647 2.3159971 255 255 255
4350.1929 2624.4263 5.9376626 255 255 255
17743.342 5724.6382 20.392122 255 255 255
697.72778 539.56128 1.8557094 255 255 255
29618.346 33240.637 100.98771 255 255 255
-551.88477 -420.61285 -1.6417978 255 255 255
876.90143 455.52603 1.5267942 255 255 255
4445.3882 3630.7659 15.641515 255 255 255
13534.225 4856.7153 15.691409 255 255 255
913.34973 1317.4045 2.1913671 255 255 255
-1021.1728 -1957.1641 -4.2731514 255 255 255
-22843.986 -19426.514 -57.527344 255 255 255
1871.2511 1148.1411 3.7006137 255 255 255
-825.04297 -553.56232 -1.934268 255 255 255
1439.9054 1430.525 2.4582703 255 255 255
-3773.0337 -4682.1826 -10.712226 255 255 255
344.17975 725.73767 1.3437059 255 255 255
1025.0814 862.23218 2.3636489 255 255 255
-2503.7261 -3226.7085 -8.5399408 255 255 255
531.9043 361.14294 1.5053877 255 255 255
1270.4087 973.23352 3.7368221 255 255 255
-584.7392 -288.62955 -1.7514336 255 255 255
-847.55383 -989.52448 -2.1826169 255 255 255
-4350.8623 -4275.0015 -12.953533 255 255 255
-990.83081 -696.68036 -2.2928908 255 255 255
4326.0552 2613.6138 5.9159298 255 255 255
2618.856 993.97858 5.593833 255 255 255
-1374.5254 -1506.7444 -3.8252299 255 255 255
2065.8713 1083.673 4.1608381 255 255 255
635.06421 386.14893 0.94433212 255 255 255
-1800.9827 -1572.986 -3.6081221 255 255 255
833.85901 538.63794 1.068773 255 255 255
1735.5265 659.01422 2.5799661 255 255 255
319.11319 914.86914 1.4499744 255 255 255
703.15552 1051.035 1.8893691 255 255 255
1066.8746 410.54047 1.2526687 255 255 255
27937.885 11723.087 66.416176 255 255 255
1908.5574 1221.5402 2.9754353 255 255 255
-5182.5181 -3563.7166 -8.1076326 255 255 255
699.87738 538.22919 1.8612399 255 255 255
836.71857 1282.4498 3.1501391 255 255 255
410.4223 902.90735 1.5159533 255 255 255
335.1713 799.82257 1.3843832 255 255 255
1082.5424 736.4209 2.5395315 255 255 255
-1028.984 -1287.1454 -2.485285 255 255 255
217.22636 876.69873 1.3528918 255 255 255
600.43109 739.35254 1.6753901 255 255 255
354.01123 944.15405 1.4945303 255 255 255
342.43683 936.51025 1.4800962 255 255 255
1049.8844 863.29266 2.6734471 255 255 255
679.80408 729.46063 1.799497 255 255 255
908.13324 1513.7091 2.2182846 255 255 255
-1796.6039 -1917.369 -5.1065059 255 255 255
-1865.5999 -1572.5728 -4.356113 255 255 255
-1486.3302 -1216.9648 -4.149395 255 255 255
1757.1726 814.47418 3.9299576 255 255 255
3274.3745 1360.6156 7.6572862 255 255 255
4510.0728 3831.3184 13.015401 255 255 255
581.70813 410.11798 0.63934851 255 255 255
1638.9797 911.77228 4.8227825 255 255 255
-2913.7695 -3049.531 -9.6608696 255 255 255
1343.661 1232.5132 3.1889312 255 255 255
843.73621 731.78754 2.1073027 255 255 255
1459.3937 732.04852 3.3777213 255 255 255
378.8479 249.44302 0.40919903 255 255 255
-2064.3782 -4420.0195 -7.2115784 255 255 255
-15945.084 -7292.3872 -19.809977 255 255 255
10011.682 6412.2549 31.592939 255 255 255
-2382.9651 -2425.3984 -5.6195483 255 255 255
-6654.481 -10542.486 -21.595675 255 255 255
981.9671 713.78967 2.3520997 255 255 255
593.09277 789.76959 1.0873717 255 255 255
1205.6195 1255.476 2.5518527 255 255 255
452.17749 1132.9636 1.6155082 255 255 255
-965.87518 -1165.4177 -3.4203081 255 255 255
44498.434 29080.512 61.713799 255 255 255
709.81653 926.92096 1.5876559 255 255 255
-1935.1425 -2032.9965 -7.0326138 255 255 255
1006.3234 267.7168 2.1600223 255 255 255
714.71954 610.62732 1.1973792 255 255 255
616.5766 1143.7144 1.8223519 255 255 255
-5259.856 -3949.7361 -14.687286 255 255 255
3020.3462 3495.7363 8.3649015 255 255 255
-1435.3094 -1243.0386 -2.7727857 255 255 255
929.18835 929.96045 2.1882336 255 255 255
-1006.0545 -1116.3517 -2.8603005 255 255 255
46968.938 10751.418 59.234943 255 255 255
-975.38361 -925.31689 -3.096683 255 255 255
-1460.666 -1714.8854 -4.7461038 255 255 255
5354.4668 1792.8912 9.514924 255 255 255
797.74701 1384.3818 1.995993 255 255 255
832.42609 624.22308 2.101887 255 255 255
1147.1016 727.60339 2.6797349 255 255 255
1329.23 704.4873 1.6512592 255 255 255
1580.4796 1009.4636 3.293782 255 255 255
-14442.414 -6459.896 -16.759569 255 255 255
713.13086 405.87872 1.6456716 255 255 255
1162.5928 755.89044 2.6904047 255 255 255
59242.254 13758.907 68.757866 255 255 255
-1438.3174 -362.95569 -2.7318468 255 255 255
-6403.978 -2182.5537 -7.318182 255 255 255
1933.6427 1151.1348 3.8187196 255 255 255
51966.555 58816.879 143.60609 255 255 255
3770.7388 2538.947 9.1171236 255 255 255
17505.457 9036.4785 62.72974 255 255 255
351.61426 930.37207 1.4847207 255 255 255
7451.375 2530.0979 19.336662 255 255 255
-619.72095 -352.93423 -1.6451174 255 255 255
1271.2906 777.99542 2.891923 255 255 255
-30777.254 -11861.95 -36.585888 255 255 255
342.47623 278.97342 0.48471624 255 255 255
11208.509 4376.3809 13.096351 255 255 255
340.39407 923.33539 1.4711787 255 255 255
1954.6686 933.78345 4.1788778 255 255 255
-626.12305 -565.24835 -2.3836091 255 255 255
882.37 825.47522 2.1269374 255 255 255
-2393.6362 -905.36176 -7.1333776 255 255 255
722.70703 335.15793 0.84251058 255 255 255
1276.83 770.64502 2.9150639 255 255 255
2380.6338 1436.4087 5.5198059 255 255 255
1632.7588 850.58545 3.5967433 255 255 255
13112.278 7046.0117 32.08847 255 255 255
228.78909 894.19147 1.3731389 255 255 255
-7135.5488 -5898.7109 -20.056335 255 255 255
252.53667 903.0061 1.3947866 255 255 255
13275.316 4849.02 15.305032 255 255 255
1765.3333 797.17059 3.9844136 255 255 255
-2293.2761 -2214.0049 -8.2973137 255 255 255
2550.1716 1077.5254 6.4615688 255 255 255
1190.5814 1238.7136 2.5339451 255 255 255
3492.7283 2588.8652 4.8145161 255 255 255
-967.91052 -1252.3599 -3.591192 255 255 255
17024.715 6011.7422 18.06702 255 255 255
935.97198 179.67097 2.1517549 255 255 255
220.41328 891.43652 1.3659525 255 255 255
778.56616 590.82922 2.0029097 255 255 255
2398.1086 941.32434 5.1969242 255 255 255
-1009.7639 -1334.1991 -3.1580615 255 255 255
10862.52 10437.235 30.815804 255 255 255
-1167.1865 -213.49023 -2.874476 255 255 255
2366.637 1001.4862 4.5101366 255 255 255
-525.30072 -573.47461 -2.253998 255 255 255
1025.4055 865.73309 2.3628831 255 255 255
-1391.9978 -1349.9823 -4.5388217 255 255 255
1352.8064 799.54248 3.0459695 255 255 255
399.79739 616.77881 0.91369265 255 255 255
978.76068 1637.7145 2.2600071 255 255 255
974.29779 887.6001 2.268275 255 255 255
-1820.194 -1587.1067 -3.6362336 255 255 255
660.80054 852.95258 1.6135539 255 255 255
1311.9729 792.98407 2.9675162 255 255 255
1345.344 943.11365 2.9160619 255 255 255
-399.58371 -188.01984 -1.425148 255 255 255
3600.1665 2219.6196 5.3285308 255 255 255
-1212.5428 -406.20605 -3.8780258 255 255 255
458.76083 992.16815 1.60952 255 255 255
618.57666 682.63007 1.6296175 255 255 255
-719.58099 -264.68512 -1.8075116 255 255 255
770.60754 771.48383 2.3365326 255 255 255
796.66962 584.50629 2.0475662 255 255 255
585.12555 787.0097 1.0659415 255 255 255
1090.4701 692.22272 2.5953796 255 255 255
672.4527 552.06274 1.7975922 255 255 255
376.8338 941.70721 1.5115778 255 255 255
748.58069 182.09103 1.6350888 255 255 255
1436.051 767.66327 3.2682803 255 255 255
-1769.7842 -1172.4971 -6.2064457 255 255 255
713.60144 1065.7712 1.9053668 255 255 255
1757.8331 801.13293 3.9595346 255 255 255
12606.348 3234.9116 24.37447 255 255 255
406.62393 712.15125 1.1915563 255 255 255
87717.148 85274.398 235.11201 255 255 255
-2551.3364 -1913.6337 -7.521214 255 255 255
1770.0485 1000.4062 3.6765788 255 255 255
-3040.5388 -1672.1425 -8.1783333 255 255 255
-1001.7278 -1485.3403 -3.4718959 255 255 255
-1761.9246 -1392.1221 -4.7275758 255 255 255
921.51923 618.20569 2.2868598 255 255 255
2066.6509 949.30286 4.4019794 255 255 255
388.72162 963.57318 1.5342859 255 255 255
669.2403 622.55414 1.0192658 255 255 255
-2689.4307 -2137.7219 -6.1769061 255 255 255
1181.0256 1094.8668 2.3817966 255 255 255
-3999.2102 -4323.1802 -11.517985 255 255 255
55703.402 11806.744 75.380295 255 255 255
-3755.3938 -3093.6123 -10.534129 255 255 255
658.19623 1046.9301 1.8366048 255 255 255
-674.63531 -319.66003 -1.7228568 255 255 255
60353.484 13913.161 70.020866 255 255 255
-3096.1877 -2342.0725 -9.1784353 255 255 255
1012.4301 1017.4393 2.3150132 255 255 255
-482.68118 -518.53412 -1.9583436 255 255 255
724.59259 531.01892 1.9167795 255 255 255
1711.6547 1241.109 4.4374161 255 255 255
-789.46472 -278.04617 -1.8426603 255 255 255
1246.0184 708.1637 2.9202118 255 255 255
-6730.4463 -4173.8384 -16.862309 255 255 255
2860.8025 1208.2764 5.6095805 255 255 255
-4232.061 -5007.9746 -11.589761 255 255 255
-1132.5159 -895.06598 -2.6684461 255 255 255
-649.77283 -275.36938 -1.6615373 255 255 255
-767.00079 -686.83905 -1.9818529 255 255 255
844.66235 583.06134 2.1445615 255 255 255
-1579.1151 -2177.0535 -5.0245223 255 255 255
745.46307 1333.9888 2.0119829 255 255 255
747.04767 1333.2594 2.0142994 255 255 255
727.27039 1088.9966 1.9280572 255 255 255
3296.2063 6565.1431 11.113351 255 255 255
3553.6516 3256.4629 10.528272 255 255 255
1928.5018 806.14148 4.3625226 255 255 255
1266.8235 1378.4498 4.3471799 255 255 255
-14539.322 -6078.8433 -20.55592 255 255 255
-1707.9153 -2337.7886 -5.7429585 255 255 255
-67865.586 -77580.445 -230.5518 255 255 255
-1731.5048 -3101.7317 -6.5854001 255 255 255
4074.6658 3194.4558 10.685338 255 255 255
294.6842 917.74402 1.4335687 255 255 255
1731.8702 850.69727 3.8132486 255 255 255
1917.1339 914.84064 4.1231499 255 255 255
-1421.7196 -1428.7574 -4.4289522 255 255 255
-2588.5251 -2847.9468 -8.6616364 255 255 255
-4639.2354 -2877.6458 -12.493106 255 255 255
290.05618 904.61072 1.422254 255 255 255
3844.4153 5560.1553 13.495755 255 255 255
4207.3242 1756.4797 8.7964478 255 255 255
67513.93 15290.254 78.719093 255 255 255
-1217.1122 -870.06232 -3.6515026 255 255 255
-797.92615 -296.9241 -1.9622995 255 255 255
377.1517 954.03766 1.5184873 255 255 255
-525.4826 -417.67276 -1.6800988 255 255 255
1173.941 1268.3289 2.5039754 255 255 255
2247.8457 1106.8894 6.1094875 255 255 255
226.29901 881.51324 1.3633615 255 255 255
2573.7781 1787.4639 4.2562065 255 255 255
987.50165 1072.1444 2.2727227 255 255 255
-596.69952 -329.24503 -1.6924558 255 255 255
261.80417 906.82214 1.4039545 255 255 255
1881.9912 1354.6013 3.532629 255 255 255
-781.56433 -303.86325 -1.8499404 255 255 255
-1494.83 -398.78265 -4.8075047 255 255 255
1668.7305 1045.4 3.4278109 255 255 255
-782.84808 -791.01764 -2.8215809 255 255 255
-1791.6929 -1664.1591 -5.3983479 255 255 255
1770.5809 844.95172 3.9125717 255 255 255
1663.8804 727.5174 3.885386 255 255 255
-842.85925 -563.57349 -2.8319354 255 255 255
-831.29889 -359.13943 -1.8721857 255 255 255
-427.46002 -987.78772 -2.8906257 255 255 255
711.82434 740.26562 0.90945798 255 255 255
-246.82785 -384.18466 -1.9458439 255 255 255
2173.5188 931.68335 4.6867628 255 255 255
798.31433 753.1228 2.3656418 255 255 255
-549.80743 -1280.307 -3.2378726 255 255 255
-868.3147 -1294.4242 -3.110451 255 255 255
4671.9458 3955.3101 9.9212399 255 255 255
893.67871 956.54633 2.1349959 255 255 255
1182.0828 882.80005 2.6436028 255 255 255
-469.97708 -269.85919 -1.5493851 255 255 255
1210.2115 938.36694 2.6672361 255 255 255
2435.821 1887.953 6.7572236 255 255 255
-10053.253 -8046.8789 -21.714462 255 255 255
258.52734 891.86145 1.3907489 255 255 255
-4027.5583 -3466.1824 -8.2089119 255 255 255
639.66492 377.47043 0.67403328 255 255 255
2129.3547 937.72815 4.5644422 255 255 255
5299.6733 7037.1465 18.327532 255 255 255
5117.5234 3102.4104 18.211559 255 255 255
-2417.9109 -1447.3584 -6.4452715 255 255 255
3602.7698 2214.4714 5.3380065 255 255 255
1886.1143 1152.1161 3.7254486 255 255 255
745.78882 2212.2903 3.5226817 255 255 255
-2505.7734 -1555.9265 -4.3549247 255 255 255
3019.7334 2249.74 9.9825268 255 255 255
1030.4603 637.2309 2.5178139 255 255 255
963.57416 806.11475 2.2753069 255 255 255
-569.49048 -318.20169 -2.1016457 255 255 255
-856.47943 -532.20648 -3.1863124 255 255 255
915.64111 845.30884 1.398553 255 255 255
689.36517 560.56836 1.0104316 255 255 255
1248.9855 919.7735 2.74891 255 255 255
1008.7558 826.21997 2.3486278 255 255 255
642.94916 827.60352 1.7598606 255 255 255
938.46417 732.51678 1.8766049 255 255 255
-5268.7339 -5055.6045 -14.945847 255 255 255
1270.5111 619.69739 3.1147728 255 255 255
602.87195 423.04404 0.6676302 255 255 255
926.7666 764.15869 2.2219718 255 255 255
-452.07617 -73.212585 -1.58435 255 255 255
-2075.3022 -1050.0912 -3.9711053 255 255 255
18297.967 11939.513 20.03437 255 255 255
-835.52734 -660.75903 -2.1691926 255 255 255
15447.428 9590.3984 53.189877 255 255 255
321.87271 928.56921 1.4600279 255 255 255
249.44403 889.79028 1.3841915 255 255 255
-2257.5122 -2367.4407 -7.3546171 255 255 255
3201.4141 2630.2512 4.4288902 255 255 255
857.2594 626.09601 1.6834818 255 255 255
-1673.579 -2222.8774 -5.6481924 255 255 255
1201.8094 905.80585 2.6680808 255 255 255
12083.004 11572.663 26.336348 255 255 255
-705.302 -178.46509 -1.7447146 255 255 255
957.47925 1232.2073 3.146822 255 255 255
-3117.0813 -2934.3958 -9.9255362 255 255 255
-557.50598 -728.18628 -1.892518 255 255 255
6024.8008 4432.5562 9.115324 255 255 255
907.2655 767.10236 2.1870208 255 255 255
774.01917 373.65353 1.3788396 255 255 255
3184.8826 2621.1687 4.4147854 255 255 255
12160.759 11690.81 26.571373 255 255 255
1512.1522 700.86951 3.5603197 255 255 255
429.10309 894.2088 2.0484765 255 255 255
1178.4812 627.95538 1.5531359 255 255 255
2278.4226 1470.4012 4.9056339 255 255 255
157.04936 401.87616 0.87464011 255 255 255
1700.825 1166.306 3.3777969 255 255 255
-1195.1919 -1152.6304 -4.4211221 255 255 255
482.14438 166.72787 0.98116201 255 255 255
-511.09521 -566.83057 -1.7952589 255 255 255
1003.8234 790.34027 1.1700507 255 255 255
-1598.3772 -1454.202 -4.4296961 255 255 255
-1427.7545 -2372.9185 -5.308104 255 255 255
1676.7737 1316.774 5.5793896 255 255 255
-784.90649 -717.58246 -2.0198276 255 255 255
-517.59979 -431.09845 -2.0482523 255 255 255
1130.4312 644.12848 2.7379317 255 255 255
-1003.0321 -985.53564 -2.2924633 255 255 255
241.13742 795.37726 1.3064954 255 255 255
-823.42743 -503.7966 -1.9793887 255 255 255
-1878.8979 -2637.1594 -6.410234 255 255 255
-8560.2568 -6659.5117 -31.581331 255 255 255
1381.7278 795.55438 3.1145222 255 255 255
-762.492 -583.96564 -1.8820809 255 255 255
798.64581 852.61591 2.3995094 255 255 255
-511.96591 -360.07361 -1.592609 255 255 255
-978.71686 -1097.8215 -3.4036844 255 255 255
2367.8052 958.93512 5.0723891 255 255 255
-748.48395 -753.62408 -1.9880346 255 255 255
3054.1252 1792.2515 5.0129852 255 255 255
872.8739 795.33594 2.1194241 255 255 255
-3660.374 -3558.6331 -9.3490477 255 255 255
1079.2968 1051.3516 2.4093416 255 255 255
2209.6946 2754.4907 8.1387682 255 255 255
-3112.876 -3475.77 -12.277712 255 255 255
2323.8071 1226.2778 5.8765817 255 255 255
845.45953 829.05237 2.0675678 255 255 255
1222.3986 1233.9965 2.5780725 255 255 255
-1532.2936 -1374.7164 -4.872014 255 255 255
5362.1392 6249.3521 16.134491 255 255 255
-1188.9073 -1075.4723 -2.485296 255 255 255
-1475.1117 -1239.2183 -4.9539475 255 255 255
-1367.146 -1636.9653 -2.8830972 255 255 255
456.41306 233.27672 0.55396223 255 255 255
1083.5574 839.50488 2.4803123 255 255 255
1009.6363 739.06879 1.8661808 255 255 255
-4835.29 -1979.8014 -13.077007 255 255 255
1181.525 826.71973 2.8524141 255 255 255
5223.0371 3007.2258 6.6771488 255 255 255
1287.3704 1139.3702 1.5847389 255 255 255
-1080.2289 -1090.6672 -3.2363565 255 255 255
820.90472 494.42389 2.0844736 255 255 255
-681.72864 -361.74506 -1.7394813 255 255 255
5026.645 2689.8704 6.8570604 255 255 255
1683.5288 1154.2313 3.3521085 255 255 255
-4940.1992 -6415.0552 -17.074203 255 255 255
-698.14471 -348.48849 -1.7320213 255 255 255
-1040.1433 -3724.3447 -6.8561926 255 255 255
-1312.4031 -1648.601 -2.9613366 255 255 255
3074.8691 1275.9163 4.3582554 255 255 255
-523.51703 -194.38472 -1.5708605 255 255 255
769.99994 698.60333 1.9560862 255 255 255
-59210.242 -31167.9 -180.87558 255 255 255
1168.5609 1231.5278 2.5044081 255 255 255
-1035.3956 -482.71667 -3.5163543 255 255 255
-928.81073 -997.2251 -2.2399676 255 255 255
1601.1624 777.10266 3.6275136 255 255 255
-997.1217 -901.70544 -3.1491952 255 255 255
-1218.7803 -1159.5127 -2.6522875 255 255 255
1280.8163 736.29657 1.5380467 255 255 255
-2176.979 -1545.3518 -5.1954584 255 255 255
6995.3374 4294.0205 7.2311101 255 255 255
748.94263 1351.5806 2.0204103 255 255 255
1236.4865 796.53015 2.8068063 255 255 255
638.60608 688.39685 1.7295517 255 255 255
777.35181 251.47534 0.90403205 255 255 255
-1535.0153 -668.31732 -4.8259802 255 255 255
812.17853 960.35114 2.0157022 255 255 255
-1048.5177 -843.49554 -2.5297368 255 255 255
-1137.0204 -729.71259 -3.6661716 255 255 255
-724.87372 -325.58981 -2.5437477 255 255 255
839.6311 869.10358 1.7763758 255 255 255
-1346.0558 -729.82953 -3.5936577 255 255 255
638.96619 614.94409 1.7268741 255 255 255
-1434.8905 -825.56213 -4.4846573 255 255 255
2485.814 2538.6753 6.4820929 255 255 255
1258.199 2075.4819 4.1919641 255 255 255
1381.1698 910.60443 3.4557602 255 255 255
1148.8844 1379.8606 2.9099855 255 255 255
672.98029 404.09769 1.9239119 255 255 255
3332.6741 1870.8787 9.2996635 255 255 255
12170.049 5181.5518 19.008501 255 255 255
6988.6714 4281.3257 7.2480268 255 255 255
-1190.8906 -1545.1218 -3.6931136 255 255 255
-2105.9026 -3673.1973 -10.086512 255 255 255
1810.7317 1444.4014 2.1580553 255 255 255
1108.4424 1200.9377 3.4730315 255 255 255
2372.042 1237.1904 7.2035975 255 255 255
1316.5786 1534.6904 2.9879944 255 255 255
2434.167 1303.1233 4.5662847 255 255 255
-3261.8943 -4023.5049 -10.536104 255 255 255
237.69115 790.47223 1.2999724 255 255 255
1080.1348 1070.0774 2.4060729 255 255 255
2131.5229 822.48804 5.3335099 255 255 255
801.57385 853.47766 2.1742909 255 255 255
599.09924 784.91162 1.1657658 255 255 255
6411.8535 5296.1592 16.475 255 255 255
-502.29666 -165.72766 -1.5080979 255 255 255
1171.5648 880.9137 2.6272247 255 255 255
1412.5298 1079.7256 2.9329987 255 255 255
773.03583 1403.5796 2.0641379 255 255 255
799.71545 1279.0096 1.7895416 255 255 255
-1677.905 -1078.7567 -5.4789348 255 255 255
1491.9604 833.2135 1.9018289 255 255 255
610.81671 558.3374 1.4521233 255 255 255
601.7196 387.16971 0.73760635 255 255 255
3149.9329 2096.0281 4.7983761 255 255 255
13037.236 4737.4038 15.184951 255 255 255
1358.9264 802.66431 3.0538659 255 255 255
-1812.2842 -1740.3289 -4.6058397 255 255 255
3115.3438 1186.3597 6.2516937 255 255 255
-442.3562 -95.758057 -1.6760572 255 255 255
-1018.2905 -1011.2103 -2.6390681 255 255 255
-16288.101 -13968.797 -50.321186 255 255 255
697.50067 496.53738 0.78254086 255 255 255
-4787.2095 -4570.3818 -14.305902 255 255 255
744.57532 1067.8866 1.942642 255 255 255
1466.4448 679.0885 3.4984117 255 255 255
1668.7528 1045.6619 3.4279723 255 255 255
3275.5518 2660.6873 7.7170658 255 255 255
-699.64001 -479.39841 -2.0029619 255 255 255
3146.9626 1189.1742 6.3162799 255 255 255
-719.89929 -442.06549 -1.9281982 255 255 255
-1954.7864 -2538.7439 -4.0048933 255 255 255
-1486.8341 -1407.2391 -2.9725854 255 255 255
1433.3096 765.43195 3.2625 255 255 255
1157.2269 446.69333 2.6387017 255 255 255
-1207.1782 -762.68695 -2.7041225 255 255 255
-7292.5547 -4316.7075 -20.379843 255 255 255
1164.8831 756.81091 2.694001 255 255 255
-2719.4531 -1983.66 -5.6473565 255 255 255
893.48419 955.8595 2.1343768 255 255 255
13500.104 4883.3359 15.567595 255 255 255
-769.5639 -921.88562 -2.3653023 255 255 255
-769.60455 -46.809963 -2.8158002 255 255 255
-2416.0613 -1815.4087 -5.9651937 255 255 255
-3201.4551 -2749.0806 -10.184672 255 255 255
-654.35907 -376.99936 -1.7058171 255 255 255
-392.79395 -139.60207 -1.4688871 255 255 255
12435.396 3189.3374 24.035189 255 255 255
1439.8854 1376.5167 3.6414714 255 255 255
872.22479 794.17236 2.1173859 255 255 255
435.25452 655.53967 0.6282438 255 255 255
-1184.6771 -1458.0771 -3.5832918 255 255 255
1216.0912 1264.693 2.565752 255 255 255
1901.8678 1441.3214 3.3848193 255 255 255
-858.83081 -536.48865 -1.9836143 255 255 255
558.328 136.14455 0.7051574 255 255 255
-1060.3563 -468.36536 -3.5914407 255 255 255
2137.5928 1087.191 4.2986917 255 255 255
3334.4358 2242.6865 4.9162297 255 255 255
2719.1865 2718.5688 4.2748394 255 255 255
4506.917 2316.1174 6.605742 255 255 255
13329.236 4852.0425 15.370469 255 255 255
-557.6875 -340.65662 -1.6311374 255 255 255
-842.81281 -611.59943 -2.3915322 255 255 255
2090.8894 936.7865 4.4762983 255 255 255
1145.2185 809.27185 2.6170228 255 255 255
-1076.2002 -1748.3549 -3.8400207 255 255 255
41963.359 13150.821 102.18866 255 255 255
3219.7102 2594.9817 8.8691263 255 255 255
3160.1387 1242.2335 6.1893868 255 255 255
660.98181 853.41388 1.6137435 255 255 255
-1370.976 -2478.2791 -5.0213099 255 255 255
3227.1272 1187.7493 6.4880772 255 255 255
2573.2852 1785.3951 4.2545071 255 255 255
3348.6045 5410.5376 9.3909159 255 255 255
1153.3499 1226.748 2.4849997 255 255 255
1664.4531 1372.4781 4.106348 255 255 255
1038.9069 1012.2836 2.3505509 255 255 255
-849.44092 -500.02277 -3.0843642 255 255 255
838.01343 435.25513 1.0562381 255 255 255
294.41724 917.55603 1.4336084 255 255 255
2694.6555 1192.8073 5.2855916 255 255 255
13242.771 4837.5547 15.267342 255 255 255
1086.8702 1192.412 2.3957067 255 255 255
-619.45416 -289.16168 -2.0726216 255 255 255
-549.39185 -249.82346 -2.0727108 255 255 255
2503.4873 2538.3398 7.0674205 255 255 255
-1593.4814 -1942.765 -4.7383256 255 255 255
2895.3091 1212.2532 5.6764045 255 255 255
-7068.5488 -2487.5732 -8.6261234 255 255 255
-1742.6986 -1221.246 -4.2117434 255 255 255
879.98724 898.1485 2.5572941 255 255 255
1138.9932 1601.1586 2.9232714 255 255 255
344.52029 725.55731 1.344185 255 255 255
6122.7104 2342.2092 14.535115 255 255 255
5276.4741 2989.3062 6.767571 255 255 255
-436.47318 -255.43739 -1.5133972 255 255 255
6232.8247 4653.7451 15.215217 255 255 255
610.00415 1056.1709 1.7870754 255 255 255
1670.1525 730.30701 3.900363 255 255 255
387.93219 962.49438 1.5327475 255 255 255
-3697.9983 -1841.2709 -7.228333 255 255 255
-533.39392 -294.41269 -1.5954453 255 255 255
1194.7697 1060.1676 2.5846403 255 255 255
32085.195 25393.617 52.535603 255 255 255
-633.76202 -780.5791 -2.1181905 255 255 255
1116.5565 740.94019 2.6097109 255 255 255
-860.56567 -1263.0175 -2.9843082 255 255 255
1757.2104 815.21973 3.9277077 255 255 255
58731.352 13623.166 68.162254 255 255 255
3495.8135 2590.2517 4.8172512 255 255 255
13510.297 4844.459 15.665991 255 255 255
4365.938 6628.7744 10.220823 255 255 255
2147.6431 886.68292 4.7293139 255 255 255
-1678.8215 -1658.4214 -5.7560945 255 255 255
6543.8472 2241.2151 10.62545 255 255 255
911.29218 823.54877 2.1787941 255 255 255
-4102.0034 -5720.5415 -10.777126 255 255 255
-2084.6194 -1125.5958 -5.5126562 255 255 255
1137.4165 1209.8119 2.4653914 255 255 255
7794.8809 3868.1433 8.9860344 255 255 255
932.34119 1205.0612 2.2004058 255 255 255
1880.2679 1148.5266 3.7158749 255 255 255
-595.08319 -543.57892 -1.793028 255 255 255
-857.09778 -403.3382 -3.0451672 255 255 255
-1173.2277 -1403.1031 -4.7547908 255 255 255
249.7729 889.52063 1.3840039 255 255 255
-480.09656 -309.9826 -1.7191039 255 255 255
43841.504 10687.294 51.116764 255 255 255
1067.5226 780.14282 2.4844637 255 255 255
12107.426 11595.144 26.392523 255 255 255
1136.7612 842.10516 2.1191478 255 255 255
1030.85 859.06958 2.3742352 255 255 255
-3914.1023 -4818.4478 -16.302759 255 255 255
-1274.1127 -869.27533 -3.8413942 255 255 255
1892.5319 820.54242 4.2415123 255 255 255
-391.45035 -224.04579 -1.4118626 255 255 255
3724.7622 1781.797 4.1165819 255 255 255
1869.2024 2508.6902 4.7030935 255 255 255
3023.8645 3808.0249 9.4099274 255 255 255
1755.105 854.47876 3.8622701 255 255 255
281.33887 337.51428 0.65304965 255 255 255
-1692.6779 -2996.5881 -5.4890165 255 255 255
-715.23682 -789.43225 -2.7873125 255 255 255
1149.9285 918.44983 2.5671039 255 255 255
832.29889 623.52625 2.1021025 255 255 255
73132.438 49259.027 115.67205 255 255 255
475.96072 536.02496 0.86037451 255 255 255
492.80106 158.85538 0.92725426 255 255 255
-482.42807 -818.42218 -2.251832 255 255 255
-1546.7169 -2088.834 -5.8943224 255 255 255
220.425 891.83228 1.367081 255 255 255
1208.7538 937.13666 2.6628165 255 255 255
1523.4666 1127.9166 3.0952349 255 255 255
-748.33807 -310.97641 -1.8879572 255 255 255
342.66354 935.92755 1.4801975 255 255 255
11535.825 3784.8479 15.608548 255 255 255
1040.3925 392.45291 3.3099897 255 255 255
-1035.2811 -865.82111 -2.8982055 255 255 255
819.53534 743.35437 2.3374832 255 255 255
3883.6821 3570.1143 13.604522 255 255 255
714.53967 528.62842 1.895031 255 255 255
-470.85699 -405.40646 -1.6307395 255 255 255
-2693.7737 -3563.9614 -9.5934534 255 255 255
1358.2258 469.21973 2.7785692 255 255 255
1409.0363 937.88135 3.0432842 255 255 255
21426.734 12084.482 23.059538 255 255 255
623.53925 1056.5602 1.8025516 255 255 255
912.8595 1317.1156 2.1914282 255 255 255
-5573.5967 -5241.6279 -9.2313499 255 255 255
664.37988 462.89404 1.0734254 255 255 255
-3797.7202 -3125.5977 -5.9460583 255 255 255
-5181.6626 -3791.4619 -15.872241 255 255 255
-3323.8408 -5307.2798 -11.078045 255 255 255
4343.0488 2622.1333 5.9398408 255 255 255
2136.8296 939.97784 4.5826478 255 255 255
783.03455 561.45984 1.9222682 255 255 255
321.55576 223.80473 0.43697983 255 255 255
258.32428 891.7381 1.3901017 255 255 255
552.72955 578.69104 1.5555543 255 255 255
-553.04132 -423.57086 -1.7654347 255 255 255
321.64835 928.67932 1.4604318 255 255 255
1713.212 1051.7458 3.5096014 255 255 255
-780.14746 -333.63712 -1.8145951 255 255 255
311.77255 922.57867 1.4488907 255 255 255
5065.6494 2707.3486 6.8926687 255 255 255
4659.771 2011.1978 13.480365 255 255 255
12214.686 2932.509 23.524372 255 255 255
-443.71582 -649.08417 -2.1512609 255 255 255
-775.12463 -449.92734 -1.9815167 255 255 255
11534.863 3783.5818 15.644377 255 255 255
-467.67474 -180.13393 -1.4414245 255 255 255
749.50079 1069.6118 1.950773 255 255 255
-726.9483 -509.90256 -1.940495 255 255 255
-7289.8481 -5862.145 -20.246933 255 255 255
1177.8429 1219.4032 2.5187032 255 255 255
641.36554 825.73999 1.7560191 255 255 255
2226.6829 4178.3496 7.8360186 255 255 255
1022.3959 656.05884 2.478555 255 255 255
8090.1143 7506.4165 22.502176 255 255 255
-17703.852 -12465.457 -50.333168 255 255 255
1333.1877 701.25916 3.1360242 255 255 255
-107562.55 -123419.2 -338.09775 255 255 255
1447.693 733.60272 3.3453717 255 255 255
963.71295 469.0914 1.2394433 255 255 255
-800.2038 -703.57861 -2.9081564 255 255 255
376.87122 941.89154 1.5120249 255 255 255
1916.5206 1196.8497 2.5195267 255 255 255
1312.9061 857.84094 2.9138513 255 255 255
675.04596 554.19794 1.8046495 255 255 255
3473.5762 5364.9556 9.5839701 255 255 255
704.96497 471.61401 0.76918715 255 255 255
769.04089 667.21948 1.9590193 255 255 255
3604.4951 2220.2107 5.3322225 255 255 255
94744.836 72999.742 151.71587 255 255 255
1310.7955 792.35724 2.9647937 255 255 255
866.82721 658.62115 2.1530757 255 255 255
-998.28198 -849.97449 -3.2948153 255 255 255
2467.6826 1526.7584 3.7604711 255 255 255
737.11053 1100.1052 1.5674629 255 255 255
622.66327 389.72235 0.66948837 255 255 255
-583.66351 -599.10999 -1.7405486 255 255 255
-1532.6147 -1142.0793 -3.2059333 255 255 255
741.36346 736.5686 0.92881495 255 255 255
6985.8389 4290.4927 7.2226772 255 255 255
2252.6931 1163.559 4.4240875 255 255 255
1228.8997 1237.8613 2.5847459 255 255 255
318.46429 913.51831 1.4476057 255 255 255
1158.1469 2183.7505 3.8715794 255 255 255
-661.98499 -216.67657 -1.6631266 255 255 255
-543.57483 -563.92206 -1.9066875 255 255 255
1223.821 1235.0739 2.5805469 255 255 255
875.44922 820.58099 2.1213944 255 255 255
972.25214 566.88391 1.9914171 255 255 255
845.15338 828.49689 2.0668917 255 255 255
1640.748 595.35492 3.9764295 255 255 255
2800.2544 1201.0946 5.4959674 255 255 255
-3757.8916 -3297.7493 -6.5155287 255 255 255
630.7359 176.52477 0.92059803 255 255 255
1473.9019 798.46887 3.309725 255 255 255
2701.1311 1567.1837 4.2159061 255 255 255
-28089.033 -42140.828 -84.819237 255 255 255
519.25946 230.17773 0.51545346 255 255 255
284.79745 914.81671 1.4238573 255 255 255
3205.1445 2632.4739 4.4338346 255 255 255
837.64429 1287.0763 3.1612229 255 255 255
-1281.6746 -1698.1016 -4.5884829 255 255 255
6475.6973 2215.3875 10.538591 255 255 255
1072.6138 1037.0286 2.4012663 255 255 255
-1046.1385 -342.00235 -3.3852859 255 255 255
3024.5967 1227.1768 5.930459 255 255 255
-755.61414 -704.37823 -2.1074219 255 255 255
1026.4247 740.04297 2.4232626 255 255 255
-413.36581 -324.54071 -1.4937167 255 255 255
713.73669 1065.5931 1.9063414 255 255 255
62049.484 14218.146 72.337486 255 255 255
261.27884 905.49506 1.4019789 255 255 255
598.59766 1257.547 2.4599791 255 255 255
1229.7107 2288.0613 3.8414216 255 255 255
1377.325 1006.7197 3.9312818 255 255 255
-1646.7512 -2248.5723 -5.2963409 255 255 255
229.12506 894.97675 1.376006 255 255 255
-4016.5818 -4344.0264 -11.567801 255 255 255
-6195.333 -4248.0977 -16.368292 255 255 255
1276.1124 770.32483 2.9122243 255 255 255
-698.49243 -819.41736 -2.3350935 255 255 255
-1313.3774 -1064.9751 -3.2688439 255 255 255
7185.5278 5158.4644 17.468155 255 255 255
3722.0378 5736.2749 10.138441 255 255 255
-1369.6581 -1666.8063 -3.0258894 255 255 255
-790.18488 -493.92337 -1.9025832 255 255 255
754.91394 1353.7177 2.029243 255 255 255
-3700.97 -2245.1301 -9.6059303 255 255 255
-768.88599 -386.69855 -2.8502371 255 255 255
-873.36017 -535.15851 -3.2319527 255 255 255
26516.621 3457.1616 33.421463 255 255 255
1152.2816 731.40308 2.6929324 255 255 255
7148.1484 3489.7444 16.032341 255 255 255
-3900.1011 -2524.1216 -6.2177629 255 255 255
883.41876 825.78833 2.1288738 255 255 255
940.02301 94.853844 2.6080089 255 255 255
1273.3682 779.33087 2.8972352 255 255 255
-1028.186 -2235.4456 -4.5221281 255 255 255
47754.434 10911.542 60.215302 255 255 255
66925.508 15146.239 78.028564 255 255 255
340.2652 922.7901 1.4699064 255 255 255
4506.3691 4623.1187 9.6175814 255 255 255
391.1488 447.29285 1.2108423 255 255 255
160.38849 404.3327 0.87996244 255 255 255
751.30347 1081.5264 1.9546782 255 255 255
14931.276 10033.987 20.073 255 255 255
194.06676 664.52283 0.80013961 255 255 255
-1157.2736 -881.44635 -2.9849925 255 255 255
1462.7114 733.79492 3.3867698 255 255 255
48398.961 11036.317 61.093521 255 255 255
2692.6045 1544.1505 4.1806078 255 255 255
2931.3018 1213.2017 5.7511845 255 255 255
-609.48328 -281.62048 -1.8841645 255 255 255
156.99667 401.68661 0.87459636 255 255 255
11160.928 4359.8237 13.039832 255 255 255
-1036.5848 -1216.1044 -3.3885095 255 255 255
641.90717 1159.87 1.8554862 255 255 255
-2810.907 -2550.231 -4.5213575 255 255 255
2400.3374 942.17468 5.2026772 255 255 255
-1781.4427 -1190.2953 -2.9475837 255 255 255
-680.01215 -431.13232 -1.7713578 255 255 255
1193.8981 392.4783 2.9171968 255 255 255
601.34473 741.18414 1.6782031 255 255 255
1957.6185 1098.0291 4.7524447 255 255 255
-789.36786 -294.83365 -1.9008448 255 255 255
377.00995 952.95721 1.5174174 255 255 255
1703.2925 1141.5892 3.4009125 255 255 255
-1199.7212 -944.01801 -4.4761057 255 255 255
217.1337 877.4762 1.3539987 255 255 255
-3450.0635 -2163.2649 -9.2310953 255 255 255
977.96594 891.15942 2.2776003 255 255 255
252.43454 902.57239 1.393985 255 255 255
1921.2103 916.74243 4.1310582 255 255 255
3610.9905 2218.9858 5.3504314 255 255 255
289.69199 903.90363 1.4207866 255 255 255
796.85846 727.86218 2.0016947 255 255 255
975.77222 691.73486 2.3507659 255 255 255
-427.8905 -64.367874 -1.5519176 255 255 255
-1516.8925 -1327.1793 -4.1914759 255 255 255
-471.83682 -544.07507 -2.8473997 255 255 255
1142.6976 366.93463 2.8443997 255 255 255
-418.43689 -423.65924 -1.7298508 255 255 255
1765.4918 1573.483 3.7289481 255 255 255
1331.9022 667.44635 3.1781321 255 255 255
1295.6923 672.18103 3.0802796 255 255 255
-3551.7161 -2680.7961 -10.65449 255 255 255
897.18048 818.79102 1.870929 255 255 255
-384.26559 -120.77424 -1.4019964 255 255 255
-684.1333 -531.62793 -2.1807208 255 255 255
-480.8454 -411.42264 -1.5883051 255 255 255
353.8772 944.47559 1.4949884 255 255 255
-3899.4866 -3917.4285 -6.4582372 255 255 255
-623.25702 -433.69394 -1.7630666 255 255 255
-1569.97 -4662.4551 -10.225857 255 255 255
-5933.3799 -3533.7437 -7.7707958 255 255 255
1010.5217 2471.5168 3.9529061 255 255 255
1111.1992 691.42578 2.6434059 255 255 255
931.28601 932.07635 2.1932812 255 255 255
-57087.996 -57207.562 -188.407 255 255 255
73993.672 16606.387 86.312325 255 255 255
2339.0154 2259.6689 8.3628111 255 255 255
2589.0466 1715.1951 4.8768907 255 255 255
1520.9135 607.36816 3.830898 255 255 255
1010.9131 1608.8082 3.2788069 255 255 255
-3729.0029 -7910.6724 -15.996189 255 255 255
-903.18207 -568.31799 -2.1788807 255 255 255
1930.923 1150.1709 3.8123298 255 255 255
746.58807 1011.1369 1.5428427 255 255 255
-3504.915 -4776.645 -14.667122 255 255 255
388.96991 951.74969 1.5282236 255 255 255
-540.3338 -864.67242 -2.4787252 255 255 255
616.07446 645.23096 1.6860634 255 255 255
-1455.0436 -1721.968 -3.1678717 255 255 255
-784.82556 -914.06152 -2.9680476 255 255 255
-1918.5905 -1027.6134 -5.1794486 255 255 255
-654.41138 -418.13489 -1.8532614 255 255 255
17033.74 13434.466 43.448242 255 255 255
1915.2942 2006.9346 2.7936351 255 255 255
1347.8677 944.71844 2.9220693 255 255 255
2176.1387 932.28033 4.6931038 255 255 255
-519.52264 -237.08836 -1.5735564 255 255 255
1130.9768 776.73499 2.6105695 255 255 255
451.66388 1121.7853 1.6086987 255 255 255
1573.074 1210.5763 2.0923579 255 255 255
1272.2659 1304.8811 2.6356914 255 255 255
-539.02899 -373.81036 -1.7204015 255 255 255
139286.33 151277.58 367.08862 255 255 255
3144.2542 2092.6638 4.7879262 255 255 255
2016.3268 1700.4609 5.0462174 255 255 255
1645.0775 1124.5677 2.0270908 255 255 255
1762.7112 4033.0315 6.4571905 255 255 255
2438.4001 1639.7441 2.9087169 255 255 255
-1571.9135 -1020.0471 -4.2856903 255 255 255
10754.951 7422.832 28.196554 255 255 255
-4098.8086 -1352.048 -10.306993 255 255 255
172.85127 451.31293 0.94252175 255 255 255
44430.082 34195.832 55.438309 255 255 255
-2483.7986 -1800.2424 -5.5653381 255 255 255
927.45325 1310.6104 2.2055914 255 255 255
-608.0047 -380.00604 -1.7215153 255 255 255
1922.8867 820.51038 4.326365 255 255 255
-2388.5806 -2692.4302 -9.2590437 255 255 255
-1898.01 -1007.1866 -3.8733344 255 255 255
-473.29514 -346.90292 -1.5576832 255 255 255
7882.5137 3143.9956 10.678514 255 255 255
2145.2371 1847.6958 3.6013551 255 255 255
3840.1233 4979.5542 11.566462 255 255 255
795.45319 582.65424 2.0431874 255 255 255
1422.0282 1234.7705 2.875159 255 255 255
13572.505 4819.3394 15.835813 255 255 255
659.96619 688.96033 1.9196819 255 255 255
-499.42535 -435.47797 -1.6153482 255 255 255
-1035.4431 -1015.6263 -2.3146508 255 255 255
568.11938 309.27197 0.6909979 255 255 255
1043.1765 863.2467 2.3968012 255 255 255
6326.603 7461.7729 19.370665 255 255 255
-1562.1208 -1146.95 -3.8743062 255 255 255
7463.5 2611.7988 18.274227 255 255 255
-862.01257 -1155.6685 -2.4733744 255 255 255
12069.736 11522.103 29.337179 255 255 255
-1025.8522 -1247.1333 -3.5978146 255 255 255
241.62813 652.53546 1.1925802 255 255 255
-116.30413 -247.54276 -1.4754342 255 255 255
905.15009 833.05798 2.1609914 255 255 255
-960.0426 -1105.99 -3.6731288 255 255 255
-609.12109 -495.49673 -2.2801096 255 255 255
1190.6439 1059.8087 2.5733645 255 255 255
-765.71509 -343.75446 -1.7531502 255 255 255
-1453.5508 -684.43158 -2.6350813 255 255 255
993.74536 902.16443 1.2103578 255 255 255
-693.33136 -408.41306 -1.7275087 255 255 255
-762.73889 -618.33521 -1.8871292 255 255 255
-1168.022 -343.98901 -4.0435386 255 255 255
1134.212 762.22888 2.6284704 255 255 255
-1054.5569 -573.76672 -2.1842556 255 255 255
-1238.0336 -482.09741 -4.2375808 255 255 255
687.04779 544.59186 1.6667513 255 255 255
-3715.6899 -2042.2797 -10.252039 255 255 255
-3858.0901 -1174.642 -4.8588257 255 255 255
21022.201 7999.0127 74.199463 255 255 255
1080.2072 1475.3201 2.38118 255 255 255
-59375.504 -48319.902 -194.26703 255 255 255
-594.008 -504.23969 -1.7276862 255 255 255
-919.02332 -1401.2979 -3.7416611 255 255 255
1259.6964 1024.8654 1.6129287 255 255 255
-1235.39 -1029.4937 -3.7412443 255 255 255
-1319.9425 -598.43152 -4.5223231 255 255 255
-5131.7515 -1958.0677 -5.9580827 255 255 255
994.69415 223.21689 2.5529072 255 255 255
-267839.25 -299451.31 -659.16779 255 255 255
-141.82094 -253.7655 -1.6268787 255 255 255
549.81866 746.81146 1.6057196 255 255 255
811.96918 959.89154 2.0152187 255 255 255
-1177.8995 -736.20801 -2.5122013 255 255 255
-555.8808 -216.05722 -1.6775913 255 255 255
1968.3015 1925.9629 3.3386445 255 255 255
623.39758 706.08624 1.7053117 255 255 255
6988.2705 4280.4521 7.2464719 255 255 255
-3172.2876 -3139.1594 -5.2082157 255 255 255
-9626.2744 -13354.226 -37.275635 255 255 255
249.14018 889.32092 1.3827423 255 255 255
-1341.693 -1190.161 -3.8312097 255 255 255
4360.8589 2630.9709 5.9537349 255 255 255
-745.35492 -822.59467 -2.8819594 255 255 255
-8677.2832 -3627.3806 -21.829927 255 255 255
-17299.99 -6404.8535 -21.849422 255 255 255
-1868.927 -5492.8564 -15.036502 255 255 255
1136.4147 1202.5201 2.4643762 255 255 255
3897.7231 1874.3253 4.0406485 255 255 255
736.40509 452.49829 1.3489177 255 255 255
1520.489 1126.0005 3.089349 255 255 255
13514.056 4888.6699 15.584778 255 255 255
12157.303 2916.7981 23.423372 255 255 255
683.81696 176.36783 0.75694621 255 255 255
294.20071 917.05884 1.4325544 255 255 255
1021.2787 858.60474 2.3557715 255 255 255
3593.6292 2215.4138 5.3166666 255 255 255
-2212.354 -3150.1658 -9.5539074 255 255 255
42896.785 10457.704 50.015526 255 255 255
47049.098 10756.318 59.347134 255 255 255
342.01807 934.5437 1.4768759 255 255 255
527.73737 210.8201 0.52099019 255 255 255
726.1427 1254.3645 2.127111 255 255 255
-3732.9619 -2517.1982 -5.2020884 255 255 255
755.60492 1150.9843 1.6318245 255 255 255
416.55518 243.9857 0.43829191 255 255 255
-1104.3112 -417.42618 -2.175071 255 255 255
10919.87 2208.6619 20.745098 255 255 255
820.73987 1479.4465 2.1196282 255 255 255
225.86876 882.10498 1.3639109 255 255 255
1562.0552 1531.8632 1.9303219 255 255 255
4341.5981 2621.4773 5.9373322 255 255 255
217.77071 878.61316 1.3559856 255 255 255
11205.615 4380.2988 13.095512 255 255 255
285.31357 915.60016 1.4251565 255 255 255
1006.3726 442.55322 1.154498 255 255 255
1921.5028 1894.3995 4.2387838 255 255 255
59074.738 13702.654 68.56073 255 255 255
712.2171 1040.7332 1.8856621 255 255 255
401.79449 1564.252 3.2494452 255 255 255
68108.875 15407.987 79.399811 255 255 255
11258.545 4385.5503 13.16676 255 255 255
908.16028 821.01422 2.1714478 255 255 255
467.18909 454.03024 1.3787621 255 255 255
457.91678 989.74921 1.6061227 255 255 255
871.56134 645.23395 1.8703666 255 255 255
376.88696 942.70129 1.5127085 255 255 255
2582.0293 1792.3232 4.2701125 255 255 255
261.29468 906.26715 1.4046354 255 255 255
3223.9202 3707.2881 8.842268 255 255 255
-4025.8425 -1267.3047 -4.9069533 255 255 255
5393.1143 1799.7943 9.5616808 255 255 255
-1762.8362 -1443.4001 -3.583061 255 255 255
1924.3623 1146.7578 3.7970521 255 255 255
2251.668 2224.5203 5.8316207 255 255 255
-1217.2075 -1727.3119 -4.3138604 255 255 255
1029.4376 857.59576 2.3737409 255 255 255
2030.1489 947.375 4.317564 255 255 255
475.82089 44.038097 0.89935738 255 255 255
123131.28 53905.789 179.77582 255 255 255
1180.5463 1242.0631 2.5223045 255 255 255
931.01312 1203.1179 2.1967535 255 255 255
13343.927 4856.9404 15.389853 255 255 255
-377.2117 -154.87514 -1.3745954 255 255 255
3954.6965 5536.2793 10.018222 255 255 255
-1437.3942 -1132.6155 -3.7502966 255 255 255
1197.7432 1251.1215 2.5419264 255 255 255
1205.9984 1255.6942 2.552592 255 255 255
1734.1014 808.23621 3.8855085 255 255 255
4501.1953 2315.6545 6.5994406 255 255 255
-440.98172 -408.71277 -1.5524485 255 255 255
1240.2045 769.53552 2.8453467 255 255 255
1755.1475 815.04138 3.9248891 255 255 255
-104988.16 -48733.91 -116.53616 255 255 255
3177.844 2614.6797 4.405014 255 255 255
-8979.459 -4411.7261 -11.249236 255 255 255
2384.6807 2878.9631 5.5719237 255 255 255
3200.6299 2629.5889 4.4283285 255 255 255
-2945.2473 -1944.4281 -7.0670986 255 255 255
-680.16785 -322.72968 -1.7251127 255 255 255
74003.844 16617.635 86.330582 255 255 255
258.85703 893.64966 1.3924056 255 255 255
2045.7229 1172.3361 4.6954875 255 255 255
62638.398 14341.909 73.049553 255 255 255
-748.11121 -261.27402 -1.8429048 255 255 255
252.3508 903.04004 1.3948302 255 255 255
16939.227 5983.8848 17.978621 255 255 255
13240.033 4839.5078 15.265924 255 255 255
340.77728 923.48608 1.4709266 255 255 255
11370.963 3736.2791 15.42119 255 255 255
1868.5432 1146.4561 3.6938989 255 255 255
-1112.1759 -176.08269 -2.7513175 255 255 255
926.88104 579.88861 1.1846159 255 255 255
-1569.0236 -1206.8961 -5.1196256 255 255 255
519.39166 368.345 1.3412123 255 255 255
8648.123 9774.4863 23.687452 255 255 255
-7052.7339 -3351.4624 -9.005022 255 255 255
-8780.542 -7406.0903 -17.257462 255 255 255
-455.1265 -74.400505 -1.5879575 255 255 255
12524.084 4641.7881 14.616389 255 255 255
-4108.46 -2119.0718 -6.340179 255 255 255
456.15533 978.63153 1.5987293 255 255 255
1636.2463 835.3233 3.6211419 255 255 255
2811.1731 1204.4833 5.513133 255 255 255
706.77625 1052.6323 1.8949422 255 255 255
628.86505 52.152615 1.5274822 255 255 255
318.12735 914.09314 1.4476104 255 255 255
-757.7691 -291.21414 -1.9643024 255 255 255
-1877.8643 -987.70551 -4.9325843 255 255 255
818.48029 136.98463 0.93807495 255 255 255
228.54395 893.56171 1.3726528 255 255 255
-570.15985 -372.9498 -1.624213 255 255 255
-565.22693 -325.89194 -1.8286557 255 255 255
376.56021 951.89636 1.516312 255 255 255
751.39215 1081.0588 1.9538429 255 255 255
388.4906 962.59186 1.5332835 255 255 255
219.46854 889.54596 1.3637966 255 255 255
5043.5005 2696.8381 6.8633776 255 255 255
851.49091 1072.3768 1.1306223 255 255 255
4494.3472 7210.2603 15.213454 255 255 255
-703.2691 -619.3811 -2.5474765 255 255 255
2023.3959 1191.1528 5.1484761 255 255 255
6415.2412 4602.2676 17.230524 255 255 255
993.63312 998.31659 2.2874997 255 255 255
645.77911 350.82068 0.92441237 255 255 255
-832.07904 -207.65819 -2.095273 255 255 255
-416.34985 -468.18738 -1.7881262 255 255 255
969.59949 892.53888 2.2612634 255 255 255
745.03162 1332.5596 2.0125868 255 255 255
1193.1129 1058.8434 2.579664 255 255 255
-1834.5602 -2024.6696 -7.1554198 255 255 255
-513.25543 -459.71362 -1.6394242 255 255 255
3621.2649 6335.5596 10.615283 255 255 255
4957.9785 13802.742 21.880438 255 255 255
4777.5835 10658.908 16.636909 255 255 255
-1246.9308 -1314.9696 -2.6589563 255 255 255
388.39322 950.71295 1.525651 255 255 255
162.10374 406.34802 0.88475507 255 255 255
1181.8435 1224.3441 2.532069 255 255 255
-615.3443 -390.43066 -1.7426783 255 255 255
-1408.1288 -818.67316 -3.4514456 255 255 255
-6533.8174 -2897.2834 -8.8186865 255 255 255
321.47751 928.15723 1.4599184 255 255 255
-1050.7533 -119.85925 -2.3497744 255 255 255
2894.1777 1212.063 5.6746192 255 255 255
1658.0017 420.31308 4.1127071 255 255 255
950.87976 852.33301 2.2403753 255 255 255
161.59412 401.58136 0.87920916 255 255 255
843.5423 761.37024 2.0733879 255 255 255
13536.294 4801.9717 15.794379 255 255 255
37756.941 29290.719 61.227425 255 255 255
1157.8201 741.19916 1.8238399 255 255 255
-26109.303 -16512.508 -39.817947 255 255 255
1980.0027 1781.3806 3.7208154 255 255 255
-1525.7048 -1176.4576 -4.2985058 255 255 255
451.50555 1133.0667 1.6138283 255 255 255
-1096.1448 -1128.1907 -4.1582808 255 255 255
-512.39105 -307.72418 -1.5963235 255 255 255
-601.34137 -839.09808 -1.9600123 255 255 255
853.89508 806.961 1.9513556 255 255 255
2124.9937 1688.5602 3.4649916 255 255 255
1188.37 886.06934 2.6591201 255 255 255
917.83917 433.52499 1.3884857 255 255 255
