ply
format ascii 1.0
comment PCL generated
element vertex 1098
property float x
property float y
property float z
property uchar red
property uchar green
property uchar blue
element face 0
element camera 0
property float view_px
property float view_py
property float view_pz
property float x_axisx
property float x_axisy
property float x_axisz
property float y_axisx
property float y_axisy
property float y_axisz
property float z_axisx
property float z_axisy
property float z_axisz
property float focal
property float scalex
property float scaley
property float centerx
property float centery
property int viewportx
property int viewporty
property float k1
property float k2
end_header
-2689.2866 50.556759 -3.6796219 255 255 255
-12181.23 -9458.7988 -28.361898 255 255 255
3992.1284 1091.8821 3.8985798 255 255 255
4433.3765 1652.605 3.9631689 255 255 255
2323.2097 1994.614 5.3678226 255 255 255
8182.3467 2654.7087 9.7105207 255 255 255
-311.19946 -222.21434 -1.5321925 255 255 255
-69.103416 284.43112 -0.35150805 255 255 255
3854.9041 909.42999 3.9531214 255 255 255
-3172.1311 256.0947 -4.4035368 255 255 255
3791.2424 1487.6864 3.9364002 255 255 255
2072.9077 704.80286 2.0107484 255 255 255
803.59796 495.17822 1.2163596 255 255 255
-459.38644 -60.070774 -1.5038815 255 255 255
-805.84698 -564.3197 -3.2500048 255 255 255
3759.4778 1000.7817 3.8052132 255 255 255
-80.063957 439.42218 -0.28170085 255 255 255
-2788.3901 -2865.2656 -7.8128376 255 255 255
3791.4475 950.33069 3.8723176 255 255 255
-1170.6753 -238.18358 -3.629256 255 255 255
4490.2734 1739.6367 4.0541 255 255 255
1706.2657 995.63635 2.6549249 255 255 255
-25.94105 172.28343 -0.60416651 255 255 255
-3901.5586 -1898.0002 -5.38485 255 255 255
2284.1987 1145.0662 2.6962454 255 255 255
7353.2686 2910.2004 6.9595218 255 255 255
3992.2332 1210.1129 3.7922816 255 255 255
-682.77179 -509.79288 -2.3033047 255 255 255
-86.150063 350.21021 -0.38458729 255 255 255
3655.0232 991.00629 3.7385819 255 255 255
4127.3164 974.25415 4.0818486 255 255 255
4968.8721 1126.3235 4.466321 255 255 255
-1950.6892 -142.58777 -2.6498184 255 255 255
3836.811 1579.5558 3.6160161 255 255 255
3713.2046 1403.1973 5.000216 255 255 255
-128.1118 354.83221 -0.31608292 255 255 255
587.23846 598.61401 1.3161633 255 255 255
-58.134785 463.90088 -0.48486543 255 255 255
-1637.6807 -639.83984 -3.2633276 255 255 255
-1372.8845 -1052.4045 -3.6626778 255 255 255
3831.7737 930.48859 3.9120469 255 255 255
971.79218 440.85272 1.4369187 255 255 255
339.12823 186.03171 0.59844548 255 255 255
1124.4653 354.33694 1.7150465 255 255 255
-662.4873 -509.49173 -2.1435382 255 255 255
3910.3057 989.45154 3.9239233 255 255 255
1172.0234 390.71512 1.7467085 255 255 255
4254.8853 994.40411 4.1449051 255 255 255
-1942.5802 83.613342 -2.4876096 255 255 255
19.706266 572.67377 -0.55213869 255 255 255
-525691 70991.289 -608.51666 255 255 255
4473.0005 1680.9846 5.9303651 255 255 255
998.42358 525.54181 1.4415035 255 255 255
1009.575 531.02692 1.4541153 255 255 255
3777.3877 924.1507 3.8822196 255 255 255
-2442.8608 -1196.0321 -3.5547862 255 255 255
2316.334 1047.3243 2.1500275 255 255 255
-49.978485 270.54425 -0.30269226 255 255 255
-3842.2043 284.7796 -5.7471089 255 255 255
-2105.6926 27.344681 -2.7626951 255 255 255
-534.6803 -272.14981 -2.063833 255 255 255
1992.3069 811.59155 2.4079351 255 255 255
932.57098 504.92047 1.3672339 255 255 255
3826.9861 882.41473 3.9516044 255 255 255
-1854.7281 -12.268576 -2.5646446 255 255 255
-1939.0115 -246.12564 -3.7168291 255 255 255
-2273.6475 416.45728 -3.1357951 255 255 255
6671.062 -1871.7565 10.546498 255 255 255
-3659.1108 -1798.3428 -5.1215048 255 255 255
-2089.8452 -18.190615 -2.647002 255 255 255
3542.4839 851.53229 3.7696292 255 255 255
4240.7412 969.71057 4.1552801 255 255 255
3875.2053 1579.1354 3.6410658 255 255 255
-4653.5776 -366.60852 -6.5927868 255 255 255
-3962.8433 -1853.816 -5.4882731 255 255 255
-523.18573 9.355773 -1.5393375 255 255 255
1123.441 625.60602 1.5651245 255 255 255
-1300.5873 -998.70764 -3.8658254 255 255 255
4110.811 987.22284 4.0606966 255 255 255
-1305.1497 -795.63275 -2.5829132 255 255 255
-7501.7686 -3129.9104 -9.4318895 255 255 255
-203.83727 -102.18481 -1.3688803 255 255 255
-1096.6254 -726.51562 -2.6336653 255 255 255
2730.1274 764.65021 3.1576526 255 255 255
679.52429 528.96997 1.0179708 255 255 255
-1908.5708 -997.09253 -3.1932924 255 255 255
-400.07172 -347.06949 -1.5773669 255 255 255
-1044.4595 -141.07014 -2.4646389 255 255 255
1442.6714 397.36035 2.5797594 255 255 255
-231.11612 -104.90299 -1.3116785 255 255 255
-280.87866 522.49902 -0.22142811 255 255 255
-3748.2542 -1859.9596 -5.2392349 255 255 255
3889.8071 878.34125 4.0015683 255 255 255
4252.189 959.5285 4.1736655 255 255 255
-59.450142 214.16629 -0.47802043 255 255 255
698.24432 653.88855 1.3964298 255 255 255
646.15161 616.3584 1.3136731 255 255 255
-4229.0791 -366.46997 -4.4715824 255 255 255
-4126.5312 -1749.4497 -6.1469913 255 255 255
5317.4888 1194.4452 4.7540922 255 255 255
-968.4184 -739.54041 -2.3539171 255 255 255
905.01984 476.94528 1.3401273 255 255 255
-8261.2412 -3198.9434 -10.298384 255 255 255
2008.0747 930.89032 2.5940568 255 255 255
-2315.8315 -450.10513 -3.1709783 255 255 255
6434.8652 368.43332 7.6234498 255 255 255
-4214.4878 -1614.8225 -6.2030272 255 255 255
-97.572762 227.92317 -0.64198703 255 255 255
5188.0088 1038.7783 4.6303544 255 255 255
1997.7057 433.17374 2.1870272 255 255 255
2554.6558 871.33612 2.9093301 255 255 255
2150.0027 2688.5903 6.6013956 255 255 255
3409.3293 1492.5194 3.2685552 255 255 255
-1563.1232 43.110497 -2.5644429 255 255 255
-26.097181 313.12234 -0.59540331 255 255 255
3715.6521 1435.7939 5.0015774 255 255 255
-1386.4415 -248.2883 -2.5764186 255 255 255
-4993.8799 -4708.7144 -12.554906 255 255 255
-477.3035 -255.89322 -1.5711226 255 255 255
21367.66 -1783.0605 26.365431 255 255 255
1215.418 461.35181 1.7463286 255 255 255
2591.3857 922.50531 2.9055469 255 255 255
19477.623 11812.174 29.538805 255 255 255
377.50018 332.51096 0.68088007 255 255 255
4768.5005 938.99249 4.4983287 255 255 255
1172.9033 700.7749 1.4172119 255 255 255
2666.2466 756.06989 3.104651 255 255 255
-1577.6046 -1059.3859 -3.5158174 255 255 255
-1278.4495 -808.7771 -2.6481886 255 255 255
-768.84888 -587.92603 -2.0896902 255 255 255
4159.0444 1102.4648 4.0050879 255 255 255
-334.16977 -117.50021 -1.5615544 255 255 255
1968.9447 670.00317 2.4739914 255 255 255
672.60388 284.59225 0.55389053 255 255 255
3676.094 4221.6055 11.030872 255 255 255
-11292.068 -11598.52 -36.717739 255 255 255
1620.1387 193.85005 1.8350232 255 255 255
2551.7002 868.85889 2.9073393 255 255 255
2359.0911 908.01001 2.3868501 255 255 255
-1646.3865 -690.32886 -2.9851398 255 255 255
-2568.8245 221.09895 -3.4482186 255 255 255
-3624.6948 -1833.5674 -5.1144814 255 255 255
-2060.6042 -1796.202 -4.6509643 255 255 255
6172.4761 2467.3938 5.8280454 255 255 255
34026.871 16431.691 47.243919 255 255 255
-5126.4658 -4392.0151 -11.784399 255 255 255
16197.781 3797.4341 20.526146 255 255 255
-36960.945 3960.6824 -56.107384 255 255 255
662.07129 496.68863 0.98780429 255 255 255
2606.1289 1161.4891 2.4416595 255 255 255
3789.0503 1577.1187 3.5830464 255 255 255
4823.105 820.08777 5.7108192 255 255 255
-81.847855 319.88617 -0.38891292 255 255 255
2591.3206 1326.1294 2.4762797 255 255 255
-10113.971 -6165.9819 -17.380117 255 255 255
7027.8335 2557.7297 7.0608282 255 255 255
935.5351 457.7627 1.3834217 255 255 255
1996.9535 816.67438 2.4094853 255 255 255
485.75452 387.5097 0.82046008 255 255 255
5705.4141 686.71942 5.2443633 255 255 255
2763.0496 769.47296 3.1865685 255 255 255
-1620.0696 -727.68964 -2.7234178 255 255 255
1012.6 1442.9937 3.9451308 255 255 255
5219.8228 1298.9204 4.4716535 255 255 255
-1594.954 -358.40283 -2.5523975 255 255 255
10291.688 3746.7883 10.964034 255 255 255
-3998.8079 -1904.5853 -5.5643678 255 255 255
6039.4507 2335.9062 5.569026 255 255 255
3610.6938 1361.4341 4.8073492 255 255 255
-935.21545 -656.39771 -2.2871056 255 255 255
-1215.0273 -92.462463 -2.1411567 255 255 255
492.25839 390.11639 0.82873964 255 255 255
-50.732853 288.88635 -0.3650609 255 255 255
-3648.6333 36.860241 -4.6660767 255 255 255
3795.0554 1576.8275 3.591193 255 255 255
3219.9695 1306.5903 2.8971148 255 255 255
3084.937 989.3288 3.8096359 255 255 255
5037.2119 1127.8502 4.4966569 255 255 255
2390.4651 1164.8839 2.780127 255 255 255
4703.4199 1104.5337 4.9388595 255 255 255
-188.90459 -113.26308 -1.2363126 255 255 255
-487.57394 -228.03008 -1.5152798 255 255 255
-6705.2109 -1445.5238 -12.998251 255 255 255
-1154.1488 -23.335316 -1.963498 255 255 255
3670.0542 865.90277 3.8549154 255 255 255
3226.4502 1361.5762 3.2985814 255 255 255
1845.0256 1315.2303 3.3596914 255 255 255
2756.7671 599.59113 3.3911173 255 255 255
-334.18533 -77.477844 -1.5074095 255 255 255
-465.45645 -244.09904 -1.5298309 255 255 255
5220.6235 1295.6495 4.45435 255 255 255
-1906.7914 -1165.25 -3.840179 255 255 255
3037.6099 641.03839 3.6008408 255 255 255
956.49982 929.47736 2.6127312 255 255 255
3981.7424 887.37537 4.0616598 255 255 255
653.10419 275.45081 0.72717369 255 255 255
979.02307 396.36108 1.134469 255 255 255
-37.077961 305.05768 -0.2902413 255 255 255
-504.9653 -214.7822 -1.6392285 255 255 255
1294.1206 549.11597 1.625011 255 255 255
-57.77066 363.72272 -0.39753169 255 255 255
2712.1685 108.93404 5.0378823 255 255 255
2001.3853 694.30994 1.9229928 255 255 255
-726.03241 -489.09375 -2.4507203 255 255 255
669363.69 212279.08 686.12634 255 255 255
-1298.1023 274.33279 -2.2108932 255 255 255
554.98145 319.2168 0.7251147 255 255 255
1693.3743 615.98267 2.2119999 255 255 255
990.95203 422.46735 1.4713565 255 255 255
-3805.8948 -1824.2228 -5.3178158 255 255 255
1059.5908 539.88812 1.5105733 255 255 255
155879.22 53168.906 187.94896 255 255 255
-1692.7147 -1106.6694 -3.1113622 255 255 255
-59.106594 290.89877 -0.3193118 255 255 255
338.6156 224.49739 0.60117167 255 255 255
-99.672134 329.37027 -0.52330923 255 255 255
-2276.3259 -363.26486 -3.4700377 255 255 255
-843.3111 -638.13177 -2.1552193 255 255 255
-503.72684 -221.97081 -1.8445041 255 255 255
967.78198 445.72513 1.4283781 255 255 255
-65.433594 380.0112 -0.46566817 255 255 255
4395.1387 221.49484 3.4987433 255 255 255
-76.004593 -33.567215 -1.1226816 255 255 255
5266.3291 1468.827 4.4571433 255 255 255
1061.6614 540.6001 1.5122519 255 255 255
2109.1948 947.28241 2.4958789 255 255 255
1868.4011 817.18463 2.3137796 255 255 255
2556.5403 916.76202 2.8805275 255 255 255
40577.633 18816.426 70.00325 255 255 255
3605.26 976.87952 3.7111578 255 255 255
-2159.6184 103.74553 -3.1309466 255 255 255
1552.3624 814.36774 2.930057 255 255 255
1645.7471 601.526 2.1681895 255 255 255
4384.8882 962.52362 4.2518687 255 255 255
1693.0365 898.3302 2.3392568 255 255 255
6580.7148 542.00452 5.6559997 255 255 255
343.13922 224.9308 0.60725427 255 255 255
969.599 444.79782 1.4315947 255 255 255
-22295.484 2604.2756 -34.207409 255 255 255
-292.56772 -114.04526 -1.3500497 255 255 255
-361.71353 -374.3331 -1.8357151 255 255 255
-3585.1328 -1774.4934 -5.1360588 255 255 255
1934.5613 183.07588 1.5141561 255 255 255
-4024.9146 -1869.8757 -5.5489469 255 255 255
1997.4902 819.42719 2.4087045 255 255 255
4682.0771 681.81042 4.8130074 255 255 255
1027.568 406.66141 1.5301566 255 255 255
3916.426 997.13684 3.9240978 255 255 255
2006.7863 825.41705 2.4162312 255 255 255
-474.70438 -271.53064 -1.7809806 255 255 255
-2023.4543 -1491.4336 -4.10711 255 255 255
967.82825 443.02689 1.4305071 255 255 255
3222.9182 1128.8678 2.9910104 255 255 255
1036.197 526.62616 1.4859544 255 255 255
-1794.4916 -617.91943 -3.1286495 255 255 255
901.82721 474.12555 1.3366134 255 255 255
3712.3601 1331.7621 4.0636411 255 255 255
-605.57843 -52.320801 -1.4988298 255 255 255
67086.133 -16232.32 66.394897 255 255 255
-54.371887 424.38235 -0.41500956 255 255 255
3764.802 1340.8427 5.0333738 255 255 255
509.03259 628.43024 1.2226096 255 255 255
-2012.3485 -380.98804 -2.7699842 255 255 255
1667.7053 634.37805 2.170568 255 255 255
20664.305 -1705.2095 25.529749 255 255 255
594.66077 653.52197 1.4817939 255 255 255
-2979.5686 -730.38934 -5.7471242 255 255 255
551.70831 432.72147 0.90627348 255 255 255
2549.8335 115.92995 4.730422 255 255 255
-20.537403 335.02393 -0.40063047 255 255 255
-1320.6248 -861.75128 -2.7079093 255 255 255
1064.7159 466.49503 1.5456622 255 255 255
-7810.5142 -2100.9197 -8.8907166 255 255 255
-61.753799 255.56361 -0.32846433 255 255 255
-24525.18 2814.3411 -37.573624 255 255 255
9043.499 3350.4597 10.384497 255 255 255
-21464.459 2526.0833 -33.019764 255 255 255
-967.17102 -767.02039 -2.4521711 255 255 255
-1707.6655 -331.26917 -3.4577563 255 255 255
-2731.8467 -853.63947 -5.2860332 255 255 255
4149.916 905.2785 4.1605296 255 255 255
1689.0206 613.04633 2.2090766 255 255 255
206.88779 464.21188 -0.16343062 255 255 255
-2263.4802 -1094.1113 -3.6297133 255 255 255
-18098.537 -7323.6343 -26.358177 255 255 255
-38.157391 409.09479 -0.48536146 255 255 255
-947.06409 -699.52026 -3.3927751 255 255 255
2161.9407 804.53088 2.1535861 255 255 255
5954.7764 2238.1094 5.3834782 255 255 255
-7030.3135 -3883.9709 -12.388851 255 255 255
-2030.9187 -72.71241 -2.9082973 255 255 255
-123.69543 -94.369019 -1.233544 255 255 255
-1174.8284 -37.898193 -2.2561553 255 255 255
5927.8877 1109.8208 4.9092026 255 255 255
-751.3468 -555.51556 -2.5259237 255 255 255
-37.917267 114.46068 -0.83608711 255 255 255
2614.9822 878.27765 2.5738301 255 255 255
742.56378 508.89908 1.1948671 255 255 255
2493.4543 2798.3987 6.9433002 255 255 255
-47.192127 309.77368 -0.29727548 255 255 255
4349.4214 1437.0383 3.9282 255 255 255
2286.2688 875.65576 2.6572385 255 255 255
3194.1902 1444.2555 3.3791311 255 255 255
3555.1079 1240.1569 3.269552 255 255 255
-1152.2501 -29.322306 -2.1417432 255 255 255
3750.364 2008.6357 4.5806985 255 255 255
2143.762 2173.3181 4.7257986 255 255 255
953.19208 554.64557 1.4281485 255 255 255
-353.62045 -138.70821 -1.3712373 255 255 255
-946.19965 -71.849457 -1.7927524 255 255 255
-1585.809 -66.94503 -2.2154341 255 255 255
2025.5621 995.70929 2.3897886 255 255 255
-5823.0938 -2467.0198 -7.5046887 255 255 255
3038.9456 982.21765 3.2581058 255 255 255
1677.6288 635.76685 2.1811695 255 255 255
3906.7397 986.19611 3.9233944 255 255 255
-491.71329 -389.06772 -1.6145431 255 255 255
701.0545 668.62506 1.5489594 255 255 255
-3449.7229 -2877.9258 -7.2879333 255 255 255
3818.8706 1341.0127 3.6024427 255 255 255
-2018.2006 -608.21234 -3.2138507 255 255 255
-539.57013 -361.80627 -1.9553688 255 255 255
5041.4683 1397.2175 4.6397042 255 255 255
2801.6121 794.39557 3.1994317 255 255 255
-1521.3678 -408.95551 -2.526264 255 255 255
15767.797 2730.1482 18.482079 255 255 255
3997.6665 887.836 4.0689163 255 255 255
-1834.719 -764.83801 -3.1823318 255 255 255
4047.8286 1010.8188 4.0049 255 255 255
31580.963 -4843.377 33.707142 255 255 255
589.40332 413.78305 0.94863099 255 255 255
3488.6831 1029.3599 3.5815549 255 255 255
1270.2708 331.83743 1.0176107 255 255 255
-1263.4923 -814.91479 -2.5780377 255 255 255
-5235.1016 -3633.7561 -8.9908514 255 255 255
4193.7739 939.02197 4.1520772 255 255 255
-410.41522 -179.08414 -1.4622931 255 255 255
-198.82306 -77.391563 -1.3721019 255 255 255
-2050.7446 -1246.4926 -3.8442898 255 255 255
-1157.9088 -716.39154 -2.6338804 255 255 255
-44.946259 468.2915 -0.50331223 255 255 255
-465.66553 11.51862 -1.3411349 255 255 255
1282.3623 328.91052 1.985389 255 255 255
1480.3469 72.559875 1.6736865 255 255 255
-48.49678 261.59692 -0.30810976 255 255 255
-8509.5947 -2247.1899 -14.194623 255 255 255
10544.219 2053.0969 11.063298 255 255 255
3825.8713 867.62573 3.9687705 255 255 255
-130735.8 -16261.164 -112.26462 255 255 255
12536.736 4344.3325 11.641674 255 255 255
2482.4192 1133.007 3.7541552 255 255 255
-26018.479 -22228.42 -54.606903 255 255 255
617.6601 556.25958 1.3746544 255 255 255
-2875.4158 832.31512 -5.0254655 255 255 255
-3216.0762 96.504395 -3.8504725 255 255 255
1034.0529 520.66577 1.485291 255 255 255
-174.81683 -19.760014 -1.2006725 255 255 255
-1518.0239 -931.9765 -3.1287243 255 255 255
4118.5151 896.85614 4.1430726 255 255 255
2613.843 1008.5269 2.4936175 255 255 255
-33.838902 376.90637 -0.39011443 255 255 255
3660.0212 1009.9017 3.7376521 255 255 255
1029.8677 697.84479 1.5981045 255 255 255
-7756.5728 -2930.0977 -9.2331791 255 255 255
2910.595 1453.8557 3.9831214 255 255 255
6605.4932 5651.2324 17.795755 255 255 255
1120.0342 616.50647 1.5630466 255 255 255
-2291.939 -263.49631 -4.244287 255 255 255
5002.6445 1790.5261 4.1619902 255 255 255
-29446.879 -17798.65 -116.48965 255 255 255
856.22736 487.30768 1.277665 255 255 255
2151.5334 1365.6681 3.5659051 255 255 255
1050.3729 525.68481 0.86842352 255 255 255
-24.130371 568.62946 -0.4911001 255 255 255
-230.93343 -197.52525 -1.3473747 255 255 255
6440.3091 3519.3708 11.984487 255 255 255
-4774.6201 -2132.1616 -6.867475 255 255 255
-2245.3845 -150.22809 -2.8175762 255 255 255
-509.70047 -199.95314 -1.6985896 255 255 255
-848.841 -555.76111 -2.1083803 255 255 255
-9.4941139 366.53314 -0.32404178 255 255 255
4445.5786 1659.3187 3.9744179 255 255 255
-3693.9185 111.39683 -4.3209987 255 255 255
1227.895 787.21863 1.6680657 255 255 255
3179.8621 1353.6664 2.9624579 255 255 255
1561.7141 -23.599609 2.1153176 255 255 255
3895.2075 993.34924 3.9097297 255 255 255
-3778.6528 -18.504246 -5.0354266 255 255 255
-431.24359 -172.44485 -1.4638754 255 255 255
-260.3353 -69.036324 -1.3136046 255 255 255
-72.322624 277.55722 -0.40961844 255 255 255
4243.5815 1629.4618 3.8561294 255 255 255
-387.13116 -199.7511 -1.619992 255 255 255
-404.86761 -40.500347 -1.5715933 255 255 255
4954.1157 1261.2435 5.1830511 255 255 255
873.64264 480.68762 1.3000126 255 255 255
-53.178726 275.56116 -0.33667669 255 255 255
-1317.8274 48.981628 -2.101614 255 255 255
-3814.1077 -3123.7666 -9.9074001 255 255 255
-128.01601 -67.297661 -1.2034575 255 255 255
-2327.2788 -2373.2976 -7.7182384 255 255 255
634.21558 392.96103 1.0610524 255 255 255
-36.137894 334.22794 -0.36692667 255 255 255
2170.1689 850.92285 2.5606008 255 255 255
-3003.2273 -1424.0563 -5.3785095 255 255 255
3917.9941 1568.0756 3.5719316 255 255 255
-70.961647 366.04385 -0.60936177 255 255 255
-19361.773 2604.7646 -28.652992 255 255 255
-303.50699 -94.070992 -1.3970788 255 255 255
-1207.4281 -245.37837 -2.1209917 255 255 255
-214.71956 -78.488373 -1.2263172 255 255 255
5219.8481 1295.2076 4.4536877 255 255 255
287.29611 117.11948 0.51708138 255 255 255
491.95187 389.69968 0.82815999 255 255 255
2947.6135 840.15344 3.5285532 255 255 255
3235.1709 1386.3531 3.402504 255 255 255
377.44186 332.8143 0.68089306 255 255 255
2979.6631 1114.7489 2.9209225 255 255 255
-21670.41 2545.7429 -33.333847 255 255 255
1214.9777 412.43542 1.7875489 255 255 255
2006.2119 825.21399 2.4140663 255 255 255
-3257.9905 -1361.314 -4.6350813 255 255 255
-29.469189 446.89102 -0.42138362 255 255 255
52278.5 21653.021 77.639923 255 255 255
-62.339024 222.94827 -0.64268702 255 255 255
2554.2322 915.13275 2.8772666 255 255 255
-1149.0627 -772.81433 -2.624517 255 255 255
-321.65103 -68.514389 -1.4129518 255 255 255
3003.2744 1300.3533 2.8515131 255 255 255
1692.2404 614.04266 2.2128334 255 255 255
-48.803883 406.48154 -0.42044061 255 255 255
-599.60724 -345.70517 -1.746879 255 255 255
-240.765 401.25574 -0.14474794 255 255 255
968.52869 444.93997 1.4301593 255 255 255
3044.4204 994.59833 3.2530143 255 255 255
1741.6453 570.86163 2.3046732 255 255 255
6192.3975 1787.1227 6.874454 255 255 255
2600.0032 926.28394 2.9171488 255 255 255
-4114.1636 -1923.1256 -5.6914043 255 255 255
-2978.4072 73.653152 -3.6689274 255 255 255
3372.3699 582.5863 3.993763 255 255 255
480.31079 369.43936 0.8101694 255 255 255
2544.479 915.85748 2.8696418 255 255 255
2273.708 1188.0619 3.1917293 255 255 255
3167.0334 1289.0974 2.8502088 255 255 255
-961.06738 -639.25739 -3.1849587 255 255 255
19.589151 620.17072 -0.5177632 255 255 255
1113.952 562.13702 1.3862292 255 255 255
3126.1191 1549.405 4.7459383 255 255 255
-22881.02 2660.3071 -35.107056 255 255 255
1460.214 500.41483 2.0267577 255 255 255
-27875.654 -6837.0884 -32.219536 255 255 255
-2700.854 -2051.0916 -5.6413212 255 255 255
991.76208 422.35068 1.4721949 255 255 255
1170.6711 221.49367 1.8884834 255 255 255
1565.2874 436.29666 1.2959753 255 255 255
-24791.387 2849.9602 -37.963531 255 255 255
-917.49432 -293.32205 -3.3014376 255 255 255
974.88654 508.58633 1.2651834 255 255 255
5838.1719 2614.199 6.4250641 255 255 255
-7090.354 -1542.7126 -13.713236 255 255 255
67775.414 -16402.596 67.080589 255 255 255
-797.3042 -600.26135 -2.7432518 255 255 255
-499.54581 -486.20413 -1.7824528 255 255 255
-3939.7715 -2252.5857 -6.9690423 255 255 255
-6103.9072 -2459.9187 -7.4043407 255 255 255
-666.39856 -558.25 -2.4904287 255 255 255
-2759.0374 1.201117 -3.5164478 255 255 255
473.99213 360.30487 0.80016929 255 255 255
1447.2072 708.49518 1.8905348 255 255 255
-1622.4858 -940.48981 -3.8854992 255 255 255
-46874.695 3646.1257 -84.024879 255 255 255
4272.272 908.81958 4.2321057 255 255 255
-17.335258 106.08331 -0.79503387 255 255 255
1126.3613 1139.3053 3.1458497 255 255 255
-344.98373 -156.71178 -1.3815953 255 255 255
-24412.211 -9961.8682 -57.987103 255 255 255
-2420.4438 -2181.8577 -6.7903352 255 255 255
-1374.788 -420.08728 -2.3906476 255 255 255
3249.1604 165.57819 6.1543226 255 255 255
-973.93951 -752.91516 -2.6582551 255 255 255
1122.9182 625.71838 1.5646342 255 255 255
2259.687 775.41577 2.226907 255 255 255
-4021.9004 -2356.7122 -7.0070734 255 255 255
-1898.5819 -358.08884 -2.6577473 255 255 255
-147.00252 443.77075 -0.38577947 255 255 255
2000.7264 819.68152 2.4138517 255 255 255
350.0246 190.55223 0.61485732 255 255 255
-39.386795 297.58755 -0.34759331 255 255 255
-83.75444 355.45624 -0.41314033 255 255 255
-1087.1526 -269.2926 -1.9789799 255 255 255
4130.6943 899.93622 4.1571865 255 255 255
630.19623 302.32245 1.0154133 255 255 255
-1515.6475 -731.44696 -2.6394458 255 255 255
339.17035 185.90523 0.59864885 255 255 255
-141.37738 245.37083 -0.34015372 255 255 255
2798.3149 793.27325 3.195467 255 255 255
12266.576 4122.9922 13.366291 255 255 255
1005.8215 553.69818 1.4421557 255 255 255
-62.594162 528.4455 -0.49805316 255 255 255
1030.1775 406.21942 1.5354813 255 255 255
-44.5741 516.05109 -0.56884813 255 255 255
-61.950722 207.74954 -0.44729292 255 255 255
-138.43488 -62.509125 -1.2450502 255 255 255
2702.5767 808.66052 3.2756116 255 255 255
2761.6396 600.84418 3.3964159 255 255 255
1719.6879 188.18898 1.3364117 255 255 255
-1958.884 -395.30002 -4.4231019 255 255 255
-66.046906 428.40247 -0.45626947 255 255 255
-1191.7574 -748.52484 -2.8651707 255 255 255
-735.93488 -79.839928 -1.6061144 255 255 255
-55.826511 245.52049 -0.31339714 255 255 255
4878.27 1125.5837 4.4149156 255 255 255
5527.1108 2221.0386 5.2037177 255 255 255
18056.799 4159.1499 18.66943 255 255 255
-37.15863 515.42889 -0.46337867 255 255 255
1729.2247 711.27081 2.1907361 255 255 255
1307.1132 1000.7494 2.4130359 255 255 255
-68082.039 -17818.141 -78.317467 255 255 255
-2221.093 -1408.6932 -4.5119934 255 255 255
4819.0635 847.77905 5.6041884 255 255 255
5997.4795 623.40802 5.4830666 255 255 255
940.77167 494.65781 1.3797925 255 255 255
2846.5461 1241.0001 2.7828491 255 255 255
65839.234 -15837.122 65.203087 255 255 255
-1930.6997 -522.97772 -3.3367512 255 255 255
-172.97163 -65.344841 -1.1797273 255 255 255
6639.4897 6763.2061 17.971733 255 255 255
1532.8541 514.06415 1.4924639 255 255 255
-365.57068 -166.43945 -1.399395 255 255 255
8891.002 2336.1819 7.9534807 255 255 255
-407.80881 -173.67174 -1.4333824 255 255 255
3453.6721 1180.887 3.6523528 255 255 255
-1413.9355 -961.6499 -2.8778789 255 255 255
-1740.7439 49.533096 -2.562175 255 255 255
-1633.2421 -153.61436 -2.2951081 255 255 255
1086.4435 413.40729 1.6075466 255 255 255
-1255.4561 -259.22714 -2.3111541 255 255 255
860.66071 275.74115 0.7024551 255 255 255
-620.84656 -378.69769 -1.7642204 255 255 255
1005.4197 417.92264 1.493421 255 255 255
855.90399 486.56433 1.2771255 255 255 255
-1599.0144 -1046.7833 -3.5400925 255 255 255
-65.186462 210.38179 -0.50058633 255 255 255
2029.6353 815.1991 2.442966 255 255 255
-430.3237 -137.80058 -1.5113561 255 255 255
-3855.2268 -1841.359 -5.3398867 255 255 255
3644.8008 1542.1498 6.8730888 255 255 255
3304.6831 1169.1221 3.3120944 255 255 255
-3430.408 -1767.7734 -5.1353788 255 255 255
2679.0154 108.36443 4.9854212 255 255 255
1121.3982 -33.742348 1.2874337 255 255 255
12409.067 -1092.1466 12.290668 255 255 255
5713.9243 1276.7834 7.5389915 255 255 255
-702.72272 -668.85217 -2.0656283 255 255 255
-560.12 -241.88615 -1.6827438 255 255 255
6708.0469 1747.1106 7.4317937 255 255 255
-80.947815 262.34631 -0.3260656 255 255 255
8736.8125 7184.0591 16.662876 255 255 255
-433.73499 -178.69615 -1.6073788 255 255 255
2762.3892 768.86908 3.1853361 255 255 255
-1154.6561 -368.87967 -2.1653101 255 255 255
5485.3179 1472.6001 4.5529118 255 255 255
5705.5098 690.23718 5.2387137 255 255 255
5119.3691 694.34613 5.022563 255 255 255
1073.9781 483.21704 1.5492458 255 255 255
11058.252 -360.43039 15.132931 255 255 255
-134.01358 -122.42286 -1.3387388 255 255 255
1001.9157 422.90167 1.4859245 255 255 255
4230.5073 901.33313 4.2095246 255 255 255
952.604 1089.96 2.029134 255 255 255
2067.0493 721.95502 1.997038 255 255 255
19508.945 -1859.3693 22.484165 255 255 255
3037.6267 642.05463 3.6016586 255 255 255
-356.86844 -119.47636 -1.4235866 255 255 255
-1750.451 -824.76807 -2.9503474 255 255 255
-304.74924 476.6221 -0.3460936 255 255 255
-1952.334 85.188698 -2.4946916 255 255 255
2371.2561 620.01855 1.9931669 255 255 255
10601.359 3052.0173 8.7009497 255 255 255
1924.8341 811.88544 2.3222125 255 255 255
2077.27 1571.2739 5.2255406 255 255 255
2271.3848 2047.7096 6.2362227 255 255 255
3733.4392 1390.8475 4.9930673 255 255 255
-285.92249 -103.91005 -1.3808733 255 255 255
-61.586079 356.18143 -0.39731684 255 255 255
3031.5859 979.36566 3.2503617 255 255 255
799.22772 347.09634 0.75444466 255 255 255
-554.27289 -311.4527 -2.2378592 255 255 255
13483.752 -826.78729 15.908501 255 255 255
2396.9915 1114.8586 2.2924969 255 255 255
4263.6001 1106.6757 4.0677118 255 255 255
1994.444 1015.0065 2.3553119 255 255 255
-18.087198 320.63306 -0.46418834 255 255 255
1870.051 699.02808 2.3483386 255 255 255
-2070.3003 -18.555285 -3.0575523 255 255 255
3947.2205 965.65784 3.9708991 255 255 255
-25082.43 -18871.998 -48.378727 255 255 255
1688.532 476.26636 2.2682509 255 255 255
3755.3069 1413.5287 5.0377321 255 255 255
4974.6685 1131.7755 4.4537759 255 255 255
3895.3191 878.04968 4.0077701 255 255 255
1468.4904 1339.2784 3.6148691 255 255 255
-56.170776 290.90076 -0.33797911 255 255 255
1077.4044 403.56668 1.0228212 255 255 255
-10443.964 -11513.711 -32.059162 255 255 255
3387.3071 779.57727 2.9372516 255 255 255
3839.6194 1581.1812 3.6185427 255 255 255
2000.5767 1009.3654 2.3625591 255 255 255
-453.96927 -409.72598 -1.9123127 255 255 255
-3988.0645 -1915.6879 -5.4766483 255 255 255
-3215.2539 -1372.5042 -4.7197423 255 255 255
-23815.883 -1958.9191 -33.488911 255 255 255
988.71875 549.63867 1.4236557 255 255 255
-48.459641 436.47784 -0.4555679 255 255 255
2443.3704 1258.8938 2.6298549 255 255 255
2284.6753 677.27948 2.0887394 255 255 255
-1966.3513 149.21043 -3.8969703 255 255 255
2694.1777 1162.3595 2.4762843 255 255 255
-606.28741 -292.53964 -2.3015361 255 255 255
9314.5713 -198.95787 11.277398 255 255 255
-3937.7234 -1904.0277 -5.4285636 255 255 255
-7905.0732 -3795.6221 -15.558292 255 255 255
2647.3291 2589.9099 7.6394343 255 255 255
-3684.7056 -1847.8011 -5.1655793 255 255 255
-1002.1281 -40.489689 -1.8422304 255 255 255
-1143.2994 -294.44427 -2.2123785 255 255 255
-2804.9182 -1176.1183 -4.0118504 255 255 255
939.99048 506.23093 1.3757294 255 255 255
-1730.1265 -32.049183 -2.4700391 255 255 255
3254.3259 1311.0159 2.9163318 255 255 255
1082.4078 666.86279 1.5187117 255 255 255
4484.5049 1736.7515 4.050662 255 255 255
2125.9399 -30.995672 2.9664159 255 255 255
2818.8403 1291.9922 2.8237915 255 255 255
-2453.6174 -572.93512 -3.2360349 255 255 255
-1117.0696 -371.80365 -2.1140082 255 255 255
5920.0952 1530.3304 4.774662 255 255 255
4024.1682 947.65442 4.0295691 255 255 255
-564.50989 -167.42223 -1.7433584 255 255 255
-38673.527 -14591.344 -73.687538 255 255 255
-2076.9395 -91.986214 -2.5806043 255 255 255
-37579.145 4021.2383 -57.056736 255 255 255
-38037.176 -14151.236 -46.894527 255 255 255
885.58563 493.271 1.313658 255 255 255
1997.9229 814.10864 2.4108114 255 255 255
945.80243 496.42111 1.2152904 255 255 255
1439.2181 27.554823 2.0954804 255 255 255
-8897.1934 -6374.0293 -27.756079 255 255 255
-37630.695 3991.4241 -57.266315 255 255 255
-968.16827 -739.4325 -2.3539462 255 255 255
-3549.0317 -1496.8829 -5.2965679 255 255 255
-3831.0686 -1438.0995 -6.332725 255 255 255
-968.05859 288.1712 -2.3896778 255 255 255
4364.626 1659.3396 4.9674053 255 255 255
-3889.2668 -2248.8074 -5.7393355 255 255 255
-74.297798 192.19946 -0.53045213 255 255 255
-425.58298 -224.19563 -1.4739065 255 255 255
-312.53906 -162.85648 -2.0503888 255 255 255
-127.01596 429.93683 -0.25835967 255 255 255
18965.32 -1532.8643 23.32209 255 255 255
-1818.9006 -54.205738 -2.3222787 255 255 255
19610.809 -1566.125 24.269716 255 255 255
1065.2429 466.96548 1.5468109 255 255 255
3236.8704 1372.2753 3.0134981 255 255 255
-902.87598 -720.66998 -2.2868559 255 255 255
485.78653 387.44678 0.8206684 255 255 255
-2266.6482 -344.19772 -3.1269989 255 255 255
2294.0398 877.33209 2.4693165 255 255 255
-1655.0747 -534.87775 -2.9352782 255 255 255
1121.9523 353.90753 1.7115482 255 255 255
-2097.5032 10.462903 -2.664824 255 255 255
-760.19128 -33.391232 -2.1336257 255 255 255
1222.2771 439.48981 1.4514291 255 255 255
5142.1553 1136.8149 4.5340862 255 255 255
5186.8735 1037.0854 4.6290112 255 255 255
-13.459876 334.00186 -0.51747566 255 255 255
-2272.5732 -1509.9283 -4.7776566 255 255 255
9326.6934 -404.07794 7.7050066 255 255 255
1987.3357 1004.5062 2.3532391 255 255 255
-37.727833 313.61435 -0.29563254 255 255 255
1447.2183 283.23151 2.3161733 255 255 255
-1104.8722 -877.99139 -2.4976883 255 255 255
3477.4028 1260.5021 4.5810652 255 255 255
1658.2255 543.53247 1.3823551 255 255 255
-23619.877 -15130.697 -45.386009 255 255 255
-196.24548 -76.934143 -1.2104983 255 255 255
-64.189651 350.24426 -0.40018436 255 255 255
2340.2832 882.98993 2.7006943 255 255 255
1681.5876 498.94205 1.6069301 255 255 255
7049.8594 244.62881 5.6385002 255 255 255
-45.152977 443.53375 -0.58625233 255 255 255
1180.3362 966.94574 1.849582 255 255 255
3518.8071 104.21579 6.2454734 255 255 255
30990.893 -4750.5679 33.078739 255 255 255
-2105.3047 -300.52881 -2.9760749 255 255 255
6008.1387 2818.7419 8.3696585 255 255 255
-13641.668 496.42096 -15.831413 255 255 255
-795.36932 -465.08853 -2.7992275 255 255 255
-1167.7645 -818.71869 -2.6281681 255 255 255
2025.7638 823.27673 2.4353797 255 255 255
1312.7323 688.75677 3.0830441 255 255 255
-45.764389 351.51562 -0.37217632 255 255 255
3777.9316 924.02319 3.8835573 255 255 255
954.3913 540.80566 1.384274 255 255 255
-7573.022 106.76752 -8.194068 255 255 255
5257.606 1466.4374 4.4485836 255 255 255
2931.4392 1155.8755 2.5476358 255 255 255
4768.5303 1906.6112 4.4237771 255 255 255
-3443.9209 -488.43774 -4.8488989 255 255 255
2669.2832 756.96918 3.1081936 255 255 255
524.39758 402.73843 0.86798233 255 255 255
-220.29654 -64.509026 -1.2832608 255 255 255
-51.447685 351.98956 -0.41272405 255 255 255
-309.79855 -280.81927 -2.2135239 255 255 255
1992.9734 811.30762 2.4079905 255 255 255
1646.084 602.23798 2.1694357 255 255 255
-582.16125 -8.3657579 -1.6284386 255 255 255
2798.9739 1229.3657 2.6239944 255 255 255
-1700.4521 -125.4351 -2.3098762 255 255 255
3973.5847 592.53815 4.4597392 255 255 255
2061.6255 540.57538 2.8088439 255 255 255
-16.082832 374.74716 -0.37505835 255 255 255
998.17676 525.6333 1.4411882 255 255 255
2048.0542 997.84802 1.9715711 255 255 255
-381.64392 -209.74835 -1.5370516 255 255 255
2241.4131 898.96014 2.5527205 255 255 255
2640.6799 1148.6154 2.4338753 255 255 255
-681.31049 -456.69608 -2.9667106 255 255 255
5216.9868 1298.2584 4.4674649 255 255 255
-3670.9583 -1844.224 -5.1574359 255 255 255
-386.72427 -177.51427 -1.4826368 255 255 255
-33.700321 285.28659 -0.48113841 255 255 255
5405.2983 1096.3711 4.6868796 255 255 255
10564.408 4552.4814 11.856773 255 255 255
3937.9495 1626.0624 3.6771398 255 255 255
4490.667 1656.0726 3.9956956 255 255 255
4513.832 1741.2664 4.0676856 255 255 255
36.833515 600.45215 -0.5196541 255 255 255
-644.1524 -565.63629 -2.0533247 255 255 255
-711.4881 -62.095455 -1.9544959 255 255 255
-47.289188 261.37793 -0.3071399 255 255 255
7610.8574 1162.1837 6.8856616 255 255 255
-52.197189 441.95337 -0.45134062 255 255 255
-6137.772 -3379.2424 -8.8725681 255 255 255
2669.5569 1071.2435 2.3148727 255 255 255
1945.1732 777.13062 2.0532737 255 255 255
-1902.592 -1506.5305 -3.9100075 255 255 255
2625.032 1204.5845 2.5206745 255 255 255
3442.8848 1156.3525 3.1289406 255 255 255
-275.87494 -118.77963 -1.3336183 255 255 255
3014.7861 943.51056 2.8791401 255 255 255
1485.0103 868.27692 1.9131018 255 255 255
-45.931034 296.07269 -0.30362323 255 255 255
8980.7852 2042.4305 7.3331823 255 255 255
10507.068 4126.4922 20.319128 255 255 255
1007.1506 467.51028 1.5300035 255 255 255
-1944.1849 -589.8924 -3.032989 255 255 255
-469.01224 -274.07416 -1.5666237 255 255 255
2083.4331 634.98669 2.2931492 255 255 255
-2848.842 23.118311 -3.5773077 255 255 255
-465.08282 -25.323578 -1.3902898 255 255 255
6315.5469 3287.7734 10.150826 255 255 255
-192.40927 -158.89459 -1.3935953 255 255 255
2435.4229 1011.6541 2.1327713 255 255 255
1506.8225 767.5838 2.6080923 255 255 255
1802.0242 1218.9417 3.3849556 255 255 255
-491.20169 -263.57535 -2.3076115 255 255 255
3027.0054 850.88751 3.3442879 255 255 255
1440.4768 284.07535 2.2973549 255 255 255
3801.2783 582.98535 3.4452605 255 255 255
-1254.1693 -554.76575 -2.3805637 255 255 255
-23107.32 -1900.2949 -32.514481 255 255 255
-26949.709 -2231.5769 -37.726624 255 255 255
6944.3062 -48.791225 11.198912 255 255 255
2022.8468 822.89062 2.4315867 255 255 255
-3788.1157 -514.73364 -4.3927941 255 255 255
-326.38892 -396.86948 -1.9393976 255 255 255
802.78357 630.65942 2.5007834 255 255 255
-295.79202 -85.623184 -1.3128031 255 255 255
2209.1868 570.83856 2.8411858 255 255 255
220.9015 174.04897 0.42241248 255 255 255
-138.97047 -82.923264 -1.1909277 255 255 255
-1154.3198 -368.6449 -2.1650794 255 255 255
-1427.2184 -573.96423 -2.722661 255 255 255
-84.871712 -20.561052 -1.2135971 255 255 255
6225.4175 13.111198 9.974061 255 255 255
-2353.4114 -343.27563 -3.1704857 255 255 255
973.63721 414.11841 1.4515281 255 255 255
-228.24339 -82.115471 -1.3047853 255 255 255
7314.6196 4933.5225 23.174965 255 255 255
6137.311 28.288437 9.6749287 255 255 255
-57.069469 434.19928 -0.4342185 255 255 255
-263.5925 -82.703491 -1.2859883 255 255 255
-3242.7524 -0.11219874 -4.1204195 255 255 255
4235.2681 1241.2924 4.328083 255 255 255
-742.51324 -439.39624 -2.7516108 255 255 255
-431.94553 -252.95308 -1.8304093 255 255 255
-1266.8621 -42.985298 -2.2664356 255 255 255
-1293.3467 -1484.4485 -4.9368143 255 255 255
-508.12213 -244.56219 -1.6526101 255 255 255
-349.58112 -387.75922 -1.9602902 255 255 255
992.62421 423.20074 1.4741735 255 255 255
1652.0662 403.76108 2.2229183 255 255 255
-50.617069 409.94479 -0.46737975 255 255 255
-3142.8342 -555.05646 -5.5158324 255 255 255
-68.400719 274.21664 -0.36919278 255 255 255
859.43878 976.88409 2.6092288 255 255 255
-319.89081 -136.77527 -1.4406539 255 255 255
4459.2163 2026.4829 4.995616 255 255 255
67275.125 -16288.886 66.571808 255 255 255
-189.91844 -58.359394 -1.2576087 255 255 255
5225.2051 1296.3961 4.4606991 255 255 255
1920.6995 -457.18018 1.7267039 255 255 255
8882.3467 1574.1282 7.1775956 255 255 255
-22085.18 2587.3826 -33.966614 255 255 255
4254.9165 1724.1709 3.9457335 255 255 255
3006.3491 1303.4752 2.8548996 255 255 255
-1109.9382 -906.50769 -2.690685 255 255 255
484.25998 386.3132 0.81862575 255 255 255
960.59631 135.02811 0.98497373 255 255 255
-54.638466 355.1969 -0.39552572 255 255 255
-1600.3215 -756.69159 -3.1095316 255 255 255
-61.451851 316.88467 -0.38239005 255 255 255
-811.64294 -565.79572 -2.0265937 255 255 255
491.17792 389.4151 0.82733196 255 255 255
3126.0437 192.17064 5.12678 255 255 255
-1298.4003 44.866211 -2.3158538 255 255 255
-1295.9497 -362.64053 -2.3199804 255 255 255
-1820.842 -1614.7998 -6.1627612 255 255 255
-111959.68 8439.4658 -195.1779 255 255 255
-5268.1128 -2552.9604 -8.8757524 255 255 255
2692.9858 108.86681 4.9998941 255 255 255
3032.8411 657.6463 3.5720754 255 255 255
3286.9946 1380.4282 3.0426142 255 255 255
-95.126175 -31.930233 -1.1262378 255 255 255
6859.6104 529.96344 5.6057434 255 255 255
483.9599 384.20862 0.81806922 255 255 255
2547.6489 917.79901 2.8744359 255 255 255
-1210.5424 -1037.3605 -3.0644376 255 255 255
-8711.1572 -2204.5193 -9.9996452 255 255 255
-62.881527 306.41708 -0.35875291 255 255 255
490.92496 386.60165 0.82633233 255 255 255
2757.3271 600.51923 3.3907692 255 255 255
1004.4045 418.20911 1.4912093 255 255 255
-521.39484 -583.54333 -3.0010324 255 255 255
2675.9031 109.30031 4.9818492 255 255 255
2188.3831 -56.439838 1.7972896 255 255 255
3940.7058 1628.7733 3.6815069 255 255 255
-13903.759 -1219.2988 -19.963976 255 255 255
-2466.1157 -1816.9069 -6.2088437 255 255 255
-3337.7139 -98.995407 -3.5956883 255 255 255
2000.9817 819.37933 2.4146438 255 255 255
24845.447 2203.4302 19.513079 255 255 255
3199.3738 1336.2874 2.9397547 255 255 255
1010.3766 531.36798 1.45511 255 255 255
4728.1035 3641.0701 11.261777 255 255 255
454.0636 384.72128 0.82411098 255 255 255
5158.9053 1138.0419 4.5525236 255 255 255
-134.65585 335.46268 -0.32116443 255 255 255
2446.3469 939.21582 2.5752525 255 255 255
-820.15857 -512.26379 -2.0557227 255 255 255
6319.0679 1734.2662 5.1571193 255 255 255
-444.24567 -78.026588 -1.4130237 255 255 255
2103.8528 820.4071 2.1137285 255 255 255
-3374.4165 -1514.106 -5.0086765 255 255 255
-408.68121 -136.16389 -1.4356437 255 255 255
2739.0579 1170.2499 2.5029633 255 255 255
-239.36427 -168.23895 -1.5190284 255 255 255
-4114.5469 -84.03038 -5.2447124 255 255 255
4481.1455 1737.0457 4.0476232 255 255 255
716.32123 520.94031 1.1143197 255 255 255
-43.401848 187.06432 -0.56503278 255 255 255
3883.5393 974.43402 3.9157808 255 255 255
995.49353 418.28461 1.4763277 255 255 255
5997.0635 2243.5437 5.411478 255 255 255
-19716.293 -1477.9958 -27.747965 255 255 255
953.20996 407.41165 1.4313744 255 255 255
-584.86578 -263.32422 -2.5822277 255 255 255
2557.0344 916.61151 2.8806326 255 255 255
6111.4302 1957.7384 5.0344977 255 255 255
1428.7899 699.97119 1.8761891 255 255 255
-72.586304 431.79315 -0.45529836 255 255 255
342.60172 224.87204 0.60648227 255 255 255
377.29358 331.83826 0.68013805 255 255 255
20800.035 -1731.7838 25.643694 255 255 255
4951.3047 1123.1095 4.4526305 255 255 255
2759.261 769.06616 3.1828654 255 255 255
486.87381 50.997555 0.37776908 255 255 255
339.32443 224.6109 0.60195655 255 255 255
21274.904 8461.3809 26.534138 255 255 255
5938.4346 1537.2853 4.7949743 255 255 255
480.88474 370.05786 0.81120867 255 255 255
1589.5537 766.93152 2.0632336 255 255 255
964.05176 503.32047 1.2374107 255 255 255
11427.28 4488.2949 14.284781 255 255 255
13190.3 -780.41547 15.558032 255 255 255
27349.512 -882.08185 23.835964 255 255 255
5503.46 2050.3435 4.9224334 255 255 255
-1235.0851 -689.76599 -2.374361 255 255 255
10591.981 2168.7947 10.492167 255 255 255
2590.9609 923.68488 2.9065909 255 255 255
1003.5698 553.09564 1.4392015 255 255 255
14.347747 618.46802 -0.52226961 255 255 255
-29668.217 -11389.913 -37.326473 255 255 255
-878.37341 -685.20978 -2.2350583 255 255 255
287.39023 117.19145 0.51717043 255 255 255
-545.83789 -113.04356 -1.5288593 255 255 255
-774.50647 -39.290569 -1.5874693 255 255 255
-4099.5415 -73.828995 -5.2138181 255 255 255
-421.77155 -26.718798 -1.6388898 255 255 255
13358.263 -815.0874 15.763013 255 255 255
-34.853024 150.48647 -0.64891505 255 255 255
-67.162598 349.94626 -0.48155636 255 255 255
-944.315 -714.25024 -2.3042257 255 255 255
-993.36053 -633.16498 -2.4227822 255 255 255
31428.617 -4809.2822 33.561665 255 255 255
-1495.1058 -250.89169 -2.6912072 255 255 255
-2417.4397 -1855.1071 -5.0637999 255 255 255
1072.8425 482.68365 1.5474789 255 255 255
472.16876 304.55026 0.78926897 255 255 255
2634.4844 933.56555 2.9477816 255 255 255
4205.2583 902.52618 4.1934276 255 255 255
1845.7297 736.01935 1.8954488 255 255 255
-26.434978 235.39928 -0.28122425 255 255 255
10045.071 -2138.6355 9.1671715 255 255 255
1843.048 774.85931 2.2750511 255 255 255
-2019.0817 -768.3338 -3.2839997 255 255 255
5688.8882 273.85822 7.0608459 255 255 255
-434.16019 -20.809214 -1.4333526 255 255 255
-5011.0835 -88.88839 -6.1126032 255 255 255
1607.5583 1135.4264 2.4757714 255 255 255
-626.34058 -132.88348 -1.5747194 255 255 255
-171.00929 -27.7195 -1.1452543 255 255 255
11274.482 2733.9438 12.350598 255 255 255
4147.1924 905.185 4.1589742 255 255 255
1644.5687 601.60468 2.1674976 255 255 255
4506.5405 1676.3258 4.0062084 255 255 255
3127.9834 648.60089 3.6730509 255 255 255
54307.781 31189.473 76.611412 255 255 255
2007.932 1014.2386 2.3697507 255 255 255
-3547.7302 -2654.3723 -6.7288446 255 255 255
-91.327988 332.72147 -0.37174869 255 255 255
-49.342411 230.26361 -0.28068754 255 255 255
-2239.958 -1379.1742 -4.2285595 255 255 255
2393.1506 1167.188 2.7844822 255 255 255
969.06818 442.46213 1.4318227 255 255 255
4182.8325 1092.6044 4.0302844 255 255 255
-5089.3965 -3105.603 -7.7780185 255 255 255
-1627.0295 4.4015546 -2.2738285 255 255 255
2434.8625 1011.7226 2.1328163 255 255 255
-59.182529 228.22505 -0.70801294 255 255 255
-184.04692 -89.415497 -1.2186393 255 255 255
4655.5479 1683.2003 4.0235577 255 255 255
-6354.2544 -1865.2871 -8.2373524 255 255 255
-2770.9856 -1344.6532 -4.6136293 255 255 255
-52.543987 243.25601 -0.31970599 255 255 255
-146.04292 -114.6487 -1.3180664 255 255 255
628.57654 301.20502 1.0125273 255 255 255
-1798.2274 8.5588694 -2.4929779 255 255 255
2007.7911 826.7666 2.4170117 255 255 255
687.49347 537.52173 1.0450233 255 255 255
-39.962139 208.35861 -0.39269903 255 255 255
2669.8582 758.90259 3.1095331 255 255 255
342.86212 258.23349 0.61355728 255 255 255
926.37604 963.95325 2.6058927 255 255 255
-7.6997876 425.73056 -0.42193997 255 255 255
-2142.6604 451.92685 -2.9999602 255 255 255
1216.1935 461.77469 1.7473984 255 255 255
-1553.2926 -59.948696 -2.1485984 255 255 255
-35.905117 341.04007 -0.40208405 255 255 255
86723.617 51457.289 153.21252 255 255 255
528.44812 362.16541 0.8680467 255 255 255
-3801.0945 -1828.4386 -5.297297 255 255 255
-1599.4208 -593.89081 -2.8102422 255 255 255
-3291.8105 67.934586 -4.2564068 255 255 255
2103.5105 899.78302 1.8262823 255 255 255
2958.1267 1540.6493 4.1687689 255 255 255
292.22369 115.29752 0.53050005 255 255 255
-1322.4235 -1534.0615 -3.9177372 255 255 255
-2109.4622 -1034.6903 -8.5615063 255 255 255
1823.0947 -446.0451 1.6569452 255 255 255
-1916.8004 -1609.9105 -4.3004017 255 255 255
1155.067 458.11819 2.0954423 255 255 255
3935.7148 1073.0691 3.8772388 255 255 255
-1420.8536 -530.04547 -2.7208846 255 255 255
2503.8364 1011.7646 2.1567335 255 255 255
-2214.5562 13.929532 -2.8139677 255 255 255
1991.3828 846.55267 1.6958754 255 255 255
339.66299 186.02705 0.59936178 255 255 255
-4107.2437 141.34509 -5.0783391 255 255 255
-4131.4966 -1928.8151 -5.697309 255 255 255
2477.1724 859.53949 2.2978334 255 255 255
-3843.0146 -1882.0198 -5.3342805 255 255 255
-63.901234 428.24353 -0.41712281 255 255 255
-952.62976 -762.26172 -2.3173387 255 255 255
-3268.7571 -1722.087 -4.6871123 255 255 255
2861.2898 1105.5621 2.4396474 255 255 255
4863.9292 1123.182 4.4022908 255 255 255
-689.38251 -537.03845 -3.0858114 255 255 255
3523.9709 103.9087 6.2562881 255 255 255
-539.59045 5.6404848 -1.6798156 255 255 255
1447.7227 282.80099 2.3183792 255 255 255
-36631.91 3906.9033 -55.647339 255 255 255
-37139.586 3958.5625 -56.50938 255 255 255
3452.0317 924.08917 3.6335242 255 255 255
812.44061 350.23685 1.285733 255 255 255
9356.5879 -196.69688 11.332625 255 255 255
5516.7646 1510.7166 4.5678244 255 255 255
2006.2407 815.94281 2.4208653 255 255 255
2642.0337 567.26794 2.2000134 255 255 255
-1198.556 -389.73395 -2.2563465 255 255 255
4235.5845 903.34808 4.2172737 255 255 255
4261.3311 940.38257 4.1972475 255 255 255
-2778.7327 -1494.9861 -4.3673372 255 255 255
1507.046 565.09662 2.0327971 255 255 255
-59015.59 1583.3517 -72.77169 255 255 255
-6.5838251 362.69839 -0.35170767 255 255 255
-1379.6613 -561.23187 -2.6166091 255 255 255
-10016.9 -11587.615 -37.012581 255 255 255
4982.6841 1134.751 4.4628415 255 255 255
1993.5391 811.91174 2.4086986 255 255 255
11456.684 2247.8235 10.276456 255 255 255
-11306.133 -2467.6829 -12.38501 255 255 255
3056.7229 991.64551 3.2740943 255 255 255
-3824.0403 -94.836098 -4.9437819 255 255 255
4951.4414 1142.6113 4.4412632 255 255 255
-449.82355 -233.09537 -1.5418293 255 255 255
6452.3022 2572.2051 6.1020365 255 255 255
987.36493 425.26276 1.4664508 255 255 255
-54.32106 235.5585 -0.3442269 255 255 255
-934.97009 -778.59692 -2.2936399 255 255 255
1982.9169 1004.3045 2.3490255 255 255 255
1205.9541 704.36023 1.6458546 255 255 255
1774.2214 427.16528 1.5397114 255 255 255
-80.3909 269.8562 -0.45538116 255 255 255
-1570.4535 -332.9729 -2.6573558 255 255 255
-1112.9233 -146.94749 -2.5543194 255 255 255
-1519.0621 -1776.5078 -4.2060227 255 255 255
1589.1732 535.75098 2.1525972 255 255 255
-8764.4531 -3777.4961 -10.813023 255 255 255
1982.1613 835.3526 2.3925321 255 255 255
-3648.8979 -271.42255 -4.8025737 255 255 255
-960.96948 -850.07233 -2.5443354 255 255 255
3907.7412 881.34302 4.0201712 255 255 255
2409.7065 1111.8008 2.2984028 255 255 255
-134.74829 -92.662445 -1.3248297 255 255 255
-1006.669 -780.14746 -2.3858182 255 255 255
577.177 533.60681 1.0117289 255 255 255
-177.51314 -80.193634 -1.2243232 255 255 255
535.1156 403.35165 0.88155299 255 255 255
-2221.262 -1878.0717 -5.5248098 255 255 255
5833.0884 2321.7158 6.445889 255 255 255
5451.5737 1465.9565 4.5290403 255 255 255
830.90881 410.99402 0.99136305 255 255 255
-605396.38 -239970.78 -799.06012 255 255 255
-76.645393 252.43036 -0.37712502 255 255 255
5416.877 1097.0767 4.6966662 255 255 255
-445.06198 -305.76395 -1.6287721 255 255 255
4386.4067 1716.5422 4.0492415 255 255 255
1924.6233 852.63416 2.0308986 255 255 255
-886.38391 -701.09241 -2.2495472 255 255 255
-43881.227 -10848.498 -46.232803 255 255 255
849.81079 538.01672 1.2518064 255 255 255
-2920.0613 -9.5807362 -4.0221281 255 255 255
519.21564 404.01236 0.86251003 255 255 255
-212.46454 -86.080032 -1.2279221 255 255 255
-9152.6006 -3313.666 -10.877466 255 255 255
586.85547 411.95392 0.94505656 255 255 255
-679.25378 -472.06815 -2.2827287 255 255 255
3294.9937 1547.7264 3.6515081 255 255 255
-22211.098 2607.3103 -34.157318 255 255 255
-76.289833 -11.115129 -1.0777633 255 255 255
3202.8235 999.9613 3.378957 255 255 255
2019.8787 822.43536 2.4301858 255 255 255
967.52985 440.66571 1.4291599 255 255 255
1802.6252 685.1701 1.5048051 255 255 255
-65.765106 239.86159 -0.72194469 255 255 255
1004.154 597.63947 1.4424747 255 255 255
342.90677 225.38907 0.60727084 255 255 255
4167.8184 899.43884 4.1727419 255 255 255
-51.539177 333.90799 -0.35717821 255 255 255
5714.5923 689.73315 5.2455463 255 255 255
-25.253883 125.93914 -0.82379401 255 255 255
13654.078 6096.1113 16.007805 255 255 255
920.07062 565.74146 1.3403603 255 255 255
3010.1741 653.43372 3.55303 255 255 255
4648.9414 132.58292 7.2966733 255 255 255
2099.0547 896.86719 1.8221086 255 255 255
6491.582 2025.6895 6.3027802 255 255 255
2000.6425 1291.8712 3.2398746 255 255 255
-684.32819 -69.117058 -1.7542938 255 255 255
3033.021 658.23138 3.5726364 255 255 255
1200.6282 702.0589 1.6398314 255 255 255
-3776.1353 -986.00867 -6.6877041 255 255 255
5798.5635 1294.3518 4.6970763 255 255 255
-3508.9146 -41.893368 -4.497097 255 255 255
-2829.2004 -1302.7894 -4.7468944 255 255 255
