ply
format ascii 1.0
comment PCL generated
element vertex 1001
property float x
property float y
property float z
property uchar red
property uchar green
property uchar blue
element face 0
element camera 0
property float view_px
property float view_py
property float view_pz
property float x_axisx
property float x_axisy
property float x_axisz
property float y_axisx
property float y_axisy
property float y_axisz
property float z_axisx
property float z_axisy
property float z_axisz
property float focal
property float scalex
property float scaley
property float centerx
property float centery
property int viewportx
property int viewporty
property float k1
property float k2
end_header
-1.5284616 -0.22634296 -0.0020267635 255 255 255
-1.5293102 -0.62600565 -0.0019728886 255 255 255
-1.5509719 -0.58576638 -0.0019405653 255 255 255
0.48731452 1.5320531 0.0013025291 255 255 255
-1.5448298 -0.29792833 -0.0020655449 255 255 255
-1.5470829 -0.29179871 -0.0020668921 255 255 255
-1.8709882 -0.31411916 -0.0024375813 255 255 255
3.7016301 3.0120234 0.0049983067 255 255 255
6.0556345 4.9743128 0.0082722781 255 255 255
-3.9048333 -2.964879 -0.0051059974 255 255 255
-0.41300774 -1.2064673 -0.004226082 255 255 255
0.78336883 2.1347964 0.0023211618 255 255 255
-1.8250499 -1.9788351 -0.003768743 255 255 255
0.80835438 2.1437075 0.0023240703 255 255 255
0.3499929 2.8999357 0.0057047 255 255 255
-0.22159256 -1.518193 -0.0044892184 255 255 255
-3.4868507 -3.0764532 -0.0067513813 255 255 255
0.49649948 1.5480731 0.0016053673 255 255 255
2.6804667 3.0226607 0.0046126773 255 255 255
-1.540431 -0.3647458 -0.0020630709 255 255 255
43.233788 51.19096 0.076794557 255 255 255
-0.41236967 0.2396898 -0.00072459626 255 255 255
0.42025349 1.3208203 0.0010637576 255 255 255
-1.6311227 -0.39957672 -0.0021542858 255 255 255
-3.0899804 -1.6824954 -0.0045163892 255 255 255
-0.61560851 -1.6202269 -0.003490183 255 255 255
-0.30370992 -0.68877971 -0.0023503273 255 255 255
-1.443699 -0.74294406 -0.0021260462 255 255 255
2.2932479 4.0928321 0.0053268326 255 255 255
-1.5378833 -0.16901526 -0.0020397243 255 255 255
0.61732918 1.4118376 0.0013798694 255 255 255
-1.5494303 -0.37331888 -0.0019434858 255 255 255
-1.3400277 -0.14776349 -0.0017826302 255 255 255
-1.513991 -0.64249676 -0.0019931432 255 255 255
11.989777 12.427275 0.021652075 255 255 255
2.1422207 2.8788972 0.0044109612 255 255 255
-1.7303163 -2.2997167 -0.0045459927 255 255 255
501.28546 381.35806 0.64826119 255 255 255
-0.41001076 -1.6062716 -0.0039635077 255 255 255
0.49442109 1.3917934 0.001410517 255 255 255
-1.2839164 -0.83962882 -0.0024426633 255 255 255
-1.545424 -0.33591363 -0.0020626863 255 255 255
-1.7868967 -15.639343 -0.029215092 255 255 255
-1.4291328 -0.598001 -0.0021821829 255 255 255
-1.5303066 -0.62108403 -0.0019707486 255 255 255
1.2813922 2.8631392 0.0032840669 255 255 255
2.3701813 4.19452 0.0054197838 255 255 255
-1.1291977 -0.38228345 -0.003083234 255 255 255
-1.5855722 -0.39126834 -0.0021162189 255 255 255
-1.4260374 -0.60964704 -0.0021828425 255 255 255
0.72383678 1.9495243 0.0032660046 255 255 255
-0.69972652 0.018394561 -0.0011333671 255 255 255
0.58364862 1.7617044 0.0015182814 255 255 255
-0.52309811 -0.15343159 -0.0012528414 255 255 255
-6.8194489 -7.4626765 -0.013044241 255 255 255
0.89889991 1.5793029 0.0019041952 255 255 255
-0.093661062 -2.3553712 -0.0050884266 255 255 255
0.14168927 -3.3061664 -0.0075964015 255 255 255
-1.4646206 -2.0664823 -0.0034757906 255 255 255
-0.024873069 -2.8342817 -0.0066915066 255 255 255
-2.2292473 -1.4105505 -0.0028429197 255 255 255
-23.411547 -20.778046 -0.043314885 255 255 255
-0.87924242 0.095714882 -0.0013649667 255 255 255
-14.396827 -10.801487 -0.01863859 255 255 255
-2.4577847 -1.046322 -0.0032629694 255 255 255
-4.1039987 -2.9059079 -0.0064555248 255 255 255
3.0039258 6.6842947 0.0078858677 255 255 255
0.64674842 1.7730141 0.0017570358 255 255 255
-0.098917402 3.0382378 0.0045474535 255 255 255
-0.64381051 0.078356773 -0.0010180451 255 255 255
0.62328368 1.6335838 0.0015738549 255 255 255
-7.2682371 -8.8025331 -0.022784667 255 255 255
-1.3510411 -0.29841807 -0.0017356985 255 255 255
0.5424245 1.4620625 0.0020767555 255 255 255
8.0677204 5.4697285 0.012234687 255 255 255
-0.13127004 -2.3399422 -0.0047513363 255 255 255
-1.5624212 -2.4459336 -0.0045177075 255 255 255
0.11335751 1.0657336 0.002055401 255 255 255
0.59320581 1.7869253 0.0016804676 255 255 255
-2.5837514 -2.6354599 -0.0047014575 255 255 255
1.0496266 1.7806139 0.0020168128 255 255 255
-1.075743 -0.34181312 -0.001998117 255 255 255
-0.76721936 -0.3267456 -0.0039284956 255 255 255
-1.028842 -0.2056604 -0.0014814803 255 255 255
-4.5468178 -0.81363171 -0.0068190093 255 255 255
-0.12942266 -4.2928796 -0.008307809 255 255 255
0.47880641 1.3084167 0.0011527134 255 255 255
51.00169 82.714355 0.11247657 255 255 255
-0.29059225 -2.2065141 -0.0051441719 255 255 255
-0.11800706 -2.6665165 -0.0053103501 255 255 255
-1.1741618 -0.22441731 -0.001623312 255 255 255
-7.3285804 -4.2449093 -0.010356181 255 255 255
0.18122795 0.97172922 0.00094100187 255 255 255
0.10295151 -3.040966 -0.0058699665 255 255 255
0.59749401 1.6829284 0.0017791284 255 255 255
-1.1761088 -0.19423154 -0.0015022231 255 255 255
0.41622418 1.1752055 0.0010323412 255 255 255
-1.5072142 -0.63893861 -0.0020207167 255 255 255
-0.91571528 -0.87877083 -0.0019064487 255 255 255
-0.32504418 -2.5469997 -0.0050020805 255 255 255
3.7045925 6.1315236 0.0076437546 255 255 255
-1.5126166 -0.64284563 -0.0019954108 255 255 255
0.90408236 3.7277539 0.007680275 255 255 255
-0.29768157 -1.6037229 -0.0034780735 255 255 255
58.715107 58.887112 0.10113285 255 255 255
-39.15567 -41.761971 -0.10678777 255 255 255
-0.14346921 -3.9379911 -0.0087973196 255 255 255
-2.0302 -0.70448411 -0.0028025971 255 255 255
-1.2904501 -0.78247786 -0.0022444779 255 255 255
0.14772567 0.97135472 0.00098091166 255 255 255
1.0682572 4.0310035 0.0076205879 255 255 255
70.149643 87.713295 0.12301107 255 255 255
0.60588419 2.0180516 0.003089227 255 255 255
0.46085924 1.4006032 0.0012088021 255 255 255
0.78969258 1.637128 0.0024856471 255 255 255
-1.6455075 -0.31211272 -0.002384885 255 255 255
1.5157634 2.6365137 0.0031689694 255 255 255
0.58499229 1.5742677 0.0014555403 255 255 255
0.67003542 2.4560637 0.0048587248 255 255 255
0.37256846 1.1767564 0.0011682045 255 255 255
2.1430814 4.8423548 0.0092904521 255 255 255
-1.4147447 -0.28794262 -0.0017693662 255 255 255
0.039811384 1.0982785 0.0016777583 255 255 255
-0.20055039 0.56631106 -8.7413551e-05 255 255 255
0.4549371 1.5362805 0.0013028549 255 255 255
-1.5069813 -0.66026074 -0.0019974678 255 255 255
4.0046978 4.2091427 0.0067183543 255 255 255
5.1608582 4.4361911 0.0071245087 255 255 255
0.30311427 1.1118081 0.00084377266 255 255 255
1.5992678 3.7069137 0.0043484019 255 255 255
-0.42653549 -1.5939963 -0.0039349953 255 255 255
-3.878098 -0.96707433 -0.0048985546 255 255 255
22.882273 42.51757 0.056301646 255 255 255
-0.98097575 -0.054990236 -0.0013471001 255 255 255
0.54830778 1.423767 0.0018865974 255 255 255
-0.33526608 0.51145482 -0.00036519585 255 255 255
-1.8091087 -1.642334 -0.0034515455 255 255 255
8.365386 16.944885 0.021221846 255 255 255
-2.6904788 -6.1547661 -0.0099320076 255 255 255
-1.3513026 -0.81248772 -0.0023172311 255 255 255
0.53583252 1.0905582 0.0010480015 255 255 255
-3.980998 -3.5122151 -0.0058985311 255 255 255
-1.2812951 -2.0360453 -0.0035346788 255 255 255
0.78425711 2.1828625 0.0023587877 255 255 255
17.370447 15.879299 0.027095715 255 255 255
1.1001819 5.4154873 0.011605173 255 255 255
0.28254262 1.3805499 0.0019628708 255 255 255
-2.5164642 -0.61670464 -0.0031012814 255 255 255
1.0500398 3.3924952 0.0061749336 255 255 255
0.1146559 0.83595169 0.00071597233 255 255 255
-0.46557537 -0.11971269 -0.0012086337 255 255 255
-2.9057608 -1.2887038 -0.0034352855 255 255 255
-2.4191566 -2.5750105 -0.0044750781 255 255 255
-0.43769702 -4.449811 -0.0084094508 255 255 255
-1.2832876 -0.84266031 -0.0024397427 255 255 255
-1.6406375 -0.40780982 -0.0021945909 255 255 255
0.355409 1.4502374 0.0011871398 255 255 255
-0.83374381 -0.21779802 -0.0016076601 255 255 255
-1.5103791 0.031688131 -0.0023070606 255 255 255
-0.1541578 -6.8405504 -0.011442329 255 255 255
-1.8283002 -0.39370167 -0.0022065765 255 255 255
0.35942677 1.4050705 0.001735782 255 255 255
0.83307141 1.8527192 0.0019243736 255 255 255
-0.057760566 -2.113596 -0.0042482661 255 255 255
0.41535184 1.1081101 0.00168943 255 255 255
0.58422148 1.705422 0.0015500123 255 255 255
-1.4968575 -0.66486531 -0.0020325358 255 255 255
-0.59196949 -3.0127339 -0.005570835 255 255 255
-7.1706142 -7.5440364 -0.013437884 255 255 255
-26.445259 -39.364853 -0.054692961 255 255 255
-1.1111816 -0.5560838 -0.0030766844 255 255 255
-1.1763535 -0.2651515 -0.001655796 255 255 255
1.5859125 3.046607 0.0038820116 255 255 255
0.40671349 1.2233653 0.0011858039 255 255 255
-0.31949788 -1.6575823 -0.0035740838 255 255 255
-1.1765629 -0.28740102 -0.0015334605 255 255 255
-1.4293889 -0.63420522 -0.0022193228 255 255 255
-1.5465617 -0.32517728 -0.0020630539 255 255 255
-1.5399177 -0.32895768 -0.0020343203 255 255 255
-1.3147269 -0.1835864 -0.0016459313 255 255 255
0.83108479 1.8319793 0.0021267771 255 255 255
-3.0666521 -2.601666 -0.0052933572 255 255 255
0.34912342 1.1017742 0.0010430628 255 255 255
1.450188 3.1269622 0.0038897994 255 255 255
-1.3097454 -0.60545647 -0.0025775169 255 255 255
-1.5471774 -0.65520072 -0.0019177009 255 255 255
-1.6087883 -0.035032734 -0.0019759871 255 255 255
-1.5437725 -0.30902758 -0.0020323095 255 255 255
-3.2571921 -4.1917157 -0.0071330001 255 255 255
-1.3280135 -0.47113431 -0.002023764 255 255 255
-1.4254693 -0.6091308 -0.00218171 255 255 255
0.78098619 2.1778023 0.0023462356 255 255 255
-1.304275 -0.84618276 -0.0024077294 255 255 255
-1.4420053 -0.755077 -0.0021204522 255 255 255
-4.829401 -7.3227415 -0.010131617 255 255 255
-3.7942617 -10.276507 -0.019612979 255 255 255
0.29663613 1.068277 0.00094815559 255 255 255
0.79820621 2.0479531 0.0022908296 255 255 255
-4.3759675 -4.5481915 -0.0078343889 255 255 255
3.8266695 12.487634 0.024388697 255 255 255
-1.2403498 -0.81670761 -0.0025992261 255 255 255
-4.6279426 -4.3579264 -0.0084805787 255 255 255
-0.073577791 -1.5687581 -0.0036876919 255 255 255
-2.9239666 -4.0080357 -0.0062649441 255 255 255
-1.5433639 -0.33969358 -0.0020647573 255 255 255
-1.4283515 -0.59882665 -0.0021805891 255 255 255
-1.3849719 -0.17228685 -0.001848598 255 255 255
0.33412331 1.1370257 0.00089297304 255 255 255
1.4837894 2.7754202 0.0043041911 255 255 255
0.66367191 1.8631288 0.001931817 255 255 255
-3.8967888 -3.4848921 -0.0058113509 255 255 255
0.49588504 1.6344507 0.0015844428 255 255 255
-1.519359 -0.37036347 -0.0020153061 255 255 255
-3.8750911 -3.1564989 -0.0068995948 255 255 255
0.52525502 1.1739224 0.0013334969 255 255 255
-0.51172501 -0.85640424 -0.0027602897 255 255 255
-1.5495147 -0.28823718 -0.0020614215 255 255 255
-0.40192497 0.23124653 -0.00056082429 255 255 255
0.79435819 1.9559218 0.00185404 255 255 255
1.0145259 2.8928752 0.0028672821 255 255 255
8.905076 10.647228 0.015486292 255 255 255
-2.5896177 -0.44003361 -0.0033369216 255 255 255
0.3624171 1.1250564 0.0011112101 255 255 255
-4.1502256 -4.7781591 -0.0083959401 255 255 255
-4.3542504 -0.57476085 -0.0077033611 255 255 255
-0.22418791 -1.5215399 -0.0044923066 255 255 255
-1.4610841 -0.51536399 -0.002205099 255 255 255
-1.2857326 -0.83598709 -0.0024415031 255 255 255
-5.7253423 -11.270508 -0.017440096 255 255 255
-1.5405403 -0.51050711 -0.001995944 255 255 255
-0.86293274 -1.189538 -0.0031456423 255 255 255
6.7389417 13.969375 0.018910641 255 255 255
-1.6956596 -2.4785666 -0.0040013832 255 255 255
-0.45019451 0.30440289 -0.00073101849 255 255 255
2.7801621 2.5193293 0.0046026488 255 255 255
-1.5441148 -0.3346937 -0.0020632364 255 255 255
1.1753206 2.6647978 0.0032248748 255 255 255
-4.1332574 -12.02983 -0.018311584 255 255 255
-1.5403324 -0.36489046 -0.0020660802 255 255 255
-1.4948493 -0.31841984 -0.0019824421 255 255 255
-1.454277 -0.51238114 -0.0021852658 255 255 255
7.8875155 11.772833 0.01707002 255 255 255
3.2574725 3.7339087 0.0058442005 255 255 255
-2.850992 -3.5483258 -0.0073232814 255 255 255
-1.2845489 -0.8404873 -0.0024439846 255 255 255
-1.2814521 -0.84292358 -0.002447057 255 255 255
-2.3547909 -14.62129 -0.033562418 255 255 255
-10.381467 -9.3181562 -0.018571202 255 255 255
-1.5425191 -0.34111708 -0.0020664958 255 255 255
-1.4704819 -0.029166924 -0.0019407369 255 255 255
-1.502167 -0.6920985 -0.0020037575 255 255 255
-1.657475 -0.23166297 -0.0022054047 255 255 255
-1.5474321 -0.29204971 -0.0020672551 255 255 255
-28.418203 -32.076454 -0.050290234 255 255 255
0.026216829 -1.7835256 -0.0041882182 255 255 255
0.26519808 1.1487683 0.00095323432 255 255 255
-0.093737021 -1.9459457 -0.0042221984 255 255 255
-1.5396414 -0.33324406 -0.002035571 255 255 255
1.4067796 3.2941175 0.0036759877 255 255 255
-1.3730407 -0.32233122 -0.00253658 255 255 255
-0.41711399 -1.6068977 -0.0039481325 255 255 255
-1.5950744 -0.40111238 -0.0019083922 255 255 255
0.82589036 2.289166 0.0024650064 255 255 255
-1.4385169 -0.55203903 -0.0021619108 255 255 255
-1.3871412 -0.16972046 -0.0024969063 255 255 255
-0.33555219 0.51133251 -0.00036581108 255 255 255
-0.14322561 -5.7267499 -0.01065751 255 255 255
-1.3842912 -0.17875591 -0.0025043932 255 255 255
11.57883 19.372566 0.027178656 255 255 255
3.4076669 3.9150555 0.0052505741 255 255 255
-1.5452029 -0.32828757 -0.0020694886 255 255 255
-1.1478733 -0.22270365 -0.0016747838 255 255 255
-4.2867002 -1.8117139 -0.0060280273 255 255 255
-5.465045 -4.9129682 -0.0081252791 255 255 255
2.0637572 4.6075754 0.00669161 255 255 255
-0.41329658 -1.6206741 -0.0039522075 255 255 255
0.26289511 1.457747 0.0014132208 255 255 255
-1.0591559 -2.0291574 -0.0036430412 255 255 255
-1.5428307 -0.3176176 -0.0020350604 255 255 255
-1.642365 -0.096497573 -0.0018619328 255 255 255
0.47682285 1.2022768 0.0012560601 255 255 255
1.1804888 2.6570261 0.0032196445 255 255 255
0.012787634 2.5523584 0.0034677463 255 255 255
-1.5372777 -0.16857006 -0.0020391617 255 255 255
0.59512275 1.8732477 0.0021737537 255 255 255
-1.4208874 -0.61459333 -0.0021758277 255 255 255
-1.7476465 -0.74163795 -0.002933362 255 255 255
1.01737 2.3003161 0.0028004926 255 255 255
-1.3435775 -0.81519371 -0.0023341775 255 255 255
1.5149261 2.2230299 0.0028501283 255 255 255
0.0014631498 1.0161511 0.00083456951 255 255 255
-113.56291 -313.16516 -0.43273878 255 255 255
-2.0884352 -0.7659024 -0.0027461904 255 255 255
-1.5408697 -0.29666579 -0.0020727089 255 255 255
6.2658834 5.1398087 0.0087354118 255 255 255
-2.3600016 -0.79888201 -0.0031699436 255 255 255
44.446941 36.324795 0.07502149 255 255 255
-1.33621 -0.84918773 -0.0023261807 255 255 255
-1.1276973 -0.38214061 -0.0030811846 255 255 255
-1.5858728 -0.69859785 -0.0024387604 255 255 255
-2.947202 -3.4547427 -0.0070323548 255 255 255
-0.71099102 -1.1513298 -0.0035734046 255 255 255
0.66569418 1.4155344 0.0016777636 255 255 255
-1.5441259 -2.3297884 -0.0045742933 255 255 255
0.90780449 2.3561192 0.0021793121 255 255 255
-1.7444799 -3.5980561 -0.0059293048 255 255 255
-0.45105648 0.46470305 -0.00045758206 255 255 255
-1.9717339 -0.72440505 -0.0026064292 255 255 255
4.2512541 6.5193024 0.0083779776 255 255 255
-1.5288607 -0.62517476 -0.0019721161 255 255 255
0.38571274 1.1305399 0.0010049519 255 255 255
0.89827752 1.7677315 0.001860214 255 255 255
0.36016077 1.1350347 0.00095751625 255 255 255
-9.6507006 -4.0947142 -0.012983247 255 255 255
-2.0444992 -4.5180001 -0.0079824105 255 255 255
-1.5387127 -0.38404337 -0.0020736994 255 255 255
-1.5189286 -0.36486256 -0.0020159367 255 255 255
0.39900327 1.1353652 0.0011234729 255 255 255
2.7019482 2.598031 0.0042865607 255 255 255
0.77093828 2.0898631 0.0019735638 255 255 255
3.5210781 21.253685 0.039521407 255 255 255
0.61279535 1.9677083 0.0021392347 255 255 255
-3.766078 -3.0699189 -0.0065417197 255 255 255
-1.5501845 -0.29104722 -0.0020533279 255 255 255
-0.070276372 3.0023644 0.0063941195 255 255 255
2.0058081 4.1362109 0.0064616618 255 255 255
-0.60164911 -2.3492548 -0.0050168489 255 255 255
-1.4196241 -0.61760283 -0.0021753912 255 255 255
0.62847948 1.7633034 0.0018227457 255 255 255
-3.7001874 -3.3300261 -0.0068248804 255 255 255
1.0976388 2.3058932 0.0037979353 255 255 255
-3.8444426 -1.4150743 -0.0051827123 255 255 255
-0.3762655 0.035106234 -0.00081458711 255 255 255
0.18537229 -2.8365912 -0.0059089339 255 255 255
3.7240319 6.0421619 0.0082116555 255 255 255
-0.69752473 -1.1568788 -0.0024530541 255 255 255
-0.34242764 0.32394212 -0.00050276006 255 255 255
-1.6281981 -0.3937473 -0.002139258 255 255 255
-1.8572676 -0.37812704 -0.0024327857 255 255 255
-1.5821303 -0.34197694 -0.0020586955 255 255 255
-23.626013 -19.715021 -0.032900926 255 255 255
0.43044242 1.4752364 0.0012350371 255 255 255
-1.4238061 -0.6075995 -0.0021766517 255 255 255
0.116754 1.0864649 0.0024764177 255 255 255
0.31074598 4.1619768 0.0069737039 255 255 255
-6.1766062 -5.4107718 -0.010094726 255 255 255
7.0434055 14.713243 0.018066507 255 255 255
-1.5903672 -0.41236481 -0.0019141714 255 255 255
0.81517416 2.8594186 0.0038856834 255 255 255
-0.42643654 -1.5944169 -0.0039359876 255 255 255
-30.746469 -40.581596 -0.061966978 255 255 255
0.8335923 2.3414016 0.0025067902 255 255 255
-1.4054762 -0.26099885 -0.0024631226 255 255 255
0.58494598 1.4234047 0.0013863844 255 255 255
-3.4358182 -5.1451678 -0.0085658608 255 255 255
0.14540462 0.93818897 0.00097265892 255 255 255
2.0936155 6.4216728 0.0076576681 255 255 255
-1.6421601 -0.09839768 -0.0018600727 255 255 255
-1.5889652 -0.36276782 -0.0020837714 255 255 255
-1.5443912 -0.29924944 -0.0020679419 255 255 255
-1.5479648 -0.59611559 -0.0019410359 255 255 255
1.9477991 3.6251099 0.0049828375 255 255 255
-0.36742252 0.057054136 -0.00077303266 255 255 255
-0.20445454 -1.9866582 -0.0041448618 255 255 255
0.58565593 1.7390834 0.0017475581 255 255 255
-1.5960393 -0.39837793 -0.001908325 255 255 255
-1.475431 -0.57839817 -0.0021446417 255 255 255
-34.336475 -29.04241 -0.047901232 255 255 255
0.84310436 2.3666339 0.0025320267 255 255 255
1.176833 2.450804 0.0030468751 255 255 255
-1.4598132 -0.54605806 -0.0021272204 255 255 255
-0.41051567 -1.6073157 -0.0039660409 255 255 255
-0.38694796 0.26487392 -0.00069364457 255 255 255
1.6559573 9.9789963 0.022642137 255 255 255
0.5580079 1.6349844 0.0016857855 255 255 255
3.5347345 6.1567011 0.0086051039 255 255 255
0.5866484 1.7010444 0.001825011 255 255 255
-9.3797426 -7.8110886 -0.013221337 255 255 255
-1.440892 -0.28168052 -0.0018880457 255 255 255
-1.5438077 -0.33339626 -0.0020726293 255 255 255
-2.9553537 -2.7619305 -0.0058512772 255 255 255
-0.4173713 -1.5890353 -0.0039542108 255 255 255
0.69649273 1.822582 0.0019852449 255 255 255
-3.2081451 -3.2680545 -0.0061740996 255 255 255
0.51477712 1.3008126 0.0013401146 255 255 255
-1.442777 -0.74206221 -0.0021249419 255 255 255
3.3020732 2.9695561 0.0050854879 255 255 255
-0.2087238 -2.7085738 -0.0052946494 255 255 255
-0.61612386 -1.6222452 -0.0034925919 255 255 255
-1.5386813 -0.18997525 -0.0020643743 255 255 255
15.332528 19.194134 0.031907357 255 255 255
0.66643935 1.3327215 0.0015615062 255 255 255
0.32080689 0.9465636 0.001259753 255 255 255
0.7940852 2.0403128 0.0022460776 255 255 255
-1.5484121 -0.14210922 -0.0020500661 255 255 255
0.56898725 1.7307092 0.0017899288 255 255 255
-4.8233504 -4.2151961 -0.0072288597 255 255 255
0.67162794 2.0126867 0.0021477037 255 255 255
-1.5254363 -0.54789954 -0.0020246122 255 255 255
-1.5392562 -0.32725742 -0.0020347631 255 255 255
0.56785029 1.7254596 0.0033661537 255 255 255
-1.3241415 -0.48392433 -0.0020227572 255 255 255
0.57234323 1.340627 0.0014957368 255 255 255
0.65585583 1.8826332 0.0020298625 255 255 255
0.6688444 1.8590442 0.0019967565 255 255 255
-1.4487542 -0.53260112 -0.0021772927 255 255 255
-1.4300513 -0.21456103 -0.0018587733 255 255 255
-0.42289081 -1.6009079 -0.0039370824 255 255 255
0.88579249 2.0588083 0.0039407322 255 255 255
-1.6464429 -0.31400049 -0.0023900755 255 255 255
-1.6852167 -0.37408128 -0.002244188 255 255 255
-1.8884923 -3.3697333 -0.0056496756 255 255 255
-1.706012 -0.36120665 -0.0028802541 255 255 255
-1.3821096 -0.1836268 -0.0025105185 255 255 255
-1.5300027 -0.62069947 -0.0019706381 255 255 255
-0.42411461 -1.2072593 -0.0041975612 255 255 255
0.050783228 0.86009687 0.00041359488 255 255 255
9.6605864 7.9043245 0.015949424 255 255 255
-16.667677 -17.216473 -0.02999096 255 255 255
0.58782095 1.9028119 0.001948554 255 255 255
9.2782192 8.0528364 0.01284816 255 255 255
0.32715443 1.1819581 0.00093058491 255 255 255
1.2732455 2.7291837 0.0032204727 255 255 255
-0.63835841 -2.1742697 -0.0047248639 255 255 255
-0.85555542 -1.2020361 -0.0031798137 255 255 255
-1.5493426 -0.37284252 -0.0019435127 255 255 255
-1.311175 -0.75409913 -0.0024700647 255 255 255
0.36105648 1.0747646 0.0010257704 255 255 255
-73.392448 -124.03595 -0.1749777 255 255 255
-1.5287379 -0.22608237 -0.0020268764 255 255 255
-0.8526144 -1.1948988 -0.0031807155 255 255 255
-2.320704 -1.7366449 -0.0042574196 255 255 255
-2.8376193 -2.4047709 -0.0051749838 255 255 255
-15.385417 -42.511234 -0.059920605 255 255 255
0.39640024 1.434597 0.0018297947 255 255 255
-1.9004911 -0.72143596 -0.0026385796 255 255 255
-0.30585539 -13.523577 -0.025999866 255 255 255
-1.6874821 -0.36934611 -0.0022523364 255 255 255
-1.5441136 -0.31002218 -0.0020317046 255 255 255
0.82691151 2.0560954 0.0023538389 255 255 255
-0.84435171 -1.2047724 -0.0031941331 255 255 255
0.79901844 2.0139296 0.0023386024 255 255 255
-1.0175574 -1.0419844 -0.0021745292 255 255 255
1.5909513 6.1876521 0.012390882 255 255 255
0.88195199 2.1800573 0.002332767 255 255 255
1.1607424 1.8170561 0.0029943562 255 255 255
-1.3500261 -0.80439013 -0.0023266273 255 255 255
-1.5280242 -0.21854812 -0.002026588 255 255 255
0.29745841 1.0700808 0.00099103793 255 255 255
-1.6260544 -0.39957204 -0.0021358393 255 255 255
-0.11091327 -2.9057891 -0.0055196043 255 255 255
-0.85352153 -1.197412 -0.0031778002 255 255 255
-0.75304949 -3.0883296 -0.0061681732 255 255 255
-1.5260535 -0.21719074 -0.0020284574 255 255 255
-1.5247737 -0.22149257 -0.0020379594 255 255 255
-3.9285474 -5.1820021 -0.0079541821 255 255 255
0.389929 1.1551886 0.0011446736 255 255 255
-1.5145969 -0.63568479 -0.0019961353 255 255 255
0.64170164 1.4199398 0.0019414149 255 255 255
-1.5205215 -0.36641476 -0.0020158649 255 255 255
-3.6991358 -3.3223975 -0.0068301382 255 255 255
-0.34023878 0.39628875 -0.00046790886 255 255 255
-0.27035907 0.41646335 -0.00033189758 255 255 255
-3.5151684 -0.78318 -0.0044558956 255 255 255
-1.5432998 -0.29462114 -0.0020726146 255 255 255
-2.2066398 -0.66909695 -0.0027200328 255 255 255
-0.7975049 -3.2657464 -0.0064720246 255 255 255
-0.79041463 0.10114525 -0.0016629683 255 255 255
-1.4801372 -0.27804238 -0.0017948718 255 255 255
-4.0017991 -2.592778 -0.0074457228 255 255 255
1.2091824 2.2621951 0.0025898516 255 255 255
-1.3864553 0.12780586 -0.002021655 255 255 255
-0.86306399 0.029106718 -0.0012704632 255 255 255
0.55188286 1.4992154 0.0014477007 255 255 255
-5.6279826 -6.0145698 -0.010454219 255 255 255
-6.7047234 -11.203385 -0.017468242 255 255 255
-16.736353 -26.251198 -0.035281263 255 255 255
0.38486212 1.0953805 0.0011006597 255 255 255
-0.80049479 -0.19178595 -0.0011890699 255 255 255
-1.7948335 -1.649932 -0.0038365065 255 255 255
0.40956071 1.2266375 0.0012461422 255 255 255
-1.5253544 -0.62852973 -0.0019751475 255 255 255
-1.5143851 -0.642093 -0.0019931658 255 255 255
0.8880772 2.2047627 0.003156228 255 255 255
0.50040096 1.578635 0.0015193954 255 255 255
5.3922782 4.5513778 0.0074420027 255 255 255
27.249296 43.780006 0.061548628 255 255 255
2.8801336 3.0855999 0.0045827744 255 255 255
0.54199421 1.6544156 0.0016415571 255 255 255
-5.0053573 -7.9840264 -0.011150028 255 255 255
-2.0352194 -1.436235 -0.0029284484 255 255 255
-0.39934897 -5.3040023 -0.010820326 255 255 255
-1.5874397 -0.1906441 -0.0023063244 255 255 255
1.1422975 3.393863 0.0040136548 255 255 255
0.90075588 2.5150692 0.0027107773 255 255 255
-0.078079723 -1.9146758 -0.0044445433 255 255 255
-1.5611492 -0.55474603 -0.0019379703 255 255 255
0.10526822 1.1560193 0.0021620956 255 255 255
1.4263784 12.07761 0.016880391 255 255 255
1.4972783 3.8528273 0.0061782543 255 255 255
0.83460474 2.9189777 0.0058598779 255 255 255
-1.4960954 -0.6641916 -0.0020316574 255 255 255
-30.056519 -46.102959 -0.064617597 255 255 255
4.9492497 4.8124437 0.0090968907 255 255 255
-1.5609093 -0.31125423 -0.0019883204 255 255 255
7.7396693 4.5766864 0.011809538 255 255 255
-1.207601 -0.28666905 -0.0017239196 255 255 255
1.1219021 10.87113 0.021850899 255 255 255
-1.5435802 -0.33974826 -0.0020649286 255 255 255
-1.5484469 -0.28609762 -0.002063158 255 255 255
0.91249675 2.071182 0.0039752964 255 255 255
-1.7271631 -0.36395296 -0.0023140947 255 255 255
0.61488438 1.7143757 0.0018735934 255 255 255
1.026407 2.1916647 0.0027275141 255 255 255
17.970888 35.411903 0.049717594 255 255 255
-1.4136772 -0.60286307 -0.0021625117 255 255 255
0.88834751 2.0619862 0.0039480724 255 255 255
-1.2814034 -0.84343141 -0.0024469066 255 255 255
-1.5327438 -0.1948031 -0.002044054 255 255 255
-8.120944 -6.2789288 -0.013689789 255 255 255
-1.5311544 -0.19640751 -0.0020496224 255 255 255
0.31676134 1.0392035 0.00098231807 255 255 255
2.5805197 4.6793318 0.0063691847 255 255 255
-2.0363572 -1.4370849 -0.0029292882 255 255 255
1.3238374 4.2354174 0.0049089957 255 255 255
0.53478736 1.2429899 0.0013759492 255 255 255
-1.4144896 -0.64118379 -0.0021866788 255 255 255
0.40062326 1.1680145 0.0011699006 255 255 255
-4.9797635 -9.5263128 -0.022331981 255 255 255
-3.2606208 -2.9778702 -0.0061404328 255 255 255
-0.033200245 -1.3378416 -0.003183505 255 255 255
1.4222747 9.0716238 0.017104579 255 255 255
0.99143416 2.7881567 0.0033697584 255 255 255
14.201012 11.529753 0.020344531 255 255 255
0.51639462 1.2759293 0.0013684693 255 255 255
-2.9951377 -3.6605577 -0.0066028289 255 255 255
1.1097022 2.6665487 0.0031261249 255 255 255
-1.5195031 -0.36658123 -0.0020170719 255 255 255
-1.3097857 -0.60585016 -0.0025777018 255 255 255
-1.855256 -0.89934701 -0.0024458859 255 255 255
-1.1590377 -2.0895472 -0.0037975686 255 255 255
-1.3743478 -0.30824724 -0.001779375 255 255 255
-1.387297 -0.1699961 -0.0024983946 255 255 255
0.3902027 2.1545 0.0027742279 255 255 255
-3.4129844 -5.1419773 -0.0084076915 255 255 255
0.28871739 1.7848778 0.0020991825 255 255 255
0.21702778 0.9009943 0.0010749584 255 255 255
0.89605337 2.3733802 0.0026306673 255 255 255
-1.7001343 -1.4117693 -0.0034240128 255 255 255
0.67266744 1.3100977 0.0015872716 255 255 255
-1.6089737 -0.035316549 -0.0019765762 255 255 255
1.1384318 3.0213759 0.0037544356 255 255 255
-8.1126556 -6.6759701 -0.010985838 255 255 255
0.57121503 1.7565107 0.0017789794 255 255 255
-1.5405926 -0.36383486 -0.0020621705 255 255 255
-0.10028941 -2.6649177 -0.0050878897 255 255 255
-0.066333584 -0.99270648 -0.00359825 255 255 255
0.73640072 2.0081327 0.0021685937 255 255 255
0.88533682 10.155017 0.019988142 255 255 255
1.2537227 4.0161314 0.0046452899 255 255 255
-1.5487181 -0.28774881 -0.0020604203 255 255 255
-0.88230944 -1.2534661 -0.0036062384 255 255 255
-4.070878 -13.058825 -0.020744668 255 255 255
0.31561145 2.7603872 0.00395734 255 255 255
-1.443867 -0.74224043 -0.0021258134 255 255 255
-0.5908761 0.34629232 -0.00083413249 255 255 255
-0.31078908 -10.146222 -0.0159947 255 255 255
-1.6437601 -0.34630984 -0.0021979834 255 255 255
0.25626487 1.580346 0.0015011021 255 255 255
-8.3300457 -7.8303056 -0.014109165 255 255 255
-1.9571444 -5.5730591 -0.009280703 255 255 255
-0.26992279 -1.8894979 -0.003885085 255 255 255
-1.4342704 -0.19754644 -0.0019279878 255 255 255
-2.5912888 -53.696335 -0.12108812 255 255 255
-2.1870728 -0.78958488 -0.0031554736 255 255 255
-2.5034862 -3.6698024 -0.0065607857 255 255 255
-1.5372268 -0.16885506 -0.0020395757 255 255 255
-1.4193196 -0.64523405 -0.0021974456 255 255 255
0.84586895 2.1052771 0.0023833511 255 255 255
-1.5476964 -0.32410857 -0.0020635712 255 255 255
-1.5438048 -0.29443765 -0.0020724142 255 255 255
-1.8844908 -1.8274348 -0.0035785518 255 255 255
0.047104388 -2.3565726 -0.0051863892 255 255 255
27.616299 35.01936 0.054361925 255 255 255
-1.7273402 -0.32604113 -0.0023164102 255 255 255
-1.549233 -0.58389843 -0.0019428284 255 255 255
1.1764649 2.7987604 0.0032692428 255 255 255
0.13169189 -2.7871642 -0.0053594839 255 255 255
-9.7958803 -4.497519 -0.012344484 255 255 255
0.3469798 1.0575904 0.0010116961 255 255 255
0.22380088 1.7563477 0.0029298957 255 255 255
-0.17497613 0.5529592 -7.2801799e-05 255 255 255
-1.5422924 -0.31705117 -0.0020340206 255 255 255
-1.4294884 -0.59756726 -0.0021827079 255 255 255
-0.6139645 -1.6259117 -0.003492198 255 255 255
0.30856103 1.228742 0.00093646126 255 255 255
-0.061651528 -3.4118421 -0.0063455687 255 255 255
-3.8526554 -3.4387209 -0.0068959887 255 255 255
3.8494921 6.0727415 0.0085218539 255 255 255
-0.45083156 0.29953977 -0.00068821083 255 255 255
0.35501918 1.2565968 0.00099148962 255 255 255
-1.1248389 -0.94766665 -0.0027764086 255 255 255
-1.9194849 -1.8850267 -0.0036537258 255 255 255
-0.39992261 6.2953086 0.01215469 255 255 255
-1.5486984 -0.59687632 -0.0019420687 255 255 255
0.44020352 1.4733917 0.0021825451 255 255 255
0.82897943 1.5584445 0.0019371408 255 255 255
0.66098678 1.8810015 0.0019837248 255 255 255
-5.8284187 -5.6165695 -0.01032382 255 255 255
-0.35923916 -1.4799787 -0.0041585341 255 255 255
-1.6429577 -0.096195407 -0.0018624549 255 255 255
-1.5442512 -0.31016096 -0.0020312152 255 255 255
1.7455887 3.4296427 0.0044245305 255 255 255
0.30521041 1.0159682 0.00092665723 255 255 255
1.8324871 2.3155453 0.0034698662 255 255 255
-1.6325233 -0.39678815 -0.0021254839 255 255 255
-0.68010676 -2.3331556 -0.0050735171 255 255 255
-1.5430657 -0.33108953 -0.002028303 255 255 255
-3.7607322 -4.8840752 -0.0075309994 255 255 255
-0.084836185 -3.2298923 -0.0075568473 255 255 255
-10.317877 -11.002236 -0.019100552 255 255 255
-1.5214585 -0.36905858 -0.0020235679 255 255 255
0.95964718 2.203326 0.0026217964 255 255 255
-1.5391679 -0.33307442 -0.0020348148 255 255 255
1.2214773 2.3077934 0.0029125239 255 255 255
1.7991737 3.1583743 0.0061071124 255 255 255
0.62230903 1.9082174 0.0019758381 255 255 255
0.74352294 2.0155814 0.0021589124 255 255 255
-1.4628091 -0.51128805 -0.0022023101 255 255 255
-1.544012 -0.33433461 -0.0020658697 255 255 255
-1.4010884 -0.59924179 -0.0023439587 255 255 255
-1.1269801 -0.94260186 -0.0027731631 255 255 255
-12.064549 -16.081203 -0.025752734 255 255 255
-1.5398841 -0.32860139 -0.0020301775 255 255 255
4.5428419 4.0691705 0.0070840977 255 255 255
6.9828129 8.6788111 0.01211686 255 255 255
4.3079681 13.409224 0.020509785 255 255 255
-0.62042159 0.13785946 -0.00099489558 255 255 255
1.9297487 2.4225926 0.0036181079 255 255 255
3.221812 2.9216578 0.0047434368 255 255 255
0.04630952 -2.379545 -0.0045972853 255 255 255
13.383792 79.028687 0.11873747 255 255 255
-5.1347437 -4.826107 -0.01132543 255 255 255
-1.5420034 -0.29767877 -0.0020737704 255 255 255
-1.5389885 -0.32850933 -0.0020331207 255 255 255
0.47799301 1.5104275 0.0019835597 255 255 255
4.4042244 5.7565527 0.0094609316 255 255 255
-5.848455 -4.0005131 -0.0073358524 255 255 255
-3.8482327 -1.416876 -0.0051849233 255 255 255
-1.5467579 -0.13081391 -0.0020162663 255 255 255
-1.3727572 -0.32115006 -0.0025360261 255 255 255
0.12052642 0.77204537 0.00040329553 255 255 255
0.88055652 1.8789104 0.0019336805 255 255 255
-0.66446108 0.069846265 -0.0011493021 255 255 255
-0.12140895 -1.5185609 -0.0035729872 255 255 255
-9.0495081 -7.3581624 -0.01261808 255 255 255
-1.5513808 -0.58671468 -0.0019412522 255 255 255
-1.4949055 -0.93345165 -0.0025039832 255 255 255
-1.5526392 -0.58627385 -0.0019403195 255 255 255
0.064200096 1.1299813 0.0024036632 255 255 255
4.8203144 3.8921895 0.006467551 255 255 255
0.44151166 4.2404809 0.0059279455 255 255 255
3.3873019 39.484535 0.055285104 255 255 255
-1.5328474 -2.3244033 -0.0045736646 255 255 255
0.39754778 1.4138049 0.0013196783 255 255 255
-0.85260427 -1.1935178 -0.0031779327 255 255 255
-1.6542666 -0.60384786 -0.0021427972 255 255 255
-1.0125514 0.01990984 -0.0015536714 255 255 255
-0.96763682 -5.380445 -0.0096133305 255 255 255
-1.271682 -0.25957349 -0.001771472 255 255 255
-0.4986434 -0.30656812 -0.0016953627 255 255 255
-1.4612784 -0.51004106 -0.0021980554 255 255 255
-2.693954 -2.4535124 -0.0051818974 255 255 255
1.048987 1.1315187 0.0025038188 255 255 255
-1.8179574 -0.67731297 -0.0025400047 255 255 255
-0.93812156 0.40829211 -0.0011980364 255 255 255
-1.5685302 -0.39319366 -0.0020574119 255 255 255
-1.5433969 -0.30883312 -0.0020317493 255 255 255
-0.60223645 -2.2516248 -0.0049055195 255 255 255
0.84746391 1.5058881 0.0018051651 255 255 255
-2.9434364 -0.67325324 -0.0037166369 255 255 255
-1.5434785 -0.34174061 -0.0020674244 255 255 255
-1.4389586 -0.55217642 -0.0021628593 255 255 255
0.514889 1.3010545 0.0013401575 255 255 255
-0.99166244 -1.5714478 -0.0030191813 255 255 255
4.781208 10.396617 0.015326769 255 255 255
-1.3236107 -0.48354954 -0.0020217602 255 255 255
0.57352573 1.4704031 0.0014135595 255 255 255
10.429054 10.70729 0.018154647 255 255 255
1.97718 4.1902781 0.0043080184 255 255 255
-4.2906857 -5.1534567 -0.010118219 255 255 255
0.48242053 1.2305412 0.001326804 255 255 255
0.40608528 1.4702926 0.0013735136 255 255 255
-3.0371008 -1.4805658 -0.0038963307 255 255 255
-1.5532252 -0.25130692 -0.0020284434 255 255 255
0.18577988 1.0716085 0.0018662415 255 255 255
1.6754903 7.8807931 0.015817177 255 255 255
-0.9164027 -1.1280785 -0.0030966171 255 255 255
-0.41719845 -1.5886856 -0.0039505931 255 255 255
0.45248431 1.3163581 0.001367808 255 255 255
-1.3317953 -0.12819001 -0.0017592569 255 255 255
4.6630073 9.9191628 0.01833087 255 255 255
-1.5478388 -0.32371256 -0.0020655708 255 255 255
-1.2866272 -1.6806486 -0.0036389958 255 255 255
-1.5691589 -0.34911618 -0.0020890888 255 255 255
1.5101414 3.1507804 0.0037268423 255 255 255
1.1620823 1.5022538 0.0028855894 255 255 255
0.55125666 1.323516 0.0014706446 255 255 255
-1.5446819 -0.29773965 -0.0020655426 255 255 255
-0.85442317 -1.2002617 -0.0031781064 255 255 255
2.1869516 2.1139913 0.0036849363 255 255 255
-27.810738 -43.024052 -0.10739353 255 255 255
-5.4891758 -4.9327087 -0.0081550349 255 255 255
0.83539617 2.2382889 0.0025550586 255 255 255
-1.5391819 -0.32740805 -0.0020350546 255 255 255
0.43667296 1.5286584 0.0014595791 255 255 255
-2.1852126 -2.437294 -0.0042762058 255 255 255
0.55875558 1.4780475 0.0013719024 255 255 255
0.76493061 2.1560137 0.0023553178 255 255 255
6.0734849 4.9724555 0.0078151645 255 255 255
-1.5473425 -0.31064981 -0.0020226196 255 255 255
1.102725 2.6680582 0.0030881902 255 255 255
-1.5431274 -0.29861227 -0.0020663992 255 255 255
1.9904114 3.0070391 0.0036929278 255 255 255
-1.5260395 -0.23888952 -0.0020547619 255 255 255
-0.94046229 -3.188319 -0.0062151938 255 255 255
-1.480697 -0.4969455 -0.0021560141 255 255 255
-2.2583771 -0.24102071 -0.0033488637 255 255 255
-1.1168467 -0.86002833 -0.0023427221 255 255 255
-4.7493396 -7.7671509 -0.012551059 255 255 255
6.1486373 14.864021 0.020281797 255 255 255
-1.5514734 -0.29518774 -0.0020552021 255 255 255
-1.4297913 -0.21364914 -0.0018787034 255 255 255
-1.4426299 -0.75526965 -0.0021212853 255 255 255
-1.5639473 -0.56013691 -0.0019204395 255 255 255
0.36986288 1.1382718 0.0013541866 255 255 255
-1.4333074 -0.60561866 -0.0021329268 255 255 255
-2.596436 -0.59077948 -0.0031305989 255 255 255
0.13597491 0.8854264 0.00085166004 255 255 255
-0.41340852 -1.6191143 -0.0039508417 255 255 255
7.3727298 11.642599 0.017422231 255 255 255
-1.3227925 -0.32328135 -0.0016990968 255 255 255
-1.264295 -0.29451099 -0.0017383585 255 255 255
-1.4219794 -0.6174826 -0.0021780769 255 255 255
-1.4299513 -0.60217857 -0.0021834904 255 255 255
-2.9953663 -2.8665769 -0.0055612274 255 255 255
-1.5417233 -0.31165233 -0.0020321237 255 255 255
-0.071210817 -1.921044 -0.0044495622 255 255 255
-0.46914124 -1.7862824 -0.0040622507 255 255 255
-0.30256093 0.29430488 -0.00041621411 255 255 255
-0.69414526 -2.3569219 -0.0050665652 255 255 255
-2.5827999 -2.6570146 -0.0050268699 255 255 255
0.3314217 1.1982987 0.00094779866 255 255 255
-1.3426673 -0.81455666 -0.0023327079 255 255 255
-1.2945153 -0.21487714 -0.0017985356 255 255 255
-1.5410227 -0.3103689 -0.0020858673 255 255 255
-2.7701023 -1.2716579 -0.0035546809 255 255 255
-1.5274676 -0.22526303 -0.0020257223 255 255 255
0.76073712 1.9516597 0.0022417668 255 255 255
-1.5278921 -0.21875598 -0.0020270816 255 255 255
-1.8544163 -2.2760327 -0.0037282507 255 255 255
-1.5237267 -0.22095037 -0.0020365305 255 255 255
-1.2202113 -1.5288459 -0.003356107 255 255 255
-1.5268747 -0.2175554 -0.0020295475 255 255 255
0.33912271 1.4237162 0.0010944435 255 255 255
-1.2994699 -0.28182387 -0.001818058 255 255 255
-1.4505869 -0.27698731 -0.0020715718 255 255 255
-4.6248803 -3.8186104 -0.0064686518 255 255 255
0.464919 1.1392292 0.0012383778 255 255 255
14.991246 16.540735 0.027933784 255 255 255
-1.7645497 -0.39390767 -0.0023310643 255 255 255
-1.5462698 -0.31659445 -0.0020205609 255 255 255
4.9712191 4.0538092 0.0067316135 255 255 255
0.15949813 -230.15656 -0.51286942 255 255 255
-1.5313613 -0.61947381 -0.0019709792 255 255 255
-0.55934834 -1.3700643 -0.0035488079 255 255 255
5.1324034 10.327154 0.012998211 255 255 255
-1.0097498 0.02057771 -0.0015520253 255 255 255
-0.31166676 0.52516764 -0.00035139226 255 255 255
-4.1318145 -6.2667918 -0.010343954 255 255 255
0.88388497 2.3723145 0.0028475979 255 255 255
-0.024099773 -1.7279496 -0.0040554805 255 255 255
0.89745492 2.3491378 0.0025134231 255 255 255
0.76386857 2.0272665 0.002291257 255 255 255
1.6983678 3.1622052 0.0042718765 255 255 255
0.35898826 1.1243036 0.0010030461 255 255 255
1.397625 1.3968315 0.0024233083 255 255 255
-2.2925789 -2.3500597 -0.004373197 255 255 255
0.40944004 1.2106535 0.0012760652 255 255 255
-2.1685493 -3.1678221 -0.0053990758 255 255 255
-1.4833506 -0.50636333 -0.00193025 255 255 255
-1.1969628 -0.27854505 -0.0015226714 255 255 255
-1.6292861 -0.29878134 -0.0020516641 255 255 255
11.339324 10.401461 0.016441911 255 255 255
-2.6941857 -0.56250548 -0.0036839375 255 255 255
9.4561052 9.6991291 0.015350745 255 255 255
-0.38698995 0.098659381 -0.00074752956 255 255 255
0.38716817 1.4413911 0.0027126919 255 255 255
9.2535992 8.9097929 0.015265749 255 255 255
2.1080241 2.6700497 0.0040375739 255 255 255
0.18706346 1.1544667 0.0025184406 255 255 255
-1.5501602 -0.31865293 -0.0020383049 255 255 255
-2.2021484 -1.7641737 -0.0033648575 255 255 255
4.7544069 9.9624767 0.017800882 255 255 255
3.4268727 7.8537917 0.010370197 255 255 255
-2.8591094 -0.71723473 -0.0036241256 255 255 255
-0.29179743 -1.8610164 -0.0039587021 255 255 255
-1.9746143 -0.40281966 -0.0023980003 255 255 255
-7.2025671 -7.5107293 -0.012956263 255 255 255
-13.272972 -6.8680716 -0.015886571 255 255 255
15.776114 35.998096 0.050214879 255 255 255
-1.5376703 -2.0012245 -0.0034632138 255 255 255
-0.35656047 -12.822771 -0.019661801 255 255 255
-1.0231372 -0.14826609 -0.0014975594 255 255 255
11.554553 13.575164 0.02611677 255 255 255
-2.6975083 -0.56213844 -0.0036891499 255 255 255
-0.66256738 0.23208486 -0.00091636099 255 255 255
1.4069053 2.3693137 0.003213729 255 255 255
-2.7137482 -0.61653018 -0.0034211334 255 255 255
4.2458591 6.4783258 0.0083837425 255 255 255
-1.059346 -0.041706052 -0.0015935209 255 255 255
-1.9174652 -0.79619247 -0.0028153309 255 255 255
-0.65906554 0.28759965 -0.0010176243 255 255 255
-1.6442751 -0.098525494 -0.0018584175 255 255 255
1.026319 2.1919558 0.0027298944 255 255 255
3.7163415 2.9866631 0.0049011535 255 255 255
2.1916678 3.9550879 0.0052470472 255 255 255
0.4190419 1.5352275 0.001437814 255 255 255
-0.80681181 -0.95768195 -0.0027361622 255 255 255
-12.137024 -15.211122 -0.023299616 255 255 255
-1.4187956 -0.64609605 -0.0021942565 255 255 255
-0.26147527 -113.82238 -0.26024342 255 255 255
-1.5371883 -0.16967121 -0.0020404647 255 255 255
-1.2849375 -0.83509809 -0.0024481749 255 255 255
-1.5189098 -0.36722142 -0.0020200668 255 255 255
-2.4819462 -1.9802885 -0.0046323696 255 255 255
-1.4996592 -0.33588675 -0.0019677845 255 255 255
-2.4450471 -1.1270216 -0.0031279118 255 255 255
0.84618384 2.1116011 0.002356411 255 255 255
5.8133793 9.0969419 0.01283951 255 255 255
-1.5301611 -0.36789167 -0.0020324711 255 255 255
-1.5481524 -0.31256017 -0.0020540182 255 255 255
-1.4247031 -0.60772806 -0.0021802729 255 255 255
3.419703 3.0357904 0.0056411163 255 255 255
0.45086595 1.1786071 0.0012088947 255 255 255
-3.2929091 -1.1018689 -0.0044843019 255 255 255
-1.6411207 -0.095915131 -0.0018610948 255 255 255
0.55309314 1.6807839 0.0029038226 255 255 255
0.087059803 -3.0921278 -0.0057715243 255 255 255
0.47803676 1.2034401 0.0012604032 255 255 255
0.96128315 2.4440706 0.0036569934 255 255 255
0.71396816 2.0689278 0.0022245189 255 255 255
-1.5494585 -0.28861445 -0.0020624306 255 255 255
-1.543465 -0.29440719 -0.0020725625 255 255 255
1.2013639 2.71544 0.003262907 255 255 255
-1.3097986 -0.60831177 -0.002577204 255 255 255
-0.42508072 -0.10892814 -0.0019204515 255 255 255
-1.2859429 -0.83592653 -0.0024424333 255 255 255
-1.4233513 -0.60950816 -0.0021595799 255 255 255
0.66822803 1.2786428 0.0015240341 255 255 255
-4.1659002 -0.52073509 -0.0073952 255 255 255
0.82050604 1.4408017 0.0018391589 255 255 255
-1.5444461 -0.34133646 -0.0020679247 255 255 255
-1.2812353 -0.84093893 -0.0024477474 255 255 255
-13.388944 -22.59107 -0.034636185 255 255 255
-1.546837 -0.29210532 -0.0020632541 255 255 255
-1.3720236 -0.32107064 -0.0025344086 255 255 255
0.82441407 1.5507265 0.0018902365 255 255 255
0.79258853 1.4333025 0.0017652366 255 255 255
1.7330564 4.7532129 0.0057363408 255 255 255
-1.5413606 -0.29807678 -0.002073616 255 255 255
-1.2872194 -0.83447945 -0.0024353075 255 255 255
0.56153184 1.2570451 0.0014173532 255 255 255
0.62494069 1.7675084 0.0019296358 255 255 255
0.82835817 1.9529978 0.0023184749 255 255 255
0.69062036 1.290628 0.0016001028 255 255 255
-5.4865136 -4.8967495 -0.0081352266 255 255 255
6.5894871 16.606667 0.022859832 255 255 255
63.477242 54.93037 0.087825872 255 255 255
-1.4368504 -0.61408335 -0.0022183768 255 255 255
-1.4152445 -0.22200151 -0.001874576 255 255 255
-1.233878 -0.23251241 -0.0017033231 255 255 255
-1.6965581 -2.2677846 -0.0045001898 255 255 255
0.84896874 2.4552617 0.0026419733 255 255 255
1.1996948 1.9918311 0.0026377125 255 255 255
-0.48305976 0.28304666 -0.00077807094 255 255 255
-3.618578 -0.77466571 -0.0045484998 255 255 255
-0.20638146 0.50745064 -0.00017182129 255 255 255
-1.5475734 -0.32442349 -0.0020649987 255 255 255
-1.5481595 -0.35642183 -0.0020205737 255 255 255
-1.6096317 -0.03664327 -0.0019797056 255 255 255
-1.4806656 -0.49750251 -0.0021561056 255 255 255
-0.86574042 -1.1884122 -0.0031348113 255 255 255
2.4393332 4.561532 0.0052832146 255 255 255
5.4731526 4.3718343 0.011591164 255 255 255
-0.13587105 -19.397299 -0.029395789 255 255 255
0.38989931 1.3410521 0.0012862767 255 255 255
0.32971746 1.0275706 0.0009550142 255 255 255
-0.42459524 -1.2086943 -0.0041987072 255 255 255
-0.48840246 0.28589317 -0.00078622729 255 255 255
0.70017922 1.8025174 0.0019699463 255 255 255
-1.5431598 -0.33478758 -0.00206592 255 255 255
-1.5395962 -0.30811667 -0.0020780785 255 255 255
-1.5418626 -0.31666687 -0.0020339182 255 255 255
-1.5503647 -0.58579278 -0.0019395235 255 255 255
-1.5457821 -0.31689337 -0.0020378444 255 255 255
-1.5436497 -0.31585136 -0.0020334898 255 255 255
1.3599025 2.1657317 0.0044298647 255 255 255
1.2965487 1.7466165 0.0025486399 255 255 255
0.34914446 1.0273763 0.0010271701 255 255 255
-1.543058 -0.34359232 -0.0020638823 255 255 255
0.81989598 2.062604 0.002259989 255 255 255
2.9758017 4.9616451 0.0068539977 255 255 255
0.35436177 1.1033393 0.0010565766 255 255 255
0.62850845 1.2220721 0.0014896853 255 255 255
-4.7998185 -3.5726032 -0.0076278546 255 255 255
0.63474476 1.7981279 0.0018642041 255 255 255
-1.4250979 -0.59749424 -0.0021762159 255 255 255
-0.4175669 -1.5905455 -0.0039523072 255 255 255
-1.5330381 -0.19444956 -0.0020446836 255 255 255
1.0304339 2.1985486 0.0027285938 255 255 255
-0.41393423 -1.6215719 -0.0039558331 255 255 255
-1.4072778 -0.25458086 -0.0024562899 255 255 255
-0.41600585 -1.6114933 -0.0039566876 255 255 255
-1.5212075 -0.36345983 -0.0020158428 255 255 255
-1.5473741 -0.32597968 -0.0020227761 255 255 255
-1.682646 -0.36423051 -0.0021975834 255 255 255
-1.4217027 -0.61802107 -0.0021789495 255 255 255
-1.5453728 -0.32570419 -0.002019922 255 255 255
-0.41134202 -1.6053703 -0.0039626169 255 255 255
-0.96601248 -0.13045529 -0.0013975836 255 255 255
-1.3611159 -0.79266167 -0.0023047749 255 255 255
-1.3605675 -0.79441774 -0.0023074416 255 255 255
-1.6415738 -0.40627658 -0.0021600644 255 255 255
0.61225826 1.8571035 0.0018898115 255 255 255
-1.1263314 -0.9424544 -0.0027719873 255 255 255
-1.5329252 -0.27814817 -0.001944845 255 255 255
0.41396716 1.4497916 0.0013219562 255 255 255
0.16675374 0.94016951 0.00094778655 255 255 255
-5405.8101 -30845.365 -45.851669 255 255 255
3.0265634 30.12841 0.063087784 255 255 255
-1.0996965 -0.30466753 -0.0017941556 255 255 255
-2.2162161 -1.9455183 -0.0037929348 255 255 255
-0.185598 0.57708889 -6.3517407e-05 255 255 255
-1.7311717 -3.0653884 -0.0051548639 255 255 255
0.62272227 1.7640886 0.0033918386 255 255 255
0.37376362 1.8803607 0.0034793073 255 255 255
-1.6257745 -0.39278856 -0.002140932 255 255 255
-0.074855112 -1.7223861 -0.0036597217 255 255 255
-1.5905308 -0.70805478 -0.0024508063 255 255 255
0.1182882 -2.4267645 -0.0047062468 255 255 255
0.24409141 5.5358438 0.0099467868 255 255 255
-0.31133339 0.52538711 -0.00035055651 255 255 255
-2.4819036 -1.1026597 -0.0031395648 255 255 255
-7.3749919 -17.086866 -0.022700761 255 255 255
-3.080447 -4.0106945 -0.0061534508 255 255 255
0.3956016 1.0364872 0.0010825767 255 255 255
2.8210692 4.8498302 0.0067109587 255 255 255
-0.52582067 7.476862 0.01476052 255 255 255
-0.43337747 0.35426864 -0.00066882046 255 255 255
2.6295836 6.1161218 0.0078469962 255 255 255
0.55499643 1.7402397 0.0018126882 255 255 255
-3.2076519 -3.268707 -0.0061749448 255 255 255
-1.5858711 -12.722502 -0.029697603 255 255 255
0.68960416 1.9331603 0.0020851661 255 255 255
-1.6417537 -0.09288805 -0.0018610974 255 255 255
-1.1555039 -7.2430363 -0.010887062 255 255 255
-2.98663 -2.6783104 -0.005614751 255 255 255
-0.8086949 -2.5903852 -0.0054324651 255 255 255
-3.8316264 -4.5294585 -0.0067904601 255 255 255
-1.1397614 -0.24753003 -0.0015089768 255 255 255
-1.4010295 -0.60084867 -0.0023424164 255 255 255
-1.4739459 -0.49382311 -0.00215651 255 255 255
-4.3518033 -3.8911293 -0.0065405788 255 255 255
0.75385904 2.0508826 0.0025293964 255 255 255
-1.5424825 -0.31391394 -0.0020283717 255 255 255
-0.61920959 0.10744479 -0.0010353558 255 255 255
3.2970912 3.6197093 0.0055511869 255 255 255
-1.1685735 -1.0044214 -0.0026011048 255 255 255
-1.3038009 -0.84463191 -0.002406236 255 255 255
0.71172339 2.4313385 0.0026806833 255 255 255
-1.943543 -3.5601082 -0.0057986742 255 255 255
-1.8200397 -0.019715555 -0.0027871656 255 255 255
-1.6800908 -0.36907411 -0.0022193582 255 255 255
-1.4419203 -0.75476021 -0.0021204753 255 255 255
-0.73988128 -3.0390639 -0.0060513467 255 255 255
-2.8320284 -2.5057938 -0.0042176871 255 255 255
0.065742306 1.5860704 0.0031471718 255 255 255
0.69610631 -31.015366 -0.049302559 255 255 255
-1.6559458 -0.62477899 -0.0022366352 255 255 255
-13.016637 -102.02551 -0.19232917 255 255 255
-0.0047592963 2.5554976 0.0049263923 255 255 255
-3.4229195 68.799751 0.10189032 255 255 255
-3.8313189 -2.7225525 -0.0050343266 255 255 255
-3.3090854 -2.8485587 -0.0045997258 255 255 255
-3.0279176 -2.4368248 -0.0055493591 255 255 255
1.4026532 7.9833145 0.012915599 255 255 255
-0.61982965 -1.6187254 -0.0034870259 255 255 255
-1.2778319 -0.1703642 -0.0017704236 255 255 255
-0.1299483 1.3373913 0.0028274395 255 255 255
-2.0801148 -2.2723587 -0.0041441903 255 255 255
