ply
format ascii 1.0
comment PCL generated
element vertex 1102
property float x
property float y
property float z
property uchar red
property uchar green
property uchar blue
element face 0
element camera 0
property float view_px
property float view_py
property float view_pz
property float x_axisx
property float x_axisy
property float x_axisz
property float y_axisx
property float y_axisy
property float y_axisz
property float z_axisx
property float z_axisy
property float z_axisz
property float focal
property float scalex
property float scaley
property float centerx
property float centery
property int viewportx
property int viewporty
property float k1
property float k2
end_header
1823.2241 267.17191 2.8260632 255 255 255
23.682781 541.68427 -0.49706823 255 255 255
1082.5225 104.03699 1.6724187 255 255 255
-16556.127 -545.62323 -14.498287 255 255 255
4034.8469 405.58035 4.5090337 255 255 255
1172.7725 -357.58267 1.1096025 255 255 255
6360.9648 668.84149 5.7045093 255 255 255
-5493.688 631.35791 -6.3163843 255 255 255
2382.2869 -498.28732 2.6017854 255 255 255
2931.1047 -100.65745 3.5111773 255 255 255
-2015.5966 231.68758 -3.9214275 255 255 255
12373.555 -1931.72 22.868118 255 255 255
2781.1577 262.11563 2.9323413 255 255 255
7366.1372 683.37512 6.5755014 255 255 255
1325.5111 235.98131 2.0723562 255 255 255
-2386.5503 -1007.4451 -3.8169703 255 255 255
-15116.026 1243.781 -11.81687 255 255 255
-4714.8794 955.41888 -4.5097337 255 255 255
5331.894 568.94635 9.1587257 255 255 255
7288.7129 677.95648 6.5302219 255 255 255
61.441025 469.7663 -0.63116777 255 255 255
55.711926 692.31653 -0.46335262 255 255 255
-8399.9033 1587.6368 -17.354263 255 255 255
7226.7056 673.82031 6.4984879 255 255 255
-3442.5325 -97.132133 -3.6891172 255 255 255
-4942.4326 941.34949 -4.7206764 255 255 255
8485.4033 672.30908 7.6843848 255 255 255
52.10524 582.42194 -0.49040958 255 255 255
7965.2661 706.8786 14.980407 255 255 255
-1797.757 292.78763 -3.2670982 255 255 255
-35919.414 729.13831 -41.914352 255 255 255
7752.9819 124.48297 13.125286 255 255 255
-5569.8154 630.76385 -6.4018641 255 255 255
-5282.8833 603.83575 -6.2350483 255 255 255
52654.047 215.27699 57.960495 255 255 255
1353.6587 4.1418743 1.765847 255 255 255
-21748.531 641.6629 -25.316063 255 255 255
3698.2036 414.39032 4.0578861 255 255 255
-23887.078 845.6333 -22.373211 255 255 255
1252.8036 -355.66953 1.1899674 255 255 255
978.09064 -165.88069 0.89009547 255 255 255
-17798.045 833.52271 -16.709581 255 255 255
8612.2568 677.50372 7.7697086 255 255 255
29037.258 650.95117 26.626787 255 255 255
-172.91135 490.86816 -0.41526785 255 255 255
103000.73 -88.406929 114.02892 255 255 255
31550.932 643.33997 28.995966 255 255 255
-80.135422 432.94479 -0.34623364 255 255 255
2668.7478 -34.921467 2.4488213 255 255 255
-116.51587 477.59924 -0.43436298 255 255 255
3431.072 650.47107 2.9779091 255 255 255
1454.1876 79.562042 1.8231716 255 255 255
843.24426 17.849783 1.4125309 255 255 255
537.58881 74.520126 0.36929038 255 255 255
19931.484 665.66101 18.274408 255 255 255
880.11652 -232.70456 0.94053388 255 255 255
-2115.0354 -1261.2504 -3.9440892 255 255 255
-11936.44 832.64471 -11.253778 255 255 255
1947.5144 265.97797 1.7291595 255 255 255
8188.6035 1093.8447 5.6433296 255 255 255
1094.4321 173.79437 1.4905773 255 255 255
3365.4243 404.19434 3.7132051 255 255 255
19616.553 666.6062 17.990723 255 255 255
13584.267 852.08997 12.452928 255 255 255
3806.5088 146.70601 6.2061663 255 255 255
19876.34 670.40851 18.180166 255 255 255
3391.3367 265.57776 2.4773152 255 255 255
69344.312 519.98285 64.46656 255 255 255
-42.657501 619.60669 -0.4591091 255 255 255
-5047.8647 639.51654 -5.8064141 255 255 255
8770.4619 684.98285 7.8714371 255 255 255
1427.7827 642.59283 1.836411 255 255 255
-16434.186 1004.2499 -13.708693 255 255 255
3592.6821 405.30475 3.9779952 255 255 255
6470.3872 680.04071 5.7565942 255 255 255
5000.751 674.42242 4.3955255 255 255 255
3207.9802 266.20923 4.2564325 255 255 255
17576.447 394.23303 19.618032 255 255 255
2174.9451 87.149338 3.7789984 255 255 255
3216.2244 262.26944 4.2925038 255 255 255
-63479.559 968.00134 -59.232227 255 255 255
4313.7363 418.28314 4.7573719 255 255 255
3094.6096 194.45207 4.5932918 255 255 255
6856.5264 465.30984 7.3436589 255 255 255
-891.22235 332.56592 -1.9382915 255 255 255
-6195.5166 888.53845 -5.9076319 255 255 255
4278.6919 438.99463 4.6082273 255 255 255
1667.7493 -396.01834 1.5537184 255 255 255
-90337.055 6382.5088 -71.9804 255 255 255
839.13684 42.832146 1.3875957 255 255 255
20190.473 670.6344 18.447962 255 255 255
-49804.801 927.76831 -46.290848 255 255 255
15248.734 667.53015 13.953204 255 255 255
-17163.746 290.67499 -29.731066 255 255 255
-5200.0273 1492.1002 -10.028157 255 255 255
9166.5264 676.78931 8.3124895 255 255 255
2983.575 643.92694 2.5643766 255 255 255
-14288.706 271.35489 -24.832472 255 255 255
8501.0693 398.06061 9.7449694 255 255 255
-12340.639 825.90503 -11.679745 255 255 255
-185624.97 1330.9844 -173.30116 255 255 255
-12779.328 824.78552 -12.085622 255 255 255
-7280.2803 864.62689 -6.9227648 255 255 255
826.77136 375.88303 1.2635002 255 255 255
-2270.2534 220.50264 -4.3220906 255 255 255
-2055.1057 303.78476 -4.1904263 255 255 255
4930.2974 673.05035 4.3383336 255 255 255
1615.7415 -446.62408 1.5224714 255 255 255
4899.1816 666.21844 4.3365083 255 255 255
4908.6851 669.69904 4.3239584 255 255 255
19340.9 978.04327 13.646975 255 255 255
70369.75 926.68848 54.583733 255 255 255
2946.7583 675.6629 4.467546 255 255 255
4383.4917 451.16605 4.6650214 255 255 255
-1636.2914 203.48972 -3.3494468 255 255 255
1039.4688 -189.05396 1.0758932 255 255 255
-2295.0823 -103.00955 -2.8510222 255 255 255
9290.2891 681.21588 8.3834267 255 255 255
4665.4966 451.45932 4.9845204 255 255 255
-53123.43 965.36584 -49.378147 255 255 255
-98473.953 -14457.788 -107.0882 255 255 255
4933.7085 179.23283 3.8439927 255 255 255
68.448189 567.7821 -0.51261109 255 255 255
9945.1406 683.02039 8.9809828 255 255 255
-7360.0869 2006.9286 -12.673561 255 255 255
-4407.8862 991.96204 -4.2024055 255 255 255
3878.0232 650.38129 3.4049485 255 255 255
-3395.377 403.74695 -7.070756 255 255 255
-3516.78 679.75409 -4.1064429 255 255 255
5028.5532 464.25531 5.326633 255 255 255
-1107.8551 18.16251 -2.1672893 255 255 255
30553.791 649.59918 28.030872 255 255 255
-2375.6143 -1064.3281 -3.7671573 255 255 255
3192.3184 646.04272 2.7617664 255 255 255
21849.824 37.291458 38.997105 255 255 255
-38.93586 492.19269 -0.44267246 255 255 255
-3161.009 -437.9454 -4.1150179 255 255 255
-4285.73 1009.9599 -4.0793848 255 255 255
-4588.6943 65.585777 -7.9041595 255 255 255
5751.8809 678.29449 5.0923414 255 255 255
-13997.515 832.72766 -13.15603 255 255 255
-64328.188 953.7843 -60.182163 255 255 255
-496.8548 -27.225353 -1.4829493 255 255 255
-33401.473 5472.6279 -59.560429 255 255 255
8799.2207 682.09741 7.9119296 255 255 255
-2809.2256 -1014.5933 -4.0601535 255 255 255
3041.8647 -604.1037 2.8817561 255 255 255
1301.3171 -188.57484 1.1429043 255 255 255
4214.0581 308.6568 6.9788189 255 255 255
2572.5122 397.20099 2.7940462 255 255 255
1079.4144 168.7394 1.7989341 255 255 255
-5283.2812 625.26154 -6.1225352 255 255 255
29413.514 -11139.704 69.508041 255 255 255
-1400.6899 -420.52438 -2.3857524 255 255 255
-160882.02 5003.8271 -147.04358 255 255 255
-2427.1738 -1296.8408 -3.7753398 255 255 255
38456.902 615.97589 35.455036 255 255 255
3625.2876 654.00183 3.1549988 255 255 255
-6818.4565 145.37878 -13.482114 255 255 255
15779.592 426.57394 17.266945 255 255 255
6636.605 674.70068 5.9348373 255 255 255
-13097.49 830.75507 -12.327001 255 255 255
-9438.3682 840.76538 -8.9440107 255 255 255
-3786.8538 601.05878 -4.6246891 255 255 255
-10741.053 627.18127 -12.115731 255 255 255
1643.3623 497.0314 3.0006812 255 255 255
3825.5496 660.52167 3.3275213 255 255 255
24.005785 492.10809 -0.47824645 255 255 255
-4108.1738 576.47815 -5.0660214 255 255 255
6126.4717 672.86499 5.4682541 255 255 255
-11575.573 -2332.1746 -11.869802 255 255 255
2538.1978 1051.2637 3.6054561 255 255 255
370.2099 14.102373 0.28433919 255 255 255
-39056.102 881.50647 -36.640629 255 255 255
5082.9004 561.74554 5.6279283 255 255 255
-2772.0432 801.44324 -6.0846968 255 255 255
4497.8916 669.25092 3.9393864 255 255 255
-3065.7822 454.32535 -5.9493461 255 255 255
36.914036 593.86542 -0.50180537 255 255 255
24606.568 657.06384 22.631901 255 255 255
-1949.2327 -593.13318 -2.9195821 255 255 255
-90315.125 -3409.1814 -71.869453 255 255 255
28.358028 645.24121 -0.48199394 255 255 255
1265.4 -469.39874 1.1129817 255 255 255
-7996.8516 237.96346 -14.078652 255 255 255
3051.1179 800.11108 5.4193482 255 255 255
-3373.4194 442.8035 -4.7892308 255 255 255
7709.4614 56.296989 6.1442666 255 255 255
-1470.4515 -152.39133 -2.2283392 255 255 255
50.694397 298.58426 -0.30637667 255 255 255
-6926.0786 373.61523 -10.220505 255 255 255
-9490.5732 300.99631 -15.388618 255 255 255
1517.3356 -228.4874 1.3450085 255 255 255
-113.54613 412.86386 -0.40378821 255 255 255
5338.3872 -200.96155 9.1840734 255 255 255
3648.2004 651.1676 3.1818156 255 255 255
1167.1735 -202.90456 1.0891801 255 255 255
90.748901 619.98578 -0.53120881 255 255 255
1559.339 -237.95827 1.4437271 255 255 255
-49.578674 612.79779 -0.44353437 255 255 255
-836.7085 326.28128 -1.867787 255 255 255
222553.05 70.308151 206.52672 255 255 255
877.50293 99.503937 1.3141574 255 255 255
3306.7869 648.646 2.8645136 255 255 255
2833.865 -134.3687 4.0091734 255 255 255
10416.396 677.74841 9.4526615 255 255 255
9391.3691 327.34329 6.5795183 255 255 255
663.74384 136.39201 0.9507218 255 255 255
3.3283081 586.08173 -0.48469794 255 255 255
-48630.027 -986.39465 -53.765648 255 255 255
934.32184 125.43584 1.0852553 255 255 255
-144.53537 500.2558 -0.41905478 255 255 255
-62647.461 -1396.5585 -50.290703 255 255 255
1019.7822 -141.04973 0.95959938 255 255 255
-817.71075 178.99957 -1.9223723 255 255 255
15048.295 -316.51578 26.144075 255 255 255
33.772209 518.51782 -0.4892979 255 255 255
35348.848 -6790.6396 38.452183 255 255 255
704.8905 -153.56349 0.5912295 255 255 255
-132.0004 499.52267 -0.41198319 255 255 255
152612.14 17714.621 129.97369 255 255 255
1194.9542 -312.47687 1.0648026 255 255 255
-2904.5576 -1232.6771 -4.1000142 255 255 255
29712.791 2558.8379 23.822533 255 255 255
-1272.6571 -277.78369 -2.1838431 255 255 255
1248.5549 -400.2345 1.2416575 255 255 255
93.736168 14.362639 0.17295976 255 255 255
-11770.994 -2280.2539 -11.964827 255 255 255
1227.1777 -342.17499 1.1539447 255 255 255
3853.2976 297.97635 6.3467994 255 255 255
-51.145065 627.61584 -0.46405488 255 255 255
-2475.7991 -1265.759 -3.9270692 255 255 255
479.76709 145.10516 0.7390492 255 255 255
3215.9094 262.50204 4.2925234 255 255 255
26861.119 344.92651 29.857662 255 255 255
4014.5598 461.55502 4.2091641 255 255 255
4380.1289 334.30347 4.9336076 255 255 255
-8238.5254 693.72046 -7.900425 255 255 255
12536.867 683.20337 11.364885 255 255 255
8845.874 684.95605 7.9572182 255 255 255
70869.578 933.96356 54.9828 255 255 255
-16242.801 827.27637 -15.328502 255 255 255
-6496.1758 984.763 -12.818409 255 255 255
157989.7 -11946.031 183.73154 255 255 255
117291.79 373.92606 109.09266 255 255 255
920.94867 -107.35287 0.82087165 255 255 255
-11091.344 834.39496 -10.472786 255 255 255
-631.98895 242.05699 -1.7106919 255 255 255
-25694.199 841.26416 -24.12747 255 255 255
2.1443052 343.99017 -0.39229876 255 255 255
31043.043 4148.6709 26.365433 255 255 255
-7252.8032 865.8717 -6.8950987 255 255 255
-11578.845 831.27051 -10.929294 255 255 255
-18666.188 831.03723 -17.588839 255 255 255
-1917.4856 357.85382 -3.8557928 255 255 255
-5135.292 500.00549 -5.0726514 255 255 255
-1854.6448 422.03729 -3.8752208 255 255 255
4194.3501 333.28894 6.9360061 255 255 255
5357.146 675.57721 4.7251019 255 255 255
-148488.97 1207.5858 -138.1237 255 255 255
123.65736 -34.959072 0.12274913 255 255 255
83.359161 694.5636 -0.53071618 255 255 255
4671.9287 779.40094 7.0273447 255 255 255
-7494.167 859.96936 -7.1261287 255 255 255
-6317.269 879.53528 -6.0371389 255 255 255
-12870.419 -213.22169 -11.090576 255 255 255
-4999.4248 925.89166 -4.8021951 255 255 255
5908.46 675.87604 5.2467136 255 255 255
49523.652 155.55304 57.950829 255 255 255
-6138.0361 888.50696 -5.8546815 255 255 255
-1210.5819 414.85709 -2.9544392 255 255 255
15727.94 680.84467 14.322873 255 255 255
25054.342 655.83716 23.077509 255 255 255
4079.8801 -870.27435 3.7142987 255 255 255
2822.6863 385.40512 3.0958459 255 255 255
5830.0073 698.83868 6.445179 255 255 255
10634.597 676.47333 9.6559277 255 255 255
21420.984 37.113472 38.283077 255 255 255
20170.869 674.3877 18.432245 255 255 255
-13891.729 843.82269 -12.952474 255 255 255
-5373.7217 912.19312 -5.1402535 255 255 255
43296.586 3965.9712 33.129955 255 255 255
7393.8135 681.01129 6.6147461 255 255 255
1512.1946 94.820557 2.492372 255 255 255
-1797.1202 292.6651 -3.2666724 255 255 255
3223.3132 185.27896 3.4273527 255 255 255
900.82495 99.662895 1.3556709 255 255 255
5544.6978 789.20947 9.3837337 255 255 255
23442.602 386.78528 25.718172 255 255 255
1086.4833 104.07243 1.6779735 255 255 255
-178762.52 1602.7517 -198.08762 255 255 255
964.8819 -31.010492 0.9515267 255 255 255
-6254.002 884.33936 -5.9633107 255 255 255
39762.477 -1197.4642 35.389984 255 255 255
16333.538 678.31195 14.881161 255 255 255
-20790.053 275.19415 -16.703999 255 255 255
-1724.1495 -611.56824 -2.8147941 255 255 255
52501.043 219.79831 57.777939 255 255 255
-9928.0244 838.65436 -9.3891144 255 255 255
5388.2915 462.30402 5.7289591 255 255 255
58588.449 87.93058 68.625389 255 255 255
2929.7332 376.24457 3.0282352 255 255 255
6149.0947 675.54932 5.4752769 255 255 255
956.04938 80.513313 1.4971186 255 255 255
4288.4272 667.05835 3.7482541 255 255 255
-1311.4667 -202.28009 -2.1099749 255 255 255
8532.3779 1095.1379 5.945847 255 255 255
3418.137 405.69293 3.7730944 255 255 255
-66006.359 965.80353 -61.733685 255 255 255
-2024.262 -720.54987 -3.090924 255 255 255
1790.066 577.38611 1.6682522 255 255 255
-3978.605 580.66522 -4.9117861 255 255 255
-1124.0137 224.6136 -2.4569907 255 255 255
-41.253929 271.25925 -0.44392708 255 255 255
7886.2715 684.69818 7.0576019 255 255 255
654.02734 -171.20549 0.58987439 255 255 255
-109.99847 307.82782 -0.3049154 255 255 255
10957.344 672.30743 9.9959326 255 255 255
6457.21 667.6048 5.800848 255 255 255
52.013546 297.90814 -0.3087264 255 255 255
4398.4922 406.90546 4.9211712 255 255 255
-1252.601 220.15399 -2.6689031 255 255 255
-13035.838 222.06773 -12.47591 255 255 255
14123.466 1364.7225 10.960583 255 255 255
-13185.38 638.35205 -14.832044 255 255 255
-3382.1736 692.29327 -3.9408066 255 255 255
124481.08 5794.4951 142.38672 255 255 255
7227.3989 401.44836 8.2467136 255 255 255
-31979.393 860.93231 -29.951437 255 255 255
-7264.1167 863.43713 -6.9102702 255 255 255
-31.734947 445.9519 -0.43501616 255 255 255
38557.762 622.90826 35.544159 255 255 255
6141.6772 679.45001 5.4495211 255 255 255
57650.258 -930.09332 52.665646 255 255 255
-15502.062 834.06232 -14.5587 255 255 255
7006.7441 80.81971 5.6312175 255 255 255
1551.7363 -132.73822 2.5856745 255 255 255
33.186993 543.14264 -0.53546345 255 255 255
44283.934 609.27655 40.857506 255 255 255
-7206.5737 864.22424 -6.8593245 255 255 255
1930.6858 448.51837 3.5679936 255 255 255
63839.668 540.21198 58.946072 255 255 255
-2440.979 381.25531 -3.8422911 255 255 255
-4001.6775 576.54913 -4.9467978 255 255 255
-15046.702 1241.0114 -11.766795 255 255 255
-1581.795 315.32684 -2.8878756 255 255 255
-8064.1064 848.94415 -7.6864004 255 255 255
-6592.8979 876.70331 -6.2826452 255 255 255
40174.879 275.14474 44.314899 255 255 255
-7735.4165 858.05084 -7.3458886 255 255 255
6744.6772 460.92972 7.2425785 255 255 255
-12002.352 828.00549 -11.329631 255 255 255
-49463.812 916.10132 -45.979443 255 255 255
-2356.1082 -969.22321 -3.5864482 255 255 255
-34.508884 394.84555 -0.29473466 255 255 255
11092.1 686.80603 10.024417 255 255 255
5468.3071 84.479874 10.010584 255 255 255
-16476.975 835.15009 -15.456743 255 255 255
-62806.004 956.73724 -58.609386 255 255 255
-4769.5269 -449.92923 -5.2926607 255 255 255
19659.967 674.94458 17.968931 255 255 255
-7822.9585 558.27881 -9.4370251 255 255 255
1656.4733 -388.62958 1.5815407 255 255 255
-11368.352 833.06665 -10.731125 255 255 255
-14212.749 1091.1311 -16.910976 255 255 255
-2811.9829 -1220.9076 -4.3315368 255 255 255
-37860.512 885.09888 -35.516266 255 255 255
6047.5747 -1421.1614 12.543686 255 255 255
-6300.5527 882.92804 -6.009656 255 255 255
-6667.7378 868.51324 -6.3739924 255 255 255
-1184.973 -167.40926 -2.0509338 255 255 255
21688.578 38.857082 38.707592 255 255 255
3946.2041 460.75507 4.1324878 255 255 255
8290.583 684.28107 7.4346724 255 255 255
-5075.6475 563.55328 -6.21843 255 255 255
50619.215 1069.7125 38.530674 255 255 255
-120.03123 305.4379 -0.29035446 255 255 255
-7397.5503 862.69739 -7.0316839 255 255 255
-20.386438 406.77548 -0.35987177 255 255 255
-38733.055 879.63184 -36.236752 255 255 255
-5441.8154 906.98767 -5.2130265 255 255 255
-22987.223 -12543.333 -36.917397 255 255 255
-12806.354 826.98376 -12.109756 255 255 255
-46143.062 907.4563 -42.964684 255 255 255
8636.6309 672.18781 7.8259711 255 255 255
-5189.5562 534.81793 -10.722874 255 255 255
18174.178 -2404.8875 17.896439 255 255 255
1377.165 -469.98752 1.4088106 255 255 255
993.89392 -133.66211 0.82948387 255 255 255
6747.1138 679.55725 6.0336237 255 255 255
1481.6088 -367.05746 1.4382455 255 255 255
-16739.246 1272.3826 -12.987413 255 255 255
-4082.5071 579.07538 -5.0337567 255 255 255
-19956.555 -7808.334 -29.072645 255 255 255
9798.6768 53.765259 18.735764 255 255 255
-22502.58 843.88617 -21.123837 255 255 255
-783.28119 334.4256 -1.8052788 255 255 255
33110.562 -1326.4781 53.402691 255 255 255
-2075.0977 -318.89581 -3.129966 255 255 255
4335.9375 417.12003 4.7917943 255 255 255
2853.7588 -82.262222 4.4371238 255 255 255
8696.4834 677.97284 7.8427806 255 255 255
-133668.72 1338.8271 -148.38492 255 255 255
620.78503 -196.8105 0.60259938 255 255 255
-6441.0938 878.95886 -6.1431203 255 255 255
5239.1621 672.84729 4.6277113 255 255 255
-11918.916 833.34515 -11.237456 255 255 255
-1917.1039 -561.39838 -2.837244 255 255 255
1589.4766 -246.21805 1.6583465 255 255 255
8466.5107 1086.7051 5.7941351 255 255 255
46.672874 439.66879 -0.5588336 255 255 255
15375.521 -33.522598 12.734918 255 255 255
14789.686 377.27399 16.963753 255 255 255
6648.3398 676.20349 5.9455652 255 255 255
-4167.3911 1016.9545 -3.9782629 255 255 255
4099.8506 330.62341 4.6134958 255 255 255
46357.461 256.07336 51.193691 255 255 255
-26653.768 848.68726 -24.992111 255 255 255
1812.0223 -237.70604 1.889383 255 255 255
16415.408 422.59131 17.939192 255 255 255
31611.764 638.80219 29.055735 255 255 255
-1696.5999 295.1286 -3.6012731 255 255 255
-43712.578 923.69495 -40.652927 255 255 255
4801.7441 674.05505 4.2116461 255 255 255
-1959.6906 -970.09869 -3.2487528 255 255 255
-17172.811 1401.6289 -13.2151 255 255 255
-14166.596 592.55005 -16.739649 255 255 255
-6186.0361 886.56543 -5.8987451 255 255 255
148.12781 582.66968 -0.53050482 255 255 255
33667.297 639.42773 30.904579 255 255 255
4906.4722 582.56458 4.2682118 255 255 255
1225.2401 133.58325 1.8354855 255 255 255
17987.01 674.42206 16.408642 255 255 255
-18596.162 839.54395 -17.420835 255 255 255
39.198551 235.30009 -0.20074239 255 255 255
9160.8359 3657.7366 14.172352 255 255 255
13913.985 673.16748 12.731386 255 255 255
-5090.1108 931.07581 -4.8636265 255 255 255
-16934.158 1272.0374 -13.134157 255 255 255
-15790.438 847.01666 -14.696387 255 255 255
-150.14674 385.65115 -0.43053392 255 255 255
-32308.074 862.09534 -30.107008 255 255 255
-16787.344 834.06897 -15.745151 255 255 255
3075.0811 402.42908 3.376792 255 255 255
-1996.8562 -209.56436 -3.4162028 255 255 255
-13074.441 831.54883 -12.306174 255 255 255
-552.52545 -60.982529 -1.5839658 255 255 255
-14552.461 832.0011 -13.696627 255 255 255
-2675.5056 193.6972 -5.1747808 255 255 255
-200069.08 1416.0696 -186.79037 255 255 255
-6996.3843 863.46075 -6.6784325 255 255 255
-4943.314 942.26575 -4.7212877 255 255 255
-11317.191 601.78406 -13.142869 255 255 255
27257.564 650.52289 24.986801 255 255 255
-8646.1787 -353.73361 -16.030668 255 255 255
59.468884 222.02638 -0.14869535 255 255 255
7075.79 402.33737 8.0676241 255 255 255
7356.5708 684.29498 6.568532 255 255 255
8978.2803 122.51295 7.3353534 255 255 255
-4214.7632 1026.3947 -4.0024204 255 255 255
-99163.992 1072.842 -92.377129 255 255 255
7238.9292 672.13818 6.507792 255 255 255
51.098598 391.26608 -0.46453241 255 255 255
58335.285 554.21716 53.894669 255 255 255
-4284.8145 1009.4659 -4.0797338 255 255 255
16595.254 671.22046 15.196939 255 255 255
2299.3152 305.17899 2.5096157 255 255 255
-2185.7771 150.88036 -4.563004 255 255 255
-15652.274 1815.6135 -14.045004 255 255 255
553.73633 78.448418 0.83246279 255 255 255
-28818.062 860.37689 -26.889135 255 255 255
8470.04 671.29932 7.6697812 255 255 255
-946.15778 266.57443 -2.1072998 255 255 255
1191.5553 -236.2054 2.4581695 255 255 255
6464.2065 676.71576 5.764945 255 255 255
10593.425 1082.8722 7.5657606 255 255 255
6401.9453 69.733238 12.023914 255 255 255
-1618.7002 -388.74472 -2.8631604 255 255 255
-1776.9403 237.8499 -3.4432993 255 255 255
3139.0886 89.550346 5.5887556 255 255 255
-5433.8926 905.99615 -5.2105007 255 255 255
21783.975 1057.7332 16.562843 255 255 255
-4943.4995 230.56055 -8.8137255 255 255 255
4314.7837 418.02457 4.756876 255 255 255
-12648.616 173.69312 -24.606279 255 255 255
1379.9387 -252.91988 1.2499757 255 255 255
6481.1577 681.44818 5.7659616 255 255 255
-48.760563 512.89697 -0.44896832 255 255 255
1343.0793 -465.15656 1.2668371 255 255 255
4426.9272 405.04877 4.9708328 255 255 255
-1446.2987 -509.45383 -2.4191763 255 255 255
-4953.9731 583.57416 -5.9667802 255 255 255
5985.8384 143.84688 9.8794479 255 255 255
5598.2456 674.66107 4.961617 255 255 255
28616.002 639.81305 26.478109 255 255 255
12.498424 366.81436 -0.70588773 255 255 255
-5501.064 276.23236 -9.1851234 255 255 255
-1883.549 -248.81796 -3.5374072 255 255 255
-1356.6586 -217.89844 -2.2258167 255 255 255
-11681.776 579.79248 -13.847345 255 255 255
11947.182 984.54407 9.1262474 255 255 255
1315.1376 -378.29166 1.2830983 255 255 255
-2568.6584 -1269.7665 -4.0291958 255 255 255
-3788.5415 600.94995 -4.6267509 255 255 255
2014.2489 354.50894 2.8446226 255 255 255
186776.14 161.12204 173.62788 255 255 255
-8710.8311 610.06213 -10.484093 255 255 255
1794.5035 183.22284 2.5877991 255 255 255
-110340.85 28040.119 -148.63026 255 255 255
3215.9456 457.12576 3.3312593 255 255 255
-2192.6357 -189.97783 -3.9430342 255 255 255
-1673.0969 -456.37943 -2.5941913 255 255 255
17326.764 528.84937 12.86786 255 255 255
3247.5703 1310.5361 5.2223034 255 255 255
10650.785 -3874.2983 15.96071 255 255 255
2727.1575 189.77145 4.0463605 255 255 255
-16409.289 1002.44 -13.691535 255 255 255
50.195004 509.33658 -0.49435529 255 255 255
-14092.213 267.50705 -24.581102 255 255 255
-1686.3821 -699.36945 -2.8215377 255 255 255
-80.841042 296.18893 -0.2994352 255 255 255
5068.2734 672.77075 4.4725614 255 255 255
-15379.46 -262.12561 -17.953665 255 255 255
-2512.5957 387.36438 -3.9092615 255 255 255
-31161.406 282.69553 -58.291283 255 255 255
-5716.0986 631.2533 -6.54564 255 255 255
1141.8049 -182.00557 1.0417384 255 255 255
1709.3124 -34.065907 3.0387304 255 255 255
13460.188 110.27141 22.427521 255 255 255
3780.8206 148.28133 6.1640358 255 255 255
-3373.4565 443.30313 -4.7890191 255 255 255
-5094.9663 560.96332 -6.2474165 255 255 255
1647.7048 -466.40314 1.517946 255 255 255
-35.706215 363.83252 -0.66308177 255 255 255
3896.895 267.53705 2.9255416 255 255 255
2803.3733 388.33267 3.0681381 255 255 255
-1206.0803 -157.62518 -2.032249 255 255 255
12133.866 504.1358 20.556757 255 255 255
-18954.088 1516.3672 -21.034504 255 255 255
877.36688 -169.34265 0.7968148 255 255 255
5142.6963 549.61017 8.4967289 255 255 255
-3802.9331 -206.12408 -4.082015 255 255 255
-79.561447 266.25259 -0.38428792 255 255 255
1499.3879 -196.29822 1.3666273 255 255 255
3274.7622 421.95874 3.5317798 255 255 255
-2037.9364 -157.50897 -2.6879997 255 255 255
-36533.719 881.54352 -34.166988 255 255 255
6046.1641 -981.14612 7.5828519 255 255 255
4080.9836 403.4592 4.5678182 255 255 255
-2101.3926 -57.759697 -2.657824 255 255 255
-124.88682 340.49435 -0.61541247 255 255 255
1278.5353 -283.86148 1.1622672 255 255 255
-1004.546 415.2337 -2.459408 255 255 255
-4996.7144 565.27325 -6.1156378 255 255 255
3346.0923 458.7955 3.4703755 255 255 255
-61852.949 953.20203 -57.524715 255 255 255
-1573.6307 325.58762 -2.8480453 255 255 255
-20349.002 1240.8297 -15.631182 255 255 255
-3272.3147 -642.81427 -5.4103785 255 255 255
-32.994743 430.88016 -0.31791782 255 255 255
3008.8315 645.21338 2.5874588 255 255 255
-1467.8109 -84.18499 -2.7501678 255 255 255
3343.4075 321.19156 3.7333364 255 255 255
2918.397 639.05408 2.5135784 255 255 255
138.28752 669.07703 -0.54487669 255 255 255
-2214.48 400.79269 -3.4765053 255 255 255
-7121.5889 578.77991 -6.0015969 255 255 255
-90675.539 1071.1274 -100.81307 255 255 255
-2898.6934 642.59595 -3.5879784 255 255 255
-5332.3486 277.41672 -8.894763 255 255 255
47.241081 531.86182 -0.49899548 255 255 255
-1244.8483 220.75525 -2.6559024 255 255 255
32516.836 -618.10797 27.254257 255 255 255
4496.2183 -682.34576 3.9641387 255 255 255
-2775.0879 196.43904 -5.3324003 255 255 255
1279.3322 -462.64056 1.1905285 255 255 255
627.19531 122.51388 0.89796597 255 255 255
7022.7158 693.94464 6.325686 255 255 255
4084.6472 201.47705 3.080555 255 255 255
19721.285 405.17413 21.638733 255 255 255
-1574.3959 -471.29517 -2.5727241 255 255 255
-3547.042 -846.0658 -5.1158094 255 255 255
1271.7506 -180.68913 1.1407461 255 255 255
49235.336 -113.29649 80.391731 255 255 255
-96.493011 456.84286 -0.41985118 255 255 255
1193.3442 205.97707 2.0109684 255 255 255
3239.3574 648.22247 2.7976859 255 255 255
-1203.9543 -17.595913 -1.943141 255 255 255
-5475.0137 911.80334 -5.2298446 255 255 255
1110.2751 212.77884 2.0475655 255 255 255
2859.2446 314.31647 3.1610062 255 255 255
-2911.1306 -1238.4541 -4.2170763 255 255 255
1863.0983 108.40287 3.0780854 255 255 255
833.31592 127.79738 1.1782184 255 255 255
13063.106 -2920.812 10.726444 255 255 255
5033.4746 463.44119 5.3334332 255 255 255
11859.093 673.49646 10.833161 255 255 255
3535.762 437.36716 6.1433883 255 255 255
8186.8403 1095.3531 5.6413455 255 255 255
-4350.0781 220.28384 -7.8748889 255 255 255
-1216.3228 359.06531 -2.3041193 255 255 255
6313.771 1111.9941 9.184473 255 255 255
-186455.94 1244.7026 -143.31274 255 255 255
-14477.748 592.77557 -17.094454 255 255 255
3513.9949 819.22626 2.4917395 255 255 255
6190.6504 787.59534 4.4592414 255 255 255
11.096138 564.28467 -0.4910087 255 255 255
-1769.105 -422.86749 -2.6442468 255 255 255
64.323341 373.57568 -0.44674808 255 255 255
6.6320481 651.87787 -0.45340708 255 255 255
21.083033 226.73438 -0.2092194 255 255 255
-297590.38 2421.1663 -350.28314 255 255 255
814.09863 62.927593 1.1248374 255 255 255
-48.635792 603.74744 -0.47933033 255 255 255
17161.107 177.18431 24.282852 255 255 255
-3110.062 627.14087 -3.837347 255 255 255
1417.572 -333.16916 1.2503957 255 255 255
1535.6571 -145.3983 1.832153 255 255 255
2251.4219 -480.07251 2.1024244 255 255 255
-3180.5029 377.00272 -4.8598261 255 255 255
2185.5891 258.00806 2.8423359 255 255 255
-3047.4731 -1299.4203 -4.319098 255 255 255
-5325.8003 633.83588 -6.1293573 255 255 255
3522.3247 472.5665 5.8602991 255 255 255
172339.92 166.51793 160.61789 255 255 255
-39.643406 613.28845 -0.45940521 255 255 255
15445.469 677.25024 14.13238 255 255 255
3830.1804 426.04865 6.4128537 255 255 255
4225.7129 69.001167 3.9740212 255 255 255
1344.797 106.09975 2.1415315 255 255 255
44066.215 -2080.7639 36.851543 255 255 255
-2118.3521 -598.14008 -3.2681198 255 255 255
1635.9186 -712.43097 1.8628268 255 255 255
-1232.4983 -182.18791 -2.0895519 255 255 255
-3557.4143 -1464.2854 -5.1279449 255 255 255
2400.9102 -413.12747 2.2488697 255 255 255
105.00762 502.81522 -0.53152245 255 255 255
3425.033 -211.79811 5.8037372 255 255 255
-16874.219 417.5159 -18.882177 255 255 255
-9526.4414 305.9527 -15.4402 255 255 255
-5146.0132 943.33905 -6.1736937 255 255 255
4874.3662 668.95709 4.298429 255 255 255
-45.2239 430.31836 -0.50110257 255 255 255
-575293.75 2552.937 -534.23376 255 255 255
1918.8329 483.19153 1.3074985 255 255 255
52.993504 546.1416 -0.4837662 255 255 255
2148.2512 -726.534 1.9531592 255 255 255
49.581356 604.27289 -0.49193391 255 255 255
10412.955 675.10455 9.4538956 255 255 255
1838.4917 -270.95441 1.6490707 255 255 255
-3406.7695 -1151.533 -4.5657244 255 255 255
2358.2412 -1088.9601 2.3461339 255 255 255
300.76761 137.10173 0.46913773 255 255 255
-168.8306 482.19183 -0.40494376 255 255 255
-1333.1251 202.73663 -2.8523412 255 255 255
2590.9116 73.568932 4.0100732 255 255 255
-7.3104329 659.77655 -0.48479363 255 255 255
-3087.468 -1444.8716 -4.754055 255 255 255
485.48755 -171.44673 0.47876957 255 255 255
3859.2146 414.86847 4.2470741 255 255 255
1117.1976 44.141724 1.4002221 255 255 255
2829.4844 -133.56857 4.0014777 255 255 255
1432.4017 -466.92761 1.583407 255 255 255
-3503.6299 159.71036 -7.1828523 255 255 255
1106.8214 51.47089 1.2053483 255 255 255
11163.862 -1984.047 9.6696196 255 255 255
16616.209 -178.0723 18.538454 255 255 255
20.958776 336.56824 -0.7180717 255 255 255
-3690.7661 2.8895478 -5.7006879 255 255 255
-36462.879 735.55817 -42.536537 255 255 255
500.52933 -61.979294 0.41358212 255 255 255
634.13568 -220.42238 0.70186615 255 255 255
4386.2725 451.87689 4.6678891 255 255 255
-37.140583 345.66592 -0.38853085 255 255 255
3913.8113 2045.3717 6.3376393 255 255 255
1412.2515 -516.90997 1.6679903 255 255 255
-10228.266 1064.006 -9.5486498 255 255 255
1418.2651 18.40317 2.6587014 255 255 255
635.47607 85.984749 0.90944362 255 255 255
125100.01 -236.80397 139.92754 255 255 255
-17.585648 309.88147 -0.65565032 255 255 255
-7024.6792 374.54916 -10.36358 255 255 255
137.57797 565.92297 -0.54509807 255 255 255
1804.8597 -329.29999 2.2903595 255 255 255
4230.2075 140.98964 7.0748954 255 255 255
-38364.977 771.3678 -43.148796 255 255 255
20454.656 883.69562 34.432583 255 255 255
-1635.7506 -529.46094 -2.6812568 255 255 255
814.80975 -172.47154 0.73561609 255 255 255
45.283169 304.36264 -0.33030146 255 255 255
-7481.874 239.55054 -13.142848 255 255 255
-1045.4742 65.792923 -2.0263786 255 255 255
14686.886 -304.2291 25.50679 255 255 255
-27420.578 3986.7893 -30.49906 255 255 255
-3271.9126 696.22388 -3.8270688 255 255 255
-20.93276 589.59814 -0.47702295 255 255 255
1831.7126 95.429474 1.3896316 255 255 255
1592.1102 -9.8276548 2.5101364 255 255 255
1700.3644 -471.1579 1.7938284 255 255 255
3609.6206 278.36911 2.6901295 255 255 255
-39.611279 490.64517 -0.44217655 255 255 255
545.27484 179.52403 0.80024296 255 255 255
-6952.5425 145.80928 -13.745664 255 255 255
-7897.6665 223.62695 -14.169503 255 255 255
13856.368 387.35303 15.827799 255 255 255
10387.951 -1013.9328 9.0537491 255 255 255
-27398.223 404.29279 -44.263531 255 255 255
102.04635 560.44568 -0.52087796 255 255 255
740.44788 26.475283 0.56029779 255 255 255
8293.8184 -1305.9585 14.737845 255 255 255
3754.9316 651.19135 3.2883272 255 255 255
1179.3704 -389.03409 1.1253221 255 255 255
156.44698 541.80231 -0.54937178 255 255 255
4017.6475 189.28094 6.0921111 255 255 255
-16315.132 1083.4193 -15.209074 255 255 255
307.81204 -113.06384 0.32045028 255 255 255
77.022453 594.84784 -0.50178248 255 255 255
1430.6743 120.52296 2.5486963 255 255 255
-1029.1174 414.94919 -2.6528802 255 255 255
3204.9202 265.82666 4.2528882 255 255 255
-12847.526 -5561.208 -18.612629 255 255 255
14317.837 199.78908 20.210636 255 255 255
34.427475 592.22687 -0.49392971 255 255 255
1205.825 -140.70517 1.0874261 255 255 255
-4081.9751 268.74326 -6.9332867 255 255 255
9925.541 681.52216 8.9621162 255 255 255
-236768.27 1490.2843 -217.46812 255 255 255
-6769.144 145.88359 -13.38555 255 255 255
8852.6963 846.49084 6.2215805 255 255 255
3243.3259 637.86554 2.8294208 255 255 255
-15094.448 -4988.8682 -26.974295 255 255 255
72.131386 473.40189 -0.49444544 255 255 255
-1416.1562 19.844627 -2.3053105 255 255 255
-5122.1992 635.21924 -5.903183 255 255 255
1115.969 -203.10667 0.99662584 255 255 255
9206.5312 112.23052 11.52855 255 255 255
-9205.3262 383.54727 -16.559502 255 255 255
12881.637 638.63519 14.609957 255 255 255
1943.4482 398.03421 2.0341401 255 255 255
3396.7024 -232.55576 2.6162119 255 255 255
1701.9818 -343.02029 1.6800534 255 255 255
1010.7853 -239.43256 0.94100684 255 255 255
-3694.3992 439.37283 -5.2108965 255 255 255
16949.393 320.41409 12.295714 255 255 255
-4058.1025 431.50394 -5.7210269 255 255 255
360.63925 -3.292238 0.25726223 255 255 255
-2341.0386 107.73507 -4.3024473 255 255 255
9332.6787 509.88638 14.566014 255 255 255
25.01339 628.97504 -0.488157 255 255 255
59681.934 551.96252 55.340626 255 255 255
2012.733 399.91718 2.1144662 255 255 255
3333.6567 459.56516 3.4553246 255 255 255
1970.265 162.43613 2.9817801 255 255 255
1411.2205 -313.00238 1.7560476 255 255 255
-17.01292 180.91095 -0.81499791 255 255 255
-6920.6914 374.39612 -10.21287 255 255 255
19570.09 672.28101 17.883389 255 255 255
-1796.3722 292.71375 -3.2659001 255 255 255
-7032.457 867.88208 -6.6919456 255 255 255
9530.0186 1477.4188 17.190487 255 255 255
4747.4614 407.42883 5.3317714 255 255 255
-6133.436 888.76434 -5.8511944 255 255 255
-5272.186 623.6922 -6.1108823 255 255 255
2901.9097 12.651696 4.0838475 255 255 255
3648.8347 459.12027 3.8086329 255 255 255
37.621132 526.70386 -0.4891246 255 255 255
1797.613 -17.661184 3.0851221 255 255 255
1165.4801 -194.22769 1.0012653 255 255 255
-1702.3092 -878.27258 -2.9910314 255 255 255
39147.395 624.71979 36.108524 255 255 255
7313.8716 678.32709 6.5547829 255 255 255
40980.391 279.29669 45.221561 255 255 255
-5458.0747 911.11646 -5.216671 255 255 255
3522.8127 286.8107 5.8080902 255 255 255
63669.641 55054.309 105.13623 255 255 255
2206.1616 339.70447 2.3897102 255 255 255
-199738.66 1444.0144 -186.43694 255 255 255
-45723.488 913.71765 -42.584015 255 255 255
-4590.7529 974.00171 -4.3786197 255 255 255
39823.688 610.64337 36.634712 255 255 255
-6587.4346 877.55701 -6.2775383 255 255 255
2314.2183 298.90353 2.5230825 255 255 255
-6441.7285 878.84637 -6.1418576 255 255 255
1351.7015 -143.84528 1.3829799 255 255 255
-2538.0952 388.92841 -3.9400578 255 255 255
15733.086 677.32043 14.328886 255 255 255
-2906.5239 -351.10953 -4.7425156 255 255 255
3218.1096 457.80688 3.3326769 255 255 255
-1324.7655 256.92902 -2.6785476 255 255 255
1578.1038 -551.82605 1.5207059 255 255 255
8.5140228 438.15067 -0.45172092 255 255 255
17873.381 669.60449 16.303984 255 255 255
164170.52 176.11397 152.97914 255 255 255
-4134.4717 1056.1494 -3.90927 255 255 255
-13360.992 -3181.0859 -16.762484 255 255 255
3191.4368 645.96814 2.7608604 255 255 255
790.46417 122.3204 1.1161816 255 255 255
60303.656 83.285469 70.661903 255 255 255
8384.2979 397.78622 9.6202335 255 255 255
4151.3228 -433.41757 3.8323576 255 255 255
679.63068 311.73306 1.0853732 255 255 255
-2514.2383 388.51331 -3.910248 255 255 255
7282.5273 400.50055 8.3146305 255 255 255
-69205.992 -142.84909 -54.680546 255 255 255
22748.779 75.27729 36.132034 255 255 255
-1157.5485 130.34683 -3.844255 255 255 255
-4112.1191 1068.9149 -3.8828673 255 255 255
-11687.415 580.48187 -13.831545 255 255 255
-4025.7632 178.33954 -7.7472606 255 255 255
27368.547 652.85681 25.08659 255 255 255
-2641.293 -1133.6022 -3.8592691 255 255 255
-18500.66 837.83002 -17.340372 255 255 255
10598.631 1080.9615 7.5703635 255 255 255
8757.001 -545.72693 8.399724 255 255 255
61.537624 562.58557 -0.51005441 255 255 255
1241.8879 104.62148 1.9598542 255 255 255
-35.157711 332.17224 -0.64228082 255 255 255
-5087.5566 930.7843 -4.8618054 255 255 255
-1317.5896 256.66 -2.6687663 255 255 255
-99.230286 286.11868 -0.30398795 255 255 255
-2982.845 -1680.411 -4.8129683 255 255 255
-706.41913 338.43921 -1.983611 255 255 255
894.7608 129.158 1.279609 255 255 255
-16937.85 -1620.3228 -28.812191 255 255 255
-9552.5312 835.38507 -9.0665178 255 255 255
1110.467 -144.8683 0.94630778 255 255 255
7000.8408 671.96063 6.2804713 255 255 255
6729.9102 677.18018 6.0186062 255 255 255
-603139.5 2768.4956 -561.3335 255 255 255
-4285.8286 1010.5212 -4.0799456 255 255 255
11439.005 684.94952 10.345143 255 255 255
-8128.0029 848.79077 -9.1784773 255 255 255
-2188.1467 151.08295 -4.5664201 255 255 255
3847.3848 -792.40027 3.268477 255 255 255
-5441.6162 908.01654 -5.2157984 255 255 255
-16350.088 830.56696 -15.339277 255 255 255
5201.4609 635.35254 9.6929235 255 255 255
-11837.619 832.98279 -11.166907 255 255 255
14008.874 681.03668 12.731654 255 255 255
-7789.459 557.44226 -9.3981314 255 255 255
15859.733 428.40573 17.3055 255 255 255
-25897.729 -7191.418 -43.457317 255 255 255
5697.6416 674.62714 5.0548077 255 255 255
-2222.5398 -72.52494 -3.9223397 255 255 255
5450.457 84.573883 9.9744558 255 255 255
5607.2593 587.77722 8.8132238 255 255 255
1531.1763 570.83417 2.4162359 255 255 255
658.68121 -128.71768 0.62117046 255 255 255
-259771.39 19843.182 -302.53351 255 255 255
-15059.05 1243.7644 -11.775064 255 255 255
5401.1772 462.4841 5.7401066 255 255 255
1089.9946 -321.367 1.0859759 255 255 255
-4210.6753 1025.7522 -3.9999294 255 255 255
1509.4524 94.511505 2.4876423 255 255 255
-5067.8892 562.06885 -6.2076702 255 255 255
-783.29254 334.37137 -1.8052514 255 255 255
-17297.428 829.71387 -16.267319 255 255 255
-7210.6343 863.70618 -6.8630919 255 255 255
-72565.609 1002.3375 -67.508705 255 255 255
-9760.3691 1138.9409 -9.0802355 255 255 255
-6256.8867 885.54266 -5.9652081 255 255 255
90.701691 561.48193 -0.49982908 255 255 255
890.54395 -59.399555 0.7749899 255 255 255
143.98705 667.76172 -0.55096889 255 255 255
1796.4623 342.01074 2.5048106 255 255 255
-15435.244 828.80042 -14.499936 255 255 255
-13115.525 633.27167 -14.747752 255 255 255
1022.9464 -210.41443 1.638127 255 255 255
41103.383 10942.878 62.99419 255 255 255
2389.291 395.91486 2.5791588 255 255 255
-7642.1704 559.43738 -9.2271185 255 255 255
831.94684 -220.74881 0.82210428 255 255 255
-24118.213 849.58472 -22.57584 255 255 255
-2409.9126 -975.09656 -3.4339345 255 255 255
-43044.773 905.52527 -40.05463 255 255 255
-15258.458 1197.1921 -13.897716 255 255 255
47035.711 245.28682 51.947174 255 255 255
-16640.824 -599.27551 -13.43696 255 255 255
12065.702 675.54468 10.99472 255 255 255
-6173.5952 451.4361 -6.0483141 255 255 255
7366.9663 984.21887 5.4914775 255 255 255
8510.7236 677.59192 7.6745234 255 255 255
-100.94074 296.31836 -0.30228165 255 255 255
-147417.69 1138.6632 -237.13594 255 255 255
-4399.9253 976.96393 -4.2211294 255 255 255
410.75949 -114.11204 0.40876234 255 255 255
1439.8809 538.79266 2.2636437 255 255 255
18603.012 498.65244 14.206342 255 255 255
-83.673058 561.263 -0.44943073 255 255 255
20776.564 662.34918 19.040508 255 255 255
-5832.3418 -4707.2417 -9.7338047 255 255 255
9593.5078 1078.9595 6.8267388 255 255 255
43.22681 441.02283 -0.41358688 255 255 255
-56343.969 943.20544 -52.691147 255 255 255
-13658.884 830.51184 -12.855403 255 255 255
86967.938 488.55878 80.226715 255 255 255
-37284.762 1522.0934 -34.524998 255 255 255
-804.20782 227.21721 -1.9710197 255 255 255
25834.037 645.3924 23.759109 255 255 255
22.68395 646.50623 -0.48049289 255 255 255
-1012.6623 199.85202 -2.3422139 255 255 255
10208.353 679.87476 9.2461834 255 255 255
46.786694 545.66736 -0.48170078 255 255 255
-130175.23 1318.5712 -144.50916 255 255 255
7236.3232 400.62097 8.2732716 255 255 255
-14147.174 273.98386 -24.673302 255 255 255
52129.922 131.79991 61.124664 255 255 255
2003.9514 350.34662 2.0073495 255 255 255
634.62573 255.70009 0.98796576 255 255 255
5304.4492 664.2616 4.7226729 255 255 255
-1381.251 254.13383 -2.7728205 255 255 255
2528.6843 -136.79033 3.5177181 255 255 255
1294.8888 -318.95663 1.2574644 255 255 255
-1022.452 201.03827 -2.3556123 255 255 255
-13363.657 830.92035 -12.575076 255 255 255
46202.035 253.15703 50.875877 255 255 255
29.529314 342.85123 -0.39469072 255 255 255
613.82013 -192.32602 0.53177589 255 255 255
-1253.0979 220.64929 -2.6695609 255 255 255
-9392.7852 -132.09984 -8.3320742 255 255 255
2632.9272 -78.603279 2.1388462 255 255 255
1652.7603 145.32729 2.5299473 255 255 255
6539.2881 680.5318 5.814806 255 255 255
-62728.715 949.0257 -58.534676 255 255 255
1988.7295 -687.20245 1.9535358 255 255 255
1962.8723 182.72305 3.7391744 255 255 255
3953.5264 461.51605 4.1401258 255 255 255
32790.883 1709.21 25.497519 255 255 255
2188.8552 308.41437 2.2660296 255 255 255
-36.127541 476.27194 -0.44244316 255 255 255
1788.5144 182.86549 2.5777357 255 255 255
-4014.405 579.73547 -4.9543605 255 255 255
1102.089 -381.60229 1.036487 255 255 255
3207.2322 -1166.9749 3.6632104 255 255 255
-2967.4185 -1272.9758 -4.5401011 255 255 255
43.523941 636.60156 -0.5129509 255 255 255
-93859.695 -23917.693 -153.8284 255 255 255
2562.3628 397.16016 2.7819521 255 255 255
7950.0771 684.6944 7.1113167 255 255 255
7519.0488 682.9895 6.72157 255 255 255
-38592.441 889.2948 -36.095284 255 255 255
6223.9023 766.42303 5.55334 255 255 255
-1430.6565 191.32239 -3.0525701 255 255 255
5552.8652 679.91846 4.9009438 255 255 255
7849.7852 681.96912 7.0210662 255 255 255
3300.6211 641.93726 2.8776267 255 255 255
-17409.668 181.63361 -33.993427 255 255 255
457.80051 -182.35025 0.55246109 255 255 255
4436.3311 406.65469 4.967505 255 255 255
12345.584 1285.8933 9.5156641 255 255 255
9401.0293 681.77362 8.4720736 255 255 255
-85300.531 695.98615 -146.36047 255 255 255
-1308.6562 -463.13547 -2.3369863 255 255 255
-7439.8174 1846.2667 -16.097277 255 255 255
-11660.91 579.62988 -13.8249 255 255 255
-67.610855 559.12231 -0.45476353 255 255 255
50768.281 1066.2782 38.638203 255 255 255
-4120.9248 1050.6185 -3.9042377 255 255 255
2956.8787 380.87912 3.248121 255 255 255
-18512.482 832.3172 -17.450594 255 255 255
363.61234 96.010818 0.5856536 255 255 255
7456.6592 672.03912 6.7133136 255 255 255
2159.5647 393.91412 2.3089507 255 255 255
11894.688 982.56873 9.082778 255 255 255
5759.5723 676.12042 5.1062703 255 255 255
1593.5142 95.788498 2.6404746 255 255 255
8455.9453 1084.6134 5.7886577 255 255 255
4809.9272 674.62018 4.2210317 255 255 255
-5924.7026 2310.6855 -14.849754 255 255 255
9316.8086 314.05258 8.1281834 255 255 255
3352.9319 405.02798 3.6975973 255 255 255
57007.359 -13157.307 54.838165 255 255 255
3455.9707 642.64709 3.0236611 255 255 255
-88.479858 285.44128 -0.34145257 255 255 255
3284.2451 584.62793 2.8274784 255 255 255
2311.4717 -152.50255 2.7693548 255 255 255
-14532.075 2080.3254 -25.943333 255 255 255
-5695.0366 611.85956 -6.6303878 255 255 255
11557.475 582.00574 12.542191 255 255 255
24.564285 637.99591 -0.49890321 255 255 255
-17382.383 1323.8192 -13.418513 255 255 255
15749.941 409.70499 17.42458 255 255 255
3358.3206 304.21118 2.5053368 255 255 255
-1245.7266 220.56161 -2.6579046 255 255 255
-1574.3544 325.56384 -2.8490849 255 255 255
29123.723 2069.1716 22.845373 255 255 255
529.04919 55.20116 0.74080384 255 255 255
3424.9844 343.65649 2.6186318 255 255 255
-24.444601 364.36679 -0.55158752 255 255 255
8390.2822 -1932.5529 8.0827055 255 255 255
85.565071 450.13651 -0.45487392 255 255 255
71071.016 913.74915 55.13345 255 255 255
-1260.2935 -521.38892 -2.3281348 255 255 255
4299.1855 657.74744 3.7862957 255 255 255
399.06131 78.864815 0.64595056 255 255 255
-6504257 -135440.73 -5031.8989 255 255 255
5217.9658 661.1814 4.649395 255 255 255
-3749.7151 -702.20386 -5.7621651 255 255 255
476.72379 145.82709 0.73461676 255 255 255
2133.7031 291.28806 3.2915034 255 255 255
1422.0929 -425.2836 1.395877 255 255 255
1593.1522 -655.11719 1.4890829 255 255 255
-24322.066 638.38245 -22.885496 255 255 255
2153.7686 176.2771 3.2377756 255 255 255
636.69037 85.860542 0.91146463 255 255 255
2472.1892 181.55939 2.5746009 255 255 255
-3370.3064 443.49371 -4.7847667 255 255 255
2335.7544 433.18033 2.4019439 255 255 255
9718.293 684.68616 8.7540703 255 255 255
5034.7134 463.01291 5.3342729 255 255 255
23776.479 655.19476 21.950161 255 255 255
-1827.2758 -230.18596 -3.0111806 255 255 255
2657.4622 420.94684 2.8127165 255 255 255
4493.8447 -927.00702 3.9352565 255 255 255
-1690.3928 -903.44153 -3.0047054 255 255 255
1564.4647 -500.86993 1.6072875 255 255 255
-4.801343 624.49377 -0.48224676 255 255 255
-15745.179 843.32739 -14.656249 255 255 255
1701.7367 117.41315 2.7422905 255 255 255
4426.5605 405.26108 4.9702725 255 255 255
-3305.3838 -1850.8066 -5.2166109 255 255 255
773.60303 -186.56731 0.73057479 255 255 255
-340612.59 1858.5688 -317.8642 255 255 255
2454.5383 -447.9313 2.2880292 255 255 255
39245.797 617.23767 36.280979 255 255 255
-2763.9355 195.8327 -5.3147044 255 255 255
1181.9901 -219.1888 1.0009234 255 255 255
-31.959425 557.08557 -0.45204711 255 255 255
121.21676 507.04108 -0.52331078 255 255 255
7654.5229 679.03522 6.8713169 255 255 255
-1437.9363 191.6693 -3.0627544 255 255 255
21082.162 1250.6732 16.143179 255 255 255
-4008.9683 577.84595 -4.9561157 255 255 255
-17199.057 1407.327 -13.23341 255 255 255
1945.166 398.33368 2.0361788 255 255 255
350.68777 88.566017 0.5377385 255 255 255
1292.7135 -283.06076 1.1277518 255 255 255
3354.2449 -585.1369 3.0994995 255 255 255
-4611.8271 968.19879 -4.4025564 255 255 255
9253.4736 58.340733 17.603218 255 255 255
-64.958458 603.36859 -0.46014813 255 255 255
33.554188 219.33325 -0.51632416 255 255 255
5068.9844 675.6745 4.4575453 255 255 255
2582.8201 397.52798 2.8089383 255 255 255
6669.8486 -357.93079 4.8932567 255 255 255
10672.178 678.05914 9.6939182 255 255 255
2005.6683 397.96304 2.1077428 255 255 255
555.28058 -96.962608 0.51525038 255 255 255
88.357796 643.76331 -0.51594776 255 255 255
-1485.6254 -536.28046 -2.5035281 255 255 255
2188.8005 62.285587 1.6452864 255 255 255
3138.9985 402.14572 3.4539695 255 255 255
1792.5536 184.29843 2.5811987 255 255 255
339.07819 126.44849 0.5035345 255 255 255
1359597.6 25493.512 1058.9792 255 255 255
6799.1992 40.655979 5.4208193 255 255 255
814.27277 -221.92253 0.80616981 255 255 255
-100.96841 384.86172 -0.45353046 255 255 255
-891556.12 -45183.07 -901.89185 255 255 255
-74.702568 580.37195 -0.44696671 255 255 255
17.068314 619.11969 -0.48159984 255 255 255
56.222652 405.71759 -0.43729466 255 255 255
2358.7881 395.72266 2.5410502 255 255 255
-2271.7236 -618.67035 -3.4931905 255 255 255
4580.5352 -280.92587 3.9491937 255 255 255
-11640.112 630.39233 -13.088505 255 255 255
1154.499 -266.31625 1.0613238 255 255 255
4379.4219 451.22101 4.6588998 255 255 255
18538.703 -3129.9849 16.286077 255 255 255
-2090.2239 -599.49292 -3.1305711 255 255 255
-2141.179 -696.50494 -3.0150051 255 255 255
1277.1564 500.65646 1.5219486 255 255 255
-7274.4131 239.02351 -12.797286 255 255 255
-149039.53 1236.4475 -138.63063 255 255 255
3280.1814 262.95367 4.3801055 255 255 255
-72781.367 962.21191 -85.131645 255 255 255
418.24265 69.897072 0.57434845 255 255 255
1859.181 108.14657 3.0705345 255 255 255
1591.2452 -587.98669 1.4247543 255 255 255
-3384.3701 693.57837 -3.9429891 255 255 255
9497.5352 669.59155 6.8320246 255 255 255
-7911.3911 222.63306 -14.187768 255 255 255
-3699.9795 439.42218 -5.2184377 255 255 255
4874.7568 669.49005 4.2984571 255 255 255
11911.978 676.95172 10.881152 255 255 255
-887.09027 130.02612 -2.7636862 255 255 255
83.309624 694.66534 -0.53072035 255 255 255
14058.173 1356.8097 10.908417 255 255 255
9316.5254 -1111.8136 8.8656855 255 255 255
-1787.1661 -372.67953 -2.6040893 255 255 255
3253.4736 638.00092 2.8369639 255 255 255
-1386.5974 -254.644 -2.2704148 255 255 255
-5141.4585 144.6438 -10.227892 255 255 255
2807.6963 190.83728 4.1750498 255 255 255
1544.7676 -126.42549 3.0744715 255 255 255
-37891.348 763.2475 -42.606895 255 255 255
-3788.1934 447.30655 -5.2945404 255 255 255
-51356.75 918.35791 -48.117599 255 255 255
650.84387 84.752022 0.93880779 255 255 255
63890.66 535.91779 59.006733 255 255 255
151833.47 284.76633 140.21718 255 255 255
879.34552 -91.485046 0.50869685 255 255 255
