ply
format ascii 1.0
comment PCL generated
element vertex 1111
property float x
property float y
property float z
property uchar red
property uchar green
property uchar blue
element face 0
element camera 0
property float view_px
property float view_py
property float view_pz
property float x_axisx
property float x_axisy
property float x_axisz
property float y_axisx
property float y_axisy
property float y_axisz
property float z_axisx
property float z_axisy
property float z_axisz
property float focal
property float scalex
property float scaley
property float centerx
property float centery
property int viewportx
property int viewporty
property float k1
property float k2
end_header
849.24286 827.74731 1.9952599 255 255 255
6325.3657 1482.754 7.6920514 255 255 255
-803.33966 -199.03534 -2.0607421 255 255 255
3580.322 906.66364 6.0234423 255 255 255
112.1668 33.132339 0.15115526 255 255 255
37.409489 110.43913 0.3394863 255 255 255
513.89801 352.47302 0.68836105 255 255 255
164.26471 154.97455 0.63180065 255 255 255
-217.19008 -265.31644 -1.2793502 255 255 255
5464.9937 1877.532 6.0857873 255 255 255
4072.7407 13896.764 20.107121 255 255 255
2796.3674 2106.9282 3.6305795 255 255 255
1640.3915 1111.9401 2.9604967 255 255 255
1437.4343 1265.287 2.6497591 255 255 255
1028.1302 681.03815 2.2996542 255 255 255
2514.8311 1871.038 3.5061021 255 255 255
41.439117 734.78796 1.2398976 255 255 255
3353.3706 2348.2029 3.9496803 255 255 255
1584.5857 1303.4535 2.8083596 255 255 255
5978.1787 2218.761 6.0381718 255 255 255
402.16 225.06174 1.2495201 255 255 255
257.58609 391.89362 1.0128007 255 255 255
234.58249 274.20602 0.88105839 255 255 255
2988.062 1471.1455 3.0693219 255 255 255
1951.6176 1364.1272 3.1938329 255 255 255
6060.0469 1732.0647 6.961874 255 255 255
3585.8809 1421.5654 3.9900358 255 255 255
3236.2803 1857.6852 4.1854167 255 255 255
287.40402 247.405 1.1188711 255 255 255
6030.248 2336.6582 5.933639 255 255 255
-2413.3752 -972.00092 -3.5215495 255 255 255
33.506943 739.51605 1.2456068 255 255 255
138.51875 111.30991 0.55695993 255 255 255
-299.90021 -178.82401 -1.4039245 255 255 255
252.94777 288.72464 0.92454457 255 255 255
8281.2773 4145.2495 10.04339 255 255 255
-725.72534 -390.45367 -2.2104294 255 255 255
-10472.38 -7953.7681 -22.426477 255 255 255
150.57506 181.97232 0.75378913 255 255 255
6010.8013 2505.2078 5.7249866 255 255 255
240.59538 397.88168 0.99615747 255 255 255
11286.622 2959.262 13.847273 255 255 255
-15706.775 -7614.8652 -19.663284 255 255 255
2668.4968 1852.9778 3.6571016 255 255 255
-22712.674 -7867.6958 -26.912109 255 255 255
2838.8477 1785.4039 3.8617811 255 255 255
1160.2355 1179.6353 2.3337486 255 255 255
-98.903664 -213.23863 -1.3076177 255 255 255
4973.0884 2249.9443 5.2955623 255 255 255
-172.56586 -206.55531 -1.235263 255 255 255
16090.777 6292.3369 18.617031 255 255 255
-82.126106 -122.12657 -1.4582496 255 255 255
3114.4895 1834.0264 4.0892644 255 255 255
2495.0144 874.37982 2.7839086 255 255 255
388.83969 378.57507 1.2153882 255 255 255
-813.28033 -463.86514 -2.1891954 255 255 255
-221.36583 -1149.4196 -3.3721399 255 255 255
1171.2081 1171.4376 2.3694141 255 255 255
10848.313 3700.4053 12.578325 255 255 255
6203.3301 1545.001 7.4104052 255 255 255
3633.6924 2239.2429 4.2363114 255 255 255
-6382.5757 -6747.4814 -11.909286 255 255 255
2848.9358 2312.6135 3.5827231 255 255 255
-281.30188 -2065.4019 -5.2100005 255 255 255
1209.7395 716.49652 2.5761778 255 255 255
3053.8848 1862.0868 4.010262 255 255 255
-675.41827 -236.93852 -1.9540479 255 255 255
134.77965 109.87901 0.51656288 255 255 255
9044.5352 1668.179 8.9519901 255 255 255
-888.64075 -593.88666 -2.480706 255 255 255
6141.0439 2374.9529 5.9285288 255 255 255
1212.6293 714.58447 2.586174 255 255 255
538.24628 899.13971 1.6593983 255 255 255
2369.8794 1285.0963 2.4603555 255 255 255
1462.3876 765.32678 2.9550834 255 255 255
2472.3408 1760.057 3.6830282 255 255 255
199.65219 264.70706 0.28588641 255 255 255
38492.609 12754.604 44.462727 255 255 255
2015.8615 888.45844 3.6963398 255 255 255
853.52014 832.96631 2.0007348 255 255 255
1716.854 931.24219 3.2034371 255 255 255
1820.4036 786.56189 3.5230274 255 255 255
1426.7352 1257.744 2.6416931 255 255 255
102.65205 216.67337 0.60216802 255 255 255
1952.1888 862.25952 3.6336937 255 255 255
2742.6902 1778.787 3.7718925 255 255 255
-3069.6848 -645.49915 -4.2146697 255 255 255
-37.076023 -290.38605 -1.5653732 255 255 255
-1145.0255 -393.53537 -2.3561614 255 255 255
-706.32953 -642.15869 -1.8772715 255 255 255
5040.5527 2411.4656 5.1740885 255 255 255
1862.7455 1381.0857 3.0874422 255 255 255
1728.9493 826.3526 3.3223701 255 255 255
2985.2065 2062.384 3.8125257 255 255 255
99.434135 219.32951 0.60176039 255 255 255
-336.20038 -232.24788 -1.508263 255 255 255
2767.4055 771.70258 5.1129646 255 255 255
1728.0353 927.30231 3.2226255 255 255 255
-1865.7063 -2356.5547 -4.8245821 255 255 255
3356.3298 1962.7102 4.2052817 255 255 255
4775.917 1453.353 6.2923131 255 255 255
849.95221 371.13522 1.5574825 255 255 255
-3123.3132 -3810.2524 -9.2294054 255 255 255
-2050.051 -1127.249 -3.2437398 255 255 255
3878.6941 2471.1506 4.282208 255 255 255
468.9888 184.62239 0.87517428 255 255 255
6063.2793 1631.9565 7.0956187 255 255 255
11087.607 8574.4541 14.523754 255 255 255
733.5011 210.83174 1.2825419 255 255 255
2660.5161 1990.1044 3.5731409 255 255 255
8798.1875 2731.6155 8.9983435 255 255 255
364.06155 266.23984 1.1523405 255 255 255
1964.7976 445.94626 3.4900336 255 255 255
-182.95358 -763.9397 -2.5649986 255 255 255
3131.4873 2167.6895 3.8707962 255 255 255
1382.7072 1319.8259 2.5829327 255 255 255
5911.7808 1787.6981 6.6685715 255 255 255
79.467804 226.20897 0.59038782 255 255 255
-2086.5286 -1886.207 -3.9270229 255 255 255
2161.7502 1753.2173 3.2310085 255 255 255
2867.4082 2025.4902 3.7363157 255 255 255
792.11884 457.70203 1.9956087 255 255 255
541.74561 902.55206 1.6636955 255 255 255
1338.114 737.93097 2.7730799 255 255 255
-205.16426 -281.42685 -1.321974 255 255 255
370.93689 251.37038 0.55285054 255 255 255
-1357.6992 -764.16779 -2.7255924 255 255 255
-24.392042 -188.65282 -1.3479654 255 255 255
2510.325 1000.1237 4.272438 255 255 255
-476.39865 -654.0531 -1.9651947 255 255 255
3828.5835 2697.8281 4.1375484 255 255 255
-62.851479 -343.08398 -2.0612311 255 255 255
185.57898 831.63715 1.3657106 255 255 255
7460.5498 1821.9507 7.6567936 255 255 255
-1078.3395 -551.72394 -2.1387746 255 255 255
1396.744 1395.0903 2.5848854 255 255 255
1985.3845 1550.2202 3.1422498 255 255 255
337.73834 228.696 0.59660882 255 255 255
8411.1777 6236.5156 12.250903 255 255 255
2625.4646 893.41718 3.2834351 255 255 255
2724.4836 1819.3542 3.7320571 255 255 255
5911.5742 1791.4344 6.6620069 255 255 255
227.1925 274.25336 0.86769372 255 255 255
1957.7944 836.10333 3.6733093 255 255 255
2603.6816 1007.3319 4.4009962 255 255 255
1167.4791 1361.7988 2.3644474 255 255 255
2921.4697 2095.0818 3.7400165 255 255 255
-4671.2808 -4077.595 -8.7631378 255 255 255
-4698.1758 -1050.4031 -9.8556824 255 255 255
5874.7231 1912.5295 6.4109368 255 255 255
202.4998 415.09167 0.96906847 255 255 255
6595.814 4582.1016 8.5098944 255 255 255
-1774.0486 -1204.1794 -3.2756391 255 255 255
6134.4424 2094.9016 6.5886583 255 255 255
-31.51573 -19.876389 -1.0571482 255 255 255
-406.7554 -479.327 -1.6511656 255 255 255
-601.41278 -545.41119 -1.8814939 255 255 255
160.74561 488.22522 1.0090761 255 255 255
7069.7422 2765.0408 7.6111431 255 255 255
114.24812 227.70076 0.63417101 255 255 255
30.964977 178.96771 0.47660065 255 255 255
-5469.0649 -1988.1198 -7.2414241 255 255 255
5938.8945 2175.939 6.0553036 255 255 255
-493.49432 -454.24503 -2.1587913 255 255 255
1123.9973 700.29791 2.4465995 255 255 255
-6717.2617 -1621.4067 -8.1862288 255 255 255
-580.80316 -348.25394 -1.6610603 255 255 255
183.18315 137.99203 0.66796273 255 255 255
155.9261 123.57972 0.58567786 255 255 255
45.893833 724.04828 1.2298532 255 255 255
335.14505 338.90594 1.2745141 255 255 255
2015.1351 888.23456 3.6954739 255 255 255
1723.551 909.37238 3.2299852 255 255 255
3893.4539 1308.8052 5.5771437 255 255 255
-1112.7114 -707.02161 -2.2614295 255 255 255
267.62802 699.57587 1.2940605 255 255 255
118.76451 256.63513 0.93717211 255 255 255
944.07843 662.71271 2.1663799 255 255 255
-766.20917 -478.37585 -2.4886479 255 255 255
2718.9263 1042.896 4.5133266 255 255 255
2186.6956 1147.4877 3.657599 255 255 255
1592.7435 793.45874 3.1425323 255 255 255
4723.1392 1979.3152 5.3890567 255 255 255
190.5945 184.83025 0.75946379 255 255 255
698.8642 834.21844 1.8044952 255 255 255
1181.6637 1191.4198 2.37799 255 255 255
12435.512 1712.9607 13.666018 255 255 255
-790.99481 -382.2659 -1.8077945 255 255 255
-822.97791 -479.78671 -1.9010586 255 255 255
141.59061 48.041954 0.18453524 255 255 255
2520.4792 996.73474 4.2920737 255 255 255
1273.1138 1214.5917 2.9232953 255 255 255
2818.135 2023.1964 3.6449287 255 255 255
32.274361 726.75134 1.2318029 255 255 255
242.32889 285.87338 0.90244478 255 255 255
541.52173 903.25165 1.6644429 255 255 255
210.83157 627.2373 1.1220522 255 255 255
36.910084 729.25415 1.235943 255 255 255
1417.7799 1409.6782 2.6060541 255 255 255
194.67572 424.84326 0.96971494 255 255 255
4989.7305 2249.3665 5.3093243 255 255 255
5985.8213 1704.6155 6.8660297 255 255 255
-92.755615 -115.15932 -1.2497202 255 255 255
3399.697 1480.3865 4.7527103 255 255 255
233.60782 280.37878 0.8835054 255 255 255
76.894081 579.74298 2.1673143 255 255 255
564.23602 400.13062 1.5601631 255 255 255
-131.6814 -245.5351 -1.2437056 255 255 255
39.250786 734.55365 1.24002 255 255 255
351.42462 377.48923 1.1484087 255 255 255
1883.7872 853.16095 3.5263498 255 255 255
41.630405 736.93323 1.2439992 255 255 255
100049.57 35924.27 124.19437 255 255 255
199.68571 165.91985 0.89618915 255 255 255
275.20111 704.8172 1.3017583 255 255 255
196.12828 423.83844 0.97009587 255 255 255
155.7258 152.1245 0.41309369 255 255 255
286.94952 385.96143 1.049674 255 255 255
2103.1509 817.36365 2.8162673 255 255 255
-1702.6272 -1909.7245 -3.9490666 255 255 255
-3735.2769 -3594.1873 -7.3141146 255 255 255
-312.39694 -380.53333 -1.6697434 255 255 255
5969.9268 1756.304 6.7781868 255 255 255
985.42798 369.35901 1.0120776 255 255 255
-1062.6379 -907.62811 -2.2772551 255 255 255
-895.64362 -610.67084 -2.0363586 255 255 255
1630.1305 902.21912 2.0030844 255 255 255
-640.64093 -405.19904 -1.9601449 255 255 255
-413.65414 -183.58368 -1.458724 255 255 255
-13110.472 -3661.0735 -17.484882 255 255 255
1087.9768 1017.3436 3.9674304 255 255 255
-1360.6917 -473.1712 -2.7746475 255 255 255
-317.28873 -873.80377 -2.7666569 255 255 255
-249.0894 -246.05534 -1.3010764 255 255 255
2136.9192 1021.826 3.717294 255 255 255
-174.93413 -329.56693 -1.4991254 255 255 255
5961.6094 1750.6508 6.7752757 255 255 255
5030.8618 2414.79 5.1726527 255 255 255
1727.1534 925.92651 3.2202206 255 255 255
143.80261 139.77666 0.45850533 255 255 255
35.250355 740.13361 1.2456616 255 255 255
146.93161 533.99957 1.0536377 255 255 255
-4792.894 -2463.8088 -8.3118086 255 255 255
2651.7212 1032.2107 4.4243054 255 255 255
1197.0706 458.6145 2.856952 255 255 255
6097.4487 2395.6216 5.8886495 255 255 255
1565.9955 980.61102 2.9452534 255 255 255
42.728268 43.576729 0.11178999 255 255 255
-48.997852 -510.05835 -1.9957576 255 255 255
866.6037 614.81744 2.0505731 255 255 255
1639.943 1112.8994 2.9603603 255 255 255
-730.41168 -373.95404 -1.9605995 255 255 255
1883.0861 2326.2378 6.4858036 255 255 255
1717.7175 773.34625 3.3642521 255 255 255
6115.5942 2396.1274 5.908617 255 255 255
139.06493 568.73004 1.0879588 255 255 255
-107.50335 -112.77299 -1.1283817 255 255 255
1024.1511 676.9375 2.2936559 255 255 255
316.04459 313.26907 0.88398439 255 255 255
778.24579 427.83896 1.9950242 255 255 255
8006.5688 1462.8319 8.9128332 255 255 255
398.56213 381.00931 1.2347425 255 255 255
2845.5103 2057.1003 3.6909039 255 255 255
2321.9324 918.6507 4.1232944 255 255 255
252.59692 288.47498 0.92281401 255 255 255
-182.80754 -84.790848 -2.7224638 255 255 255
1417.4194 1423.8116 2.6026034 255 255 255
3146.0676 1411.1106 3.5640864 255 255 255
114.79537 131.89717 0.50140345 255 255 255
64.188538 278.18384 0.6627813 255 255 255
559.12048 634.15063 1.6067851 255 255 255
76.409523 193.02727 0.53682029 255 255 255
1731.438 916.9884 3.2338915 255 255 255
401.34201 632.10968 1.3695353 255 255 255
-33184.836 -13111.179 -45.99387 255 255 255
39.175163 117.73547 0.3566967 255 255 255
434.74002 1190.5715 1.7508309 255 255 255
201.29622 416.26059 0.9678511 255 255 255
1888.1886 859.61517 3.5347998 255 255 255
4994.2744 2847.3469 4.7938342 255 255 255
438.54144 1193.9646 1.754885 255 255 255
270.88275 687.92871 1.284199 255 255 255
1637.825 1101.9415 2.9641452 255 255 255
88.080742 132.1949 0.44998446 255 255 255
178.19467 132.38235 0.65060925 255 255 255
1392.3389 1414.6606 2.5784798 255 255 255
5447.207 2899.3728 5.6812167 255 255 255
554.00574 398.21344 1.5378808 255 255 255
5887.9355 3034.0249 7.5202398 255 255 255
1188.4575 460.70169 2.8398614 255 255 255
1630.0764 1096.5098 2.9614165 255 255 255
1172.4242 594.01544 1.4898752 255 255 255
210.34479 413.7644 0.97409582 255 255 255
2446.2954 929.37616 4.2925606 255 255 255
166.91071 478.05298 1.0039219 255 255 255
7981.4707 1450.7072 8.8907747 255 255 255
-162.8053 -227.51016 -2.3450823 255 255 255
1127.0839 458.30359 2.7126079 255 255 255
803.25995 430.90805 2.0461979 255 255 255
185.72636 135.59375 0.67239338 255 255 255
123.0888 65.318382 0.12791252 255 255 255
659.05939 667.59973 1.5266122 255 255 255
5939.0854 1640.1627 5.6437168 255 255 255
2851.7051 1146.5504 3.5380306 255 255 255
696.27478 830.99347 1.8026763 255 255 255
-104.58022 -415.91199 -1.5831602 255 255 255
1732.338 821.53912 3.3310072 255 255 255
5060.7148 2686.0396 4.9628725 255 255 255
-4870.3965 -694.09937 -6.448534 255 255 255
-61818.629 -18605.943 -76.655296 255 255 255
1002.7473 1227.4664 2.1958349 255 255 255
475.61469 385.97519 1.3828737 255 255 255
6194.8027 1567.3601 7.3716593 255 255 255
661.10663 700.63599 1.8498001 255 255 255
3095.3477 1520.0018 3.1926537 255 255 255
-405.38956 -326.65714 -1.6185231 255 255 255
6868.5801 1361.4445 8.4481077 255 255 255
12626.115 6512.7236 14.78822 255 255 255
4455.0659 1841.6223 5.3402991 255 255 255
-199.61009 -194.00545 -1.242687 255 255 255
216.34958 408.50641 0.97554058 255 255 255
727.39905 616.42493 1.0137318 255 255 255
5985.2651 1742.559 6.8162179 255 255 255
364.57089 266.53864 1.1528043 255 255 255
2014.0942 882.38708 3.6948812 255 255 255
1975.5157 1192.5743 3.3392982 255 255 255
2861.2075 2057.0576 3.7092192 255 255 255
2881.1992 2065.0115 3.7243292 255 255 255
-934.3421 -362.79028 -2.1780961 255 255 255
-5509.8467 -732.04181 -7.2727332 255 255 255
632.72595 389.53052 1.6876174 255 255 255
222.21997 407.68896 0.98146087 255 255 255
-570.35278 -289.66608 -1.6154516 255 255 255
854.21423 834.07153 2.0032129 255 255 255
-378.52582 -475.18082 -4.9418163 255 255 255
219.67082 407.88782 0.97871619 255 255 255
234.09978 275.3916 0.88190097 255 255 255
246.59035 282.07452 0.9083457 255 255 255
369.06894 603.28876 1.3106722 255 255 255
-50.982658 -224.48532 -2.0610209 255 255 255
850.5014 829.06042 1.9983395 255 255 255
-2271.4956 -2496.5984 -5.5740323 255 255 255
-2164.3281 -1082.2209 -4.915699 255 255 255
4291.1704 1769.7338 5.3815746 255 255 255
142.68219 586.41846 1.1061112 255 255 255
451.20871 382.728 1.3352345 255 255 255
-108.68422 -215.23598 -1.4522305 255 255 255
-1302.1859 -1868.1091 -4.9217577 255 255 255
454.57935 383.12662 1.3418468 255 255 255
95.915924 91.183235 0.39864233 255 255 255
2618.7046 981.05396 4.4646978 255 255 255
-12568.948 -3985.8735 -15.70099 255 255 255
633.63287 407.65073 1.7006996 255 255 255
155.14694 428.74982 0.76726437 255 255 255
-1077.7284 -526.05695 -2.4379225 255 255 255
-19.744274 -49.324081 -1.1031582 255 255 255
-35545.031 -8152.4062 -38.941856 255 255 255
2426.96 1756.3855 2.7454338 255 255 255
-575.79645 -301.51117 -1.6351057 255 255 255
41.254829 720.26587 1.2254155 255 255 255
4214.4282 1823.1205 4.7562923 255 255 255
820.08051 432.23007 2.0780485 255 255 255
-2080.6348 -817.48297 -3.2848387 255 255 255
1953.2803 834.47357 3.6665404 255 255 255
-546.14258 -755.89172 -2.1664174 255 255 255
470.65421 385.03598 1.3730056 255 255 255
-375.99475 -462.05576 -1.4846427 255 255 255
-442.14807 -611.12036 -1.7564373 255 255 255
6021.4067 1701.5603 6.9233828 255 255 255
-977.77441 -418.05154 -2.1307256 255 255 255
99.377922 342.20511 1.3080359 255 255 255
-1780.0468 -1206.4283 -3.2780304 255 255 255
3299.6323 4177.9131 5.5730491 255 255 255
1116.3595 768.82861 1.6087475 255 255 255
66.738991 178.87595 1.211661 255 255 255
-351.30109 -351.17996 -1.4226447 255 255 255
3169.6475 3830.4563 5.2314506 255 255 255
-1744.5328 -1014.1433 -2.9864154 255 255 255
1593.5366 797.37653 3.1422079 255 255 255
482.27814 991.59546 1.6610577 255 255 255
2640.5581 1264.1895 4.1059847 255 255 255
-146.40184 -163.92299 -1.28812 255 255 255
2035.5602 883.91113 3.722826 255 255 255
1709.621 926.89148 3.1902721 255 255 255
5876.7739 2020.9874 6.2517614 255 255 255
2192.561 1144.9792 3.668159 255 255 255
227.25003 273.97302 0.86733121 255 255 255
219.96498 800.43085 4.571939 255 255 255
6062.6069 1633.8914 7.0966978 255 255 255
2607.6543 1009.2283 4.4092512 255 255 255
4471.9434 1841.2688 5.3596001 255 255 255
-2728.9749 -4598.5664 -18.612612 255 255 255
1614.3636 1776.2659 2.5689285 255 255 255
1947.7444 1362.2588 3.1884854 255 255 255
-1771.4976 -1203.5265 -3.2733371 255 255 255
1442.0914 1420.8379 2.627435 255 255 255
239.89586 396.89087 0.99362737 255 255 255
2329.4644 549.94452 3.2690687 255 255 255
2349.0598 960.18463 4.1050463 255 255 255
6004.0156 2503.2134 5.7196336 255 255 255
-2046.907 -1126.1969 -3.241025 255 255 255
1213.3004 714.81171 2.5880306 255 255 255
-2700.5952 -2552.8242 -5.7377081 255 255 255
-790.46667 -404.61487 -2.0582929 255 255 255
353.49979 451.15051 0.81609714 255 255 255
370.42267 376.84183 1.1809053 255 255 255
6190.5894 2377.8379 5.9873061 255 255 255
148.9243 139.61606 0.58364409 255 255 255
-149.69931 -204.28075 -1.2820941 255 255 255
-927.56018 -436.19867 -1.9218717 255 255 255
474.44067 199.47746 2.0919747 255 255 255
402.93256 629.70862 1.3682706 255 255 255
262.60263 328.26639 0.71373147 255 255 255
3186.8574 1755.5061 4.2409663 255 255 255
-501.97003 -393.44315 -1.5877477 255 255 255
1219.8149 891.04346 2.4988351 255 255 255
1212.8422 717.97113 2.5844462 255 255 255
459.53668 388.63348 2.9492645 255 255 255
-669.8371 -896.1203 -2.4848518 255 255 255
-11891.4 -1530.6698 -16.23188 255 255 255
-20.219896 -158.18393 -1.3206074 255 255 255
5971.9209 2217.7622 6.033289 255 255 255
-862.84454 -1746.9357 -4.7400188 255 255 255
2240.8469 2009.069 3.5952706 255 255 255
-3913.1443 -1762.5979 -7.5352497 255 255 255
1580.1536 1301.0012 2.801213 255 255 255
1502.1686 1234.2006 2.7328136 255 255 255
-763.01538 -816.78394 -1.9071647 255 255 255
-1499.5634 -646.6084 -2.5841386 255 255 255
-25.484118 -38.44334 -1.0733938 255 255 255
2144.8621 1019.2343 3.7313578 255 255 255
-1279.0267 -729.31738 -3.4983227 255 255 255
111.43652 83.094131 0.23472416 255 255 255
1730.786 826.20953 3.3274148 255 255 255
-347.55084 -1850.476 -11.086437 255 255 255
3885.7212 1608.6926 5.0966296 255 255 255
-5893.4209 -2953.5369 -6.9681993 255 255 255
145.22498 118.7174 0.55296636 255 255 255
5012.7417 2850.9636 4.8066268 255 255 255
69571.898 29887.658 80.667381 255 255 255
-618.71136 -466.36673 -1.8737457 255 255 255
2646.8245 2000.7592 3.5552647 255 255 255
2511.2017 1000.6646 4.2760043 255 255 255
4749.3647 1453.3049 6.269352 255 255 255
-4093.7256 -3516.8965 -6.8812227 255 255 255
1122.048 699.76685 2.4445529 255 255 255
997.71368 4999.1748 8.8955507 255 255 255
2837.1982 1785.3412 3.8617589 255 255 255
-384.64594 -155.82027 -1.4410839 255 255 255
-1154.915 -646.32452 -2.4318111 255 255 255
2985.6865 2062.0002 3.8135397 255 255 255
134.42714 109.64061 0.51505756 255 255 255
-919.10162 -483.43759 -1.9649739 255 255 255
1876.5934 659.75885 3.8769433 255 255 255
1952.1268 860.48895 3.6325948 255 255 255
5884.1099 1882.1613 6.4875941 255 255 255
-5808.7275 -11913.448 -21.341845 255 255 255
761.90906 1003.855 0.97531903 255 255 255
5612.896 1379.1653 6.6766124 255 255 255
92.499016 115.22194 0.40532461 255 255 255
185.07707 831.19141 1.3644545 255 255 255
791.42242 457.42267 1.9945484 255 255 255
5938.812 1780.3357 6.6846261 255 255 255
1636.6757 1120.5725 2.9557695 255 255 255
1122.1584 696.59052 2.4472132 255 255 255
2683.4424 1729.4427 3.7450759 255 255 255
3465.6387 892.73242 5.8830209 255 255 255
5892.0576 1918.74 6.4316072 255 255 255
74.572006 186.75191 0.52477729 255 255 255
3089.8872 2091.407 3.88592 255 255 255
150.04861 62.913837 0.2831915 255 255 255
471.6781 385.14978 1.3746848 255 255 255
166.73155 477.25797 1.0021561 255 255 255
464.03513 313.75732 0.85019356 255 255 255
3404.1213 1473.7369 4.7578173 255 255 255
290.84436 384.05865 1.0533557 255 255 255
121.0089 93.000359 0.22059771 255 255 255
286.93335 385.93466 1.0495808 255 255 255
3894.3442 1613.0085 5.1119189 255 255 255
-884.79651 -1205.817 -3.1208537 255 255 255
3892.5464 1618.6844 5.108932 255 255 255
1593.5812 793.92426 3.1447546 255 255 255
527.15613 410.49905 1.3502704 255 255 255
6107.3643 2366.8242 5.9289351 255 255 255
1560.9779 973.54041 2.936938 255 255 255
624.54895 485.19238 1.610218 255 255 255
149.03983 139.58058 0.5840342 255 255 255
257.53021 391.33527 1.0114236 255 255 255
20751.256 17912.061 35.143967 255 255 255
178.72801 132.52466 0.65244991 255 255 255
-2691.1248 -1237.7896 -4.4093261 255 255 255
137.47269 575.08093 1.0934943 255 255 255
5902.5728 2305.2766 5.7581964 255 255 255
146.86784 575.42804 1.0978112 255 255 255
6863.1362 1367.5502 8.4301262 255 255 255
402.82614 225.77271 1.2512726 255 255 255
139.5076 566.63037 1.0848502 255 255 255
3968.2371 2019.312 4.1459641 255 255 255
-344964.59 -162662.75 -406.39508 255 255 255
1736.8015 823.55084 3.3394036 255 255 255
29.621567 736.61987 1.2421955 255 255 255
2836.1729 2041.7712 3.694859 255 255 255
266.30096 696.60278 1.2883385 255 255 255
-405.80212 -1157.8132 -9.5894775 255 255 255
1527.0603 1301.3884 1.7641749 255 255 255
439.01855 1194.5947 1.7563041 255 255 255
434.4549 1190.5215 1.7514361 255 255 255
-762.63629 -1033.5963 -2.1846123 255 255 255
-44.896046 -26.089844 -1.0508481 255 255 255
1402.0353 1407.2537 2.5892606 255 255 255
2848.1929 2046.2405 3.70155 255 255 255
1008.0397 1232.2371 2.2035372 255 255 255
1428.1759 1415.7444 2.6108561 255 255 255
3152.6562 3809.5833 5.2025599 255 255 255
-1134.408 -1000.4927 -2.6913574 255 255 255
134.89822 439.95621 2.2362297 255 255 255
2227.5557 1198.8384 2.3262177 255 255 255
135.69562 128.40129 0.27079153 255 255 255
-187.7757 -352.88223 -1.4072431 255 255 255
-4810.8735 -4428.7651 -8.4767218 255 255 255
268.75293 705.96802 1.3001927 255 255 255
160.70296 187.84245 0.64671487 255 255 255
2690.3875 2699.7268 4.9958115 255 255 255
-82.684319 -74.447014 -1.2079709 255 255 255
-2421.2305 -552.86731 -3.75014 255 255 255
-18045.301 -5837.5776 -30.919426 255 255 255
4241.0723 1739.0881 7.8919511 255 255 255
6882.5195 1362.78 8.461297 255 255 255
208.76862 628.05945 1.1210797 255 255 255
1442.1326 1420.594 2.627501 255 255 255
33.240051 730.72394 1.2379439 255 255 255
333.65326 258.66385 0.38291371 255 255 255
3163.6521 1703.5615 3.3180456 255 255 255
-9015.9414 -5766.04 -13.69804 255 255 255
537.8855 898.8576 1.6582377 255 255 255
4613.4878 2041.3412 5.3567791 255 255 255
40.46822 121.4635 0.36672676 255 255 255
36.779617 726.66913 1.2321417 255 255 255
-408.28448 -1037.1281 -3.2044594 255 255 255
6112.2866 2400.8972 5.9028988 255 255 255
202.49529 378.08118 0.75966835 255 255 255
-2462.572 -665.59509 -3.9621944 255 255 255
5248.5488 4569.4873 7.9848623 255 255 255
2446.5522 928.99622 4.2920928 255 255 255
4461.2148 1843.6462 5.347291 255 255 255
-10239.968 -3479.4333 -12.546416 255 255 255
123.73423 118.46196 0.5023942 255 255 255
-714.82513 -895.47668 -2.038939 255 255 255
1977.6576 1191.5631 3.3437116 255 255 255
39.042152 117.52914 0.35584617 255 255 255
-616.13397 -144.66328 -1.7263772 255 255 255
-1994.2938 -194.99924 -4.4442506 255 255 255
595.01648 849.75085 0.82988489 255 255 255
1888.6934 856.26624 3.5368311 255 255 255
361.93817 375.71625 1.0075386 255 255 255
2861.4712 2058.1543 3.708998 255 255 255
-1439.7441 -368.52618 -2.5761368 255 255 255
-978.85449 -514.70483 -1.9843624 255 255 255
-1533.167 -526.30963 -3.6747713 255 255 255
1250.8645 1189.5442 2.8575578 255 255 255
-105.14911 -121.74738 -1.1942391 255 255 255
364.62357 266.60132 1.1532478 255 255 255
7997.0776 1461.7838 8.9008484 255 255 255
-42.592796 -43.64455 -1.0715253 255 255 255
-9350.9238 -2718.5498 -12.38775 255 255 255
3868.6497 1298.5328 5.541842 255 255 255
142.70236 135.9543 0.18380754 255 255 255
2014.9689 886.82825 3.6935301 255 255 255
219.96738 408.37543 0.98010504 255 255 255
-8329.9805 -2218.9976 -9.9591722 255 255 255
221.17053 61.138374 0.21260282 255 255 255
2857.9338 2062.428 3.7040169 255 255 255
1085.7498 434.40558 1.7658308 255 255 255
473.40427 468.1398 2.9685025 255 255 255
210.65628 414.44852 0.97568655 255 255 255
159.11328 536.15833 1.0633669 255 255 255
1627.6582 1095.5688 2.9558799 255 255 255
1242.2606 1164.2378 2.9834461 255 255 255
204.68413 414.09201 0.9689278 255 255 255
698.85248 834.04877 1.80627 255 255 255
2010.5625 880.672 3.6865852 255 255 255
2827.1743 2029.1088 3.6589184 255 255 255
176.80611 263.50595 1.2179073 255 255 255
2323.1604 918.49896 4.1249161 255 255 255
-165991.69 -252397.86 -542.10712 255 255 255
108.24125 178.58496 0.405074 255 255 255
-977.00146 -512.54059 -1.9809186 255 255 255
1146.9636 765.54852 3.3660004 255 255 255
-171.26591 -211.6994 -1.3978213 255 255 255
88.321091 202.58719 0.56561571 255 255 255
63043.773 34446.062 74.246307 255 255 255
-10182.987 -4915.2988 -11.594727 255 255 255
-57.793819 -110.41311 -1.2012321 255 255 255
6140.6812 10175.224 39.023117 255 255 255
-468.88901 -848.80841 -2.2515059 255 255 255
479.43185 989.78363 1.66111 255 255 255
2190.8135 1148.7712 3.6644657 255 255 255
2646.8188 1274.5841 4.1154132 255 255 255
1638.6932 1111.6339 2.9571626 255 255 255
2195.5242 1146.7672 3.6729465 255 255 255
164.06247 29.469276 0.29410866 255 255 255
1639.0095 1121.1525 2.960736 255 255 255
481.8551 989.96686 1.6590917 255 255 255
11788.215 10928.515 19.350552 255 255 255
4755.9224 1450.2235 6.2735543 255 255 255
2173.2505 919.38116 3.88696 255 255 255
554.37244 398.75934 1.5398757 255 255 255
-328.0488 -4941.3242 -10.973022 255 255 255
-531.9397 -1744.9553 -3.8638461 255 255 255
110.10664 226.8327 0.62594426 255 255 255
180.69975 258.53265 0.48907506 255 255 255
37.468555 110.69912 0.33966762 255 255 255
558.06757 351.59079 0.69627535 255 255 255
641.04877 326.95126 1.6507171 255 255 255
1712.7928 927.59662 3.1974857 255 255 255
-4146.7124 -636.84741 -5.4890304 255 255 255
1728.6809 926.65332 3.2222514 255 255 255
864.39832 612.98645 2.0453136 255 255 255
121.66423 120.81046 0.33871868 255 255 255
-9765.3047 -14768.885 -32.054081 255 255 255
1027.4131 678.17023 2.3011894 255 255 255
-693.79071 -685.78589 -1.9432837 255 255 255
2080.9321 893.85168 3.7868025 255 255 255
76.408661 193.5775 0.53825855 255 255 255
1731.783 916.83698 3.2345815 255 255 255
-931.26849 -774.47119 -2.3878472 255 255 255
3676.5876 1360.9393 4.8666363 255 255 255
1721.1605 908.901 3.2228851 255 255 255
-504.79987 -520.03607 -1.6337477 255 255 255
407.28326 379.68423 1.2509215 255 255 255
819.27423 431.52121 2.0755315 255 255 255
847.11096 826.86749 1.9907275 255 255 255
1385.915 2193.5308 8.7511215 255 255 255
117.80043 92.644119 0.16566694 255 255 255
853.25055 832.6994 2.0015068 255 255 255
242.16414 285.89838 0.90265411 255 255 255
246.19374 287.09033 0.9099496 255 255 255
233.02147 279.73593 0.88183618 255 255 255
239.58904 282.78961 0.89583611 255 255 255
5964.5034 1752.6613 6.7690549 255 255 255
-111.87244 -139.62762 -1.215277 255 255 255
2874.1692 2048.7478 3.7281082 255 255 255
227.93279 274.68097 0.86967707 255 255 255
566.68384 401.06711 1.5667036 255 255 255
-6991.5439 -4644.0449 -12.78289 255 255 255
5051.978 2687.209 4.9593558 255 255 255
2670.8274 1032.2396 4.4583392 255 255 255
2530.3303 1001.188 4.3102636 255 255 255
1001.4065 1225.0664 2.1932065 255 255 255
-255.73476 -203.32906 -1.4520508 255 255 255
156.01791 123.54749 0.58505636 255 255 255
234.22498 273.81519 0.88047147 255 255 255
18.199818 383.43158 0.79548812 255 255 255
5750.9531 21228.328 41.408398 255 255 255
-159.59773 -173.3517 -1.2903197 255 255 255
2603.5698 1007.0555 4.4032655 255 255 255
147.19995 137.90488 0.57906824 255 255 255
6027.9019 1705.3645 6.927875 255 255 255
-1506.3091 -800.28125 -2.8450091 255 255 255
2250.8218 2014.3844 3.6093252 255 255 255
824.97559 964.82227 1.1637695 255 255 255
115.15202 131.56226 0.50094616 255 255 255
-342.68994 -769.64056 -2.134855 255 255 255
471.18451 559.83917 0.78318757 255 255 255
-85.246964 -36.083561 -1.1192474 255 255 255
4905.0449 1628.9388 5.1932302 255 255 255
6145.3687 2378.592 5.9358406 255 255 255
-399.36072 -271.08279 -1.5976852 255 255 255
454.05402 253.90007 0.55229038 255 255 255
-678.60669 -606.97009 -1.8433897 255 255 255
-219.51736 -240.38426 -3.2515683 255 255 255
145.29231 580.73907 1.1028292 255 255 255
61.54694 278.56619 0.661861 255 255 255
25515.873 30490.973 59.46376 255 255 255
159.12674 130.72412 0.59922653 255 255 255
1340.1396 739.19098 2.7763395 255 255 255
401.00778 630.46771 1.3668857 255 255 255
42092.109 19791.215 47.80788 255 255 255
219.05446 159.6994 0.7703523 255 255 255
-842.15662 -416.08051 -2.2331133 255 255 255
282.49542 142.56059 0.30628985 255 255 255
2845.7085 2038.5978 3.7089016 255 255 255
-6158.9355 -9401.7227 -19.265451 255 255 255
1258.4277 329.70328 2.2116296 255 255 255
-1502.0846 -773.78235 -2.5729747 255 255 255
7973.3994 3604.5403 10.460668 255 255 255
1954.6191 1366.033 3.1988542 255 255 255
8684.085 7916.4116 13.835671 255 255 255
1120.1492 695.25873 2.4435577 255 255 255
195.77055 188.24489 0.73143589 255 255 255
-257.4057 -442.48062 -1.9458078 255 255 255
389.09827 288.54254 0.70594269 255 255 255
85.209572 194.73886 0.54863971 255 255 255
-882.68079 -587.76453 -2.011812 255 255 255
184.89738 830.06158 1.3636327 255 255 255
-9441.6426 -10499.683 -24.036894 255 255 255
359.41586 606.18378 1.3010381 255 255 255
160.32823 129.54588 0.24851134 255 255 255
-39.671059 -66.195541 -1.5122247 255 255 255
578462 148726.03 716.30975 255 255 255
469.44962 536.67896 0.67296225 255 255 255
5745.3252 3283.1702 6.8224621 255 255 255
169.6911 209.82054 0.69770581 255 255 255
3463.2375 2278.9446 4.0738101 255 255 255
-32.381134 -132.90178 -1.272139 255 255 255
8579.6904 1695.2024 8.6434336 255 255 255
202.20349 189.78711 0.74812382 255 255 255
470.83051 535.81348 0.75314748 255 255 255
1170.8752 1760.0824 2.8704138 255 255 255
-506.40488 -388.18036 -1.7052033 255 255 255
10664.065 15155.897 61.850288 255 255 255
-629.3855 -1002.4473 -3.1623878 255 255 255
-322.73163 -350.92294 -1.7352922 255 255 255
237.59967 755.93054 1.3840522 255 255 255
175863.7 68652.859 233.69894 255 255 255
108.51696 225.46684 0.62178522 255 255 255
-1631.8909 -815.01849 -3.1616499 255 255 255
9847.0615 3256.991 10.745273 255 255 255
111.56626 111.76896 0.46460491 255 255 255
6170.9233 2370.6362 5.967021 255 255 255
6107.6172 2398.5408 5.9023242 255 255 255
240.01711 283.48984 0.89605832 255 255 255
631.85205 1332.053 9.4436779 255 255 255
-762.1095 -1251.246 -3.6175504 255 255 255
2406.905 1487.7112 4.7421818 255 255 255
245.87529 286.38721 0.90952367 255 255 255
1398.4924 1419.307 2.5900183 255 255 255
232.21103 278.36249 0.87925094 255 255 255
202.17358 414.73337 0.96788758 255 255 255
1408.4675 1417.6288 2.5955801 255 255 255
1421.1718 1419.3287 2.6068361 255 255 255
1390.8242 1405.0271 2.5815032 255 255 255
1642.2894 1102.9187 2.9733586 255 255 255
34.417347 739.16333 1.2465894 255 255 255
150.995 422.46158 2.2562864 255 255 255
29.917831 735.73358 1.2409139 255 255 255
552.57849 398.17551 1.5368092 255 255 255
-1083.0073 -998.505 -2.3875573 255 255 255
-2724.7776 -3088.5288 -5.4006681 255 255 255
1400.4401 1403.9673 2.5874708 255 255 255
4984.5059 2254.4255 5.3090115 255 255 255
39.859669 735.40198 1.2429152 255 255 255
-5160.6567 -1583.6793 -6.7140703 255 255 255
665.35175 690.25476 1.5862337 255 255 255
102907.01 58176.184 111.97176 255 255 255
2891.0603 2059.5381 3.7348709 255 255 255
304.50345 449.50861 0.42272961 255 255 255
-6266.2222 -8686.7266 -18.344212 255 255 255
43.215519 732.40381 1.239186 255 255 255
1420.5441 1411.3936 2.6106944 255 255 255
33.188694 730.68341 1.2378674 255 255 255
150.38693 160.47859 0.43175873 255 255 255
267.75427 485.24301 0.99441093 255 255 255
-574.29083 -339.05652 -1.647266 255 255 255
702.19 1027.6442 1.0121744 255 255 255
45.145355 725.46869 1.2329708 255 255 255
3877.4087 1613.1315 5.0925293 255 255 255
2135.9661 1019.8161 3.7167408 255 255 255
41.811134 723.05316 1.2303045 255 255 255
874.98328 440.37555 2.1920052 255 255 255
70.592514 234.89018 0.5982824 255 255 255
-413.98276 -411.16711 -1.7409662 255 255 255
-427.18854 -152.30003 -1.4834124 255 255 255
112.91941 227.74933 0.63259488 255 255 255
-582.3418 -429.31076 -1.7048864 255 255 255
532.66339 849.82001 2.4990814 255 255 255
-5680.0698 -2756.1187 -7.9498863 255 255 255
227.63928 273.75925 0.86760783 255 255 255
430.09241 339.01367 0.9279663 255 255 255
-68.25634 -91.018829 -1.4067957 255 255 255
139.5761 565.58386 1.083631 255 255 255
1025.4849 677.54175 2.2973316 255 255 255
291.629 384.02597 1.0550581 255 255 255
-63.917961 -70.262253 -1.1074564 255 255 255
537.44019 898.77112 1.6584083 255 255 255
-8522.8359 -13099.114 -28.710537 255 255 255
137.51009 575.84479 1.0956808 255 255 255
857.24811 536.15662 0.92766535 255 255 255
-57.638092 -164.63132 -1.5370386 255 255 255
232.75137 274.90466 0.87931573 255 255 255
2640.5737 1269.4153 4.1077085 255 255 255
239.0621 278.59363 0.89346075 255 255 255
4786.6216 2602.5413 5.0211582 255 255 255
245.11847 280.70929 0.90342498 255 255 255
1732.6746 823.25098 3.3332627 255 255 255
1973.0587 1187.2997 3.3371863 255 255 255
1714.6849 928.6795 3.20451 255 255 255
-226.92578 -157.77116 -1.8923293 255 255 255
4017.3809 1854.5504 4.0969133 255 255 255
-1284.963 -803.11096 -3.5115399 255 255 255
86.434708 198.96387 0.55808747 255 255 255
5959.2349 1746.2946 6.7735662 255 255 255
986.25653 894.11414 1.7151048 255 255 255
1141.4666 462.16528 2.7406552 255 255 255
36467.637 21041.135 51.422859 255 255 255
369.34952 103.51281 0.35508418 255 255 255
115.01038 31.387678 0.12607196 255 255 255
788.50958 348.0162 1.9800652 255 255 255
142.55554 586.11383 1.1071821 255 255 255
-416.52139 -887.63495 -2.9117622 255 255 255
7688.6475 5906.4839 19.333046 255 255 255
596.80957 667.75159 1.3782529 255 255 255
1395.8964 1409.3901 2.5825379 255 255 255
-785.06213 -535.54315 -1.908498 255 255 255
-1061.9987 -426.36349 -2.2332075 255 255 255
123.70112 65.267731 0.12854551 255 255 255
113.46973 116.67188 0.47642946 255 255 255
142.81621 67.596397 0.20914495 255 255 255
1195.4402 460.46304 2.8601196 255 255 255
-38439.531 -12203.17 -47.209476 255 255 255
2604.0903 1004.1777 4.4076772 255 255 255
-1408.5717 -1974.1405 -3.1507208 255 255 255
434.694 1190.7975 1.7518911 255 255 255
5000.6265 2845.6016 4.7990613 255 255 255
1318.4575 1612.0201 2.219074 255 255 255
2879.6135 2080.4265 3.7331388 255 255 255
2858.2585 2068.5085 3.7133107 255 255 255
1444.4913 2930.8098 14.839992 255 255 255
2829.8027 2044.5331 3.6855192 255 255 255
2864.9587 2057.1555 3.7117319 255 255 255
77.821281 211.12784 0.56408989 255 255 255
2848.6157 2044.7073 3.7034891 255 255 255
3392.2646 1475.6442 4.7436647 255 255 255
368.45959 601.58044 1.3087285 255 255 255
2868.4023 2045.0781 3.7202861 255 255 255
2859.1345 2041.5889 3.715899 255 255 255
1466.8214 765.6203 2.9628997 255 255 255
2847.9487 2040.7831 3.7118843 255 255 255
5065.8413 2687.4578 4.9693766 255 255 255
1591.4834 794.76392 3.1414485 255 255 255
6166.877 2386.6628 5.964736 255 255 255
-2981.6228 -1578.1801 -5.2192521 255 255 255
5915.8325 1678.064 6.7864852 255 255 255
-58.30093 -149.24641 -1.310347 255 255 255
497.2749 497.2283 1.1302394 255 255 255
479.15631 987.70996 1.6591727 255 255 255
1123.231 456.27264 2.7037785 255 255 255
9995.3994 3468.0811 9.9208832 255 255 255
1643.4025 1114.3386 2.967943 255 255 255
2314.6223 914.13824 4.1055298 255 255 255
2338.7886 961.25372 4.0836587 255 255 255
17.580276 385.5632 0.79536092 255 255 255
861.81018 611.90411 2.0415578 255 255 255
76.866135 193.58131 0.53864503 255 255 255
2052.1465 1975.3297 3.4310818 255 255 255
942.28436 661.17401 2.1652181 255 255 255
159.24919 535.26465 1.0608072 255 255 255
1220.6046 891.29987 2.499439 255 255 255
1820.2556 784.57184 3.520045 255 255 255
5960.3784 1765.9576 6.7479854 255 255 255
-984.77612 -325.23575 -2.1002336 255 255 255
-1930.0494 -771.32471 -2.9870272 255 255 255
363.36191 253.08232 0.54460406 255 255 255
-10670.676 -1491.5212 -12.787423 255 255 255
-579.69324 -483.34222 -1.8330098 255 255 255
5184.5703 6702.9536 12.204502 255 255 255
5918.6792 890.28516 6.9150248 255 255 255
400.05939 381.50015 1.2383225 255 255 255
1144.979 478.02258 2.7067499 255 255 255
37.384506 110.8242 0.34000883 255 255 255
1062.098 236.07887 1.5283494 255 255 255
-2128.0588 -926.94708 -3.1494336 255 255 255
1212.5853 713.94464 2.5865414 255 255 255
2042.4108 886.19305 3.7423511 255 255 255
144.88342 118.84515 0.55175513 255 255 255
-12364.392 -12447.863 -23.753281 255 255 255
2180.1226 2663.2585 3.6232471 255 255 255
91.396141 222.65945 0.59758455 255 255 255
1721.7974 773.53748 3.3704846 255 255 255
-1665.7438 -631.9101 -2.8007741 255 255 255
1954.9841 833.22577 3.6722472 255 255 255
-2488.0762 -653.93225 -4.4198985 255 255 255
6239.0981 23290.805 44.891911 255 255 255
2928.5613 2598.2849 5.9696069 255 255 255
-550.82318 -165.6748 -1.656093 255 255 255
1261.0189 485.44598 1.4321066 255 255 255
109.22649 61.86602 0.20076269 255 255 255
148.94037 139.45166 0.58441693 255 255 255
1631.0386 1114.9146 2.9469278 255 255 255
504.384 407.82184 1.1030778 255 255 255
109.78291 226.90833 0.62671632 255 255 255
8006.5146 1463.3541 8.9137955 255 255 255
150.67371 155.71942 0.39859095 255 255 255
-2363.3491 -3078.4099 -5.9732194 255 255 255
-1896.3422 -740.565 -3.5468929 255 255 255
1734.6339 928.23059 3.2338402 255 255 255
579.44379 469.25421 1.7321 255 255 255
74.046585 413.48218 1.2530663 255 255 255
2083.8547 894.89984 3.7944953 255 255 255
182.77113 502.84329 1.0418384 255 255 255
1960.7809 864.61945 3.6554482 255 255 255
37.522072 235.46883 0.57995552 255 255 255
-216.8288 -196.82048 -1.3172979 255 255 255
156.60626 93.01786 0.21121456 255 255 255
216.95068 408.84616 0.97764838 255 255 255
-536.68646 -478.54138 -1.7815927 255 255 255
1108.5441 459.78778 2.6727378 255 255 255
160.30997 99.586685 0.18752308 255 255 255
-9353.4336 -3428.241 -11.615062 255 255 255
40.060646 120.46743 0.36389905 255 255 255
473.74118 267.97238 1.308046 255 255 255
4490.6914 4462.7632 10.582129 255 255 255
164.65768 274.33688 1.2641796 255 255 255
-10828.345 -9268.2988 -27.486713 255 255 255
-338.37622 -299.71381 -1.4226301 255 255 255
-1362.4878 -2880.8428 -7.053431 255 255 255
147.87541 109.18717 0.16651282 255 255 255
451.21872 383.07352 1.3364346 255 255 255
-268.34644 -216.61386 -1.3424085 255 255 255
1006.9564 1232.714 2.2038729 255 255 255
123.0275 118.11313 0.50008965 255 255 255
3479.1692 637.67334 6.2852225 255 255 255
4577.0371 1886.4254 5.6896577 255 255 255
147761.11 29953.576 162.99739 255 255 255
4751.9932 3257.9236 8.0535421 255 255 255
-1153.9189 -2494.7378 -6.2669988 255 255 255
-1858.8323 -1165.8033 -4.0478487 255 255 255
5878.5537 1753.1716 6.6985521 255 255 255
228.08369 433.61197 1.0139817 255 255 255
-1214.8165 -521.68646 -2.2084651 255 255 255
32331.082 7679.1519 35.315815 255 255 255
120.66376 22.543278 0.14473356 255 255 255
-779.31335 -420.81686 -2.0391262 255 255 255
90.990746 167.93967 0.51366436 255 255 255
85.888878 137.64539 0.29993355 255 255 255
-261.58191 -1185.3473 -3.4350898 255 255 255
-11205.769 -4043.1047 -14.982862 255 255 255
144474.44 29160.051 159.31413 255 255 255
1382.799 1408.7992 2.5732622 255 255 255
-66027.898 -42968.355 -108.139 255 255 255
774.35596 430.90387 1.9812343 255 255 255
1618.3091 2043.3136 3.0377789 255 255 255
-346.88306 -535.27625 -2.2139528 255 255 255
1623.6238 150.25237 1.8574721 255 255 255
5744.5225 5180.8896 9.5933638 255 255 255
6859.8594 1352.7897 8.4290113 255 255 255
388.50861 640.84186 1.359484 255 255 255
-83.052933 -63.485294 -1.1014619 255 255 255
73.541504 934.33929 1.4346423 255 255 255
-5352.2969 -2634.0806 -6.7527542 255 255 255
157.05971 96.268463 0.19499139 255 255 255
83.951691 232.71919 0.60549533 255 255 255
-126.75458 -356.38159 -1.4640098 255 255 255
134.01369 594.67847 1.1163926 255 255 255
-477.52966 -497.90744 -2.1273894 255 255 255
195.19234 187.84398 0.73070103 255 255 255
3420.105 1485.3503 4.7820935 255 255 255
4718.7559 1983.7462 5.3871098 255 255 255
423.38162 564.43994 0.57406729 255 255 255
233.03882 275.56235 0.88013566 255 255 255
-222.77689 -192.37822 -1.2667918 255 255 255
-8763.3076 -8466.957 -19.975449 255 255 255
3027.0427 3573.4526 7.0298166 255 255 255
322.927 388.86353 2.7173789 255 255 255
6175.4312 2374.4927 5.9736819 255 255 255
6112.7188 2366.23 5.9392977 255 255 255
238.77592 277.77341 0.89217967 255 255 255
112.42817 112.65752 0.46864781 255 255 255
1003.4553 1022.7399 1.8425126 255 255 255
698.6524 833.41699 1.8053735 255 255 255
75.472656 159.32394 0.32090288 255 255 255
-393.19064 -241.64418 -1.54738 255 255 255
177.6326 293.11884 0.62042326 255 255 255
1099.1365 4790.2876 8.9194489 255 255 255
-1613.618 -1334.7421 -3.244612 255 255 255
-1819.053 -686.64081 -2.8218405 255 255 255
1654.0286 1330.1089 2.6830213 255 255 255
-1477.6436 -514.69037 -2.4667115 255 255 255
5037.1353 2414.5105 5.1774402 255 255 255
2842.6877 2057.0593 3.6921749 255 255 255
-52.315014 -104.95953 -1.2115936 255 255 255
42.536709 719.99573 1.2219487 255 255 255
1425.3916 1414.8019 2.6081638 255 255 255
1423.6604 1421.7964 2.6105621 255 255 255
2864.6841 2057.8838 3.7089787 255 255 255
5069.2905 2694.6262 4.9735222 255 255 255
2852.4885 2045.3173 3.7066224 255 255 255
2600.8882 972.73877 4.4401708 255 255 255
3942.4731 1636.307 7.559094 255 255 255
2339.3491 920.6167 4.1518106 255 255 255
363.55832 258.23605 0.899468 255 255 255
2510.304 996.26422 4.2758079 255 255 255
2662.5317 1031.8622 4.4384089 255 255 255
-1476.0554 -624.85211 -2.5203292 255 255 255
2172.5037 920.9505 3.8927815 255 255 255
1882.1304 854.40869 3.527091 255 255 255
39.84528 120.22439 0.36310139 255 255 255
1589.1158 793.08063 3.1349897 255 255 255
436.8844 1192.8629 1.7535206 255 255 255
245.98871 281.92056 0.9062646 255 255 255
232.44046 278.60019 0.87933725 255 255 255
118.28536 106.83736 0.1397872 255 255 255
5664.6108 5816.5527 10.822856 255 255 255
238.03239 282.5423 0.89113301 255 255 255
-1166.3112 -427.37787 -2.4724152 255 255 255
1734.0901 916.20618 3.2345507 255 255 255
1024.8173 677.19507 2.293076 255 255 255
-71.522278 -493.34775 -2.5038133 255 255 255
2186.5686 1143.6497 3.6548722 255 255 255
3891.5791 1617.8569 5.1125269 255 255 255
4167.1201 2075.2571 4.3642993 255 255 255
-102.2386 -104.61707 -1.1716509 255 255 255
1975.8782 1189.494 3.343713 255 255 255
2149.947 2776.5315 22.103512 255 255 255
1644.5592 1104.2047 2.9760787 255 255 255
202.61685 415.34967 0.96818912 255 255 255
1637.9351 1110.549 2.9561267 255 255 255
1627.6383 1113.28 2.9410136 255 255 255
-489742.06 -216938.16 -791.30994 255 255 255
1629.4232 1096.3862 2.9607093 255 255 255
229.21843 275.60004 0.87325823 255 255 255
2591.6301 1001.6077 4.3865604 255 255 255
2342.8665 960.94611 4.0903044 255 255 255
6011.0933 22586 43.472542 255 255 255
-1247.7034 -778.06311 -2.8025954 255 255 255
6161.8525 2409.739 5.9462075 255 255 255
36.852352 109.70802 0.33675298 255 255 255
-1359.4805 -757.06342 -2.6934478 255 255 255
395.92371 634.85492 1.3624059 255 255 255
-20616.445 -4052.7756 -23.904234 255 255 255
2943.5498 679.75885 3.895221 255 255 255
2042.1429 885.12183 3.7372129 255 255 255
6105.4014 2400.0581 5.8953228 255 255 255
-142.2124 -205.97255 -1.233346 255 255 255
4756.854 1448.4757 6.2755432 255 255 255
255.08943 233.45239 0.6548537 255 255 255
1408.2214 1416.9456 2.5911734 255 255 255
-801.52539 -294.47537 -1.8324469 255 255 255
131.99861 79.922897 0.14939111 255 255 255
162.46889 527.17114 1.0535569 255 255 255
-22895.463 -7436.9883 -39.247662 255 255 255
156.01181 123.59161 0.5856266 255 255 255
1737.0327 825.24609 3.3377433 255 255 255
164.76418 202.27347 0.67872912 255 255 255
174.58766 486.32996 1.0176706 255 255 255
286.36893 386.89157 1.0492573 255 255 255
557.58221 483.92041 1.4745898 255 255 255
-1561.6162 -1820.8428 -3.9998934 255 255 255
146.12242 152.71368 0.34263262 255 255 255
242.21419 423.91754 1.020762 255 255 255
146.7074 563.20844 1.0814779 255 255 255
-191.45403 -358.68652 -1.5054755 255 255 255
-5172.958 -1597.6316 -6.71455 255 255 255
1933.0741 7506.7437 13.750113 255 255 255
139.43419 564.94769 1.0820299 255 255 255
161.67906 133.5894 0.60993862 255 255 255
-1070.2064 -2198.6052 -5.4737644 255 255 255
183.0289 99.780762 0.37207165 255 255 255
1407.3533 1407.3652 2.5955448 255 255 255
-337.14444 -337.76935 -1.590711 255 255 255
90.664085 221.85579 0.5950318 255 255 255
-1355.2534 -711.51617 -2.6507144 255 255 255
-1469.0435 -357.58334 -2.75137 255 255 255
141.02365 572.34283 1.0912786 255 255 255
3822.5889 1117.6522 5.8514557 255 255 255
846.07318 1292.8258 2.7244577 255 255 255
2890.0425 2054.5269 3.737031 255 255 255
-3832.1345 -951.60651 -5.9725089 255 255 255
1442.3893 1421.4153 2.6292801 255 255 255
48532.367 14118.78 59.861134 255 255 255
873.79126 438.52747 2.1874866 255 255 255
2374.4236 1616.9862 3.5170307 255 255 255
206.70277 179.94594 0.87506175 255 255 255
378.44141 377.88528 1.1952413 255 255 255
187.70306 216.54391 0.81072116 255 255 255
166.65956 480.27374 1.0067612 255 255 255
247.39052 472.33011 0.91809303 255 255 255
3016.0212 1519.187 5.0730629 255 255 255
138.23482 583.82959 1.102384 255 255 255
142.6048 585.19019 1.1053629 255 255 255
161.98431 34.008831 0.2742452 255 255 255
112.51966 116.07591 0.47396931 255 255 255
-1623.46 -619.83362 -2.7586355 255 255 255
4404.2632 2539.1274 5.8286405 255 255 255
6187.0659 2393.2964 5.9829521 255 255 255
-4895.8301 -19003.699 -36.634872 255 255 255
5119.5254 18858.225 36.646793 255 255 255
181.43079 485.9071 1.0217632 255 255 255
2889.311 2060.7847 3.7332959 255 255 255
-7062.3628 -4588.896 -14.184632 255 255 255
-298.2265 -300.03168 -1.5413623 255 255 255
-1574.6298 -892.70197 -2.7211816 255 255 255
140.57327 595.45502 1.1158786 255 255 255
-5919.7246 -8150.7402 -17.061789 255 255 255
227.54539 431.62875 1.0089524 255 255 255
-1852.2017 -1241.8707 -3.4066331 255 255 255
184.80466 828.77771 1.3619795 255 255 255
141.04932 590.74841 2.1978562 255 255 255
4985.2456 1371.2865 4.7583919 255 255 255
3130.637 1046.6298 3.4900429 255 255 255
-805.08435 -547.51318 -1.955019 255 255 255
36.63813 727.18109 1.2343549 255 255 255
-1399.4457 -779.78455 -3.1851871 255 255 255
4592.5708 2929.7625 4.9934444 255 255 255
-1709.4618 -822.64777 -3.3289158 255 255 255
1219.4165 892.21643 2.4953687 255 255 255
159.01038 182.25587 0.75021994 255 255 255
-71.309608 -514.62823 -1.9988097 255 255 255
-58.961727 -105.01694 -1.2226622 255 255 255
1564.5182 979.88409 2.9472096 255 255 255
296.11536 398.70169 1.0683439 255 255 255
829.40192 303.94186 1.7697632 255 255 255
-673.97772 -810.33777 -2.9284806 255 255 255
938.19507 660.91589 2.1592426 255 255 255
-340.8501 -93.647453 -1.3755105 255 255 255
40.211864 736.45532 1.2416455 255 255 255
950.34625 661.3866 2.1816468 255 255 255
1731.261 928.62555 3.2267873 255 255 255
1136.0328 473.51965 2.6846921 255 255 255
-8701.6758 -2620.6953 -10.845554 255 255 255
76.934189 194.2318 0.53979897 255 255 255
