ply
format ascii 1.0
comment PCL generated
element vertex 1063
property float x
property float y
property float z
property uchar red
property uchar green
property uchar blue
element face 0
element camera 0
property float view_px
property float view_py
property float view_pz
property float x_axisx
property float x_axisy
property float x_axisz
property float y_axisx
property float y_axisy
property float y_axisz
property float z_axisx
property float z_axisy
property float z_axisz
property float focal
property float scalex
property float scaley
property float centerx
property float centery
property int viewportx
property int viewporty
property float k1
property float k2
end_header
-32.957008 -65.387466 -1.1440595 255 255 255
-17.455841 -68.998871 -1.1440032 255 255 255
-3.1294434 -72.881638 -1.1717257 255 255 255
-20.417103 -67.958549 -1.1360582 255 255 255
2.8390179 -71.874702 -1.1298846 255 255 255
-32.612198 -64.376091 -1.1143861 255 255 255
-13.693233 -69.486488 -1.1487124 255 255 255
16.159582 -68.206703 -1.0938165 255 255 255
-17.798038 -69.349617 -1.154476 255 255 255
-10.197035 -66.026352 -1.0813963 255 255 255
-18.020803 -67.942787 -1.1725243 255 255 255
175.25856 -54.952553 -0.71795005 255 255 255
-14.517626 -66.285721 -1.0581485 255 255 255
-10.524534 -70.414009 -1.1812483 255 255 255
10.488897 -72.549477 -1.1363943 255 255 255
-20.746489 -76.878769 -1.3254926 255 255 255
-24.365023 -64.671318 -1.0921382 255 255 255
-12.851286 -69.196907 -1.1461864 255 255 255
1482.5332 112.772 1.4339136 255 255 255
10.547503 -72.190727 -1.0942822 255 255 255
-8708.9482 67.229126 -12.158629 255 255 255
454.3606 -76.870979 -0.44481024 255 255 255
-29.491112 -64.98365 -1.1186416 255 255 255
-6.8438778 -69.617882 -1.1329654 255 255 255
-16.52944 -68.2397 -1.1232473 255 255 255
-46.053799 -67.42247 -1.2349277 255 255 255
-8.1358995 -70.564919 -1.1439248 255 255 255
-8.4420738 -69.359695 -1.1559678 255 255 255
-6.0905175 -66.05777 -1.0796375 255 255 255
3.8509107 -70.185783 -1.0977583 255 255 255
-19.386852 -62.83205 -1.0682847 255 255 255
175.14214 -66.00769 -0.7276575 255 255 255
182.53496 -52.37146 -0.75157464 255 255 255
-18.955538 -72.51178 -1.221966 255 255 255
-33.008625 -63.531895 -1.1216458 255 255 255
1.3169925 -72.756851 -1.2052587 255 255 255
-8.5487862 -66.291214 -1.0742654 255 255 255
-2.8349121 -72.886009 -1.1573366 255 255 255
-22.177748 -65.705177 -1.1204453 255 255 255
-23.221594 -65.399269 -1.1023442 255 255 255
-25.567659 -63.36824 -1.096656 255 255 255
-21.122059 -65.515091 -1.1428018 255 255 255
-28.484173 -65.317787 -1.1284671 255 255 255
-11.83303 -67.272789 -1.1041397 255 255 255
-23.503025 -68.074188 -1.1479805 255 255 255
-5.739769 -69.414482 -1.1414524 255 255 255
-40.442142 -62.331985 -1.1140999 255 255 255
-9.4631681 -67.665634 -1.109493 255 255 255
-20.807013 -68.053673 -1.1498147 255 255 255
-37.816975 -68.978073 -1.2062496 255 255 255
-18.228968 -69.716972 -1.1787186 255 255 255
21.551754 -71.713791 -1.0913868 255 255 255
151.79489 -59.494839 -0.68905658 255 255 255
1.7999929 -68.54303 -1.134666 255 255 255
-30.740223 -63.047905 -1.1160169 255 255 255
-33.703506 -63.493019 -1.1190698 255 255 255
6.5310774 -69.900558 -1.0913451 255 255 255
6.7353339 -68.279037 -1.0796561 255 255 255
-31.287785 -63.270599 -1.1339769 255 255 255
-9.9461699 -64.611328 -1.0831721 255 255 255
-22.974899 -62.383991 -1.0931355 255 255 255
-16.431875 -66.850861 -1.0891801 255 255 255
-3.9137139 -70.652802 -1.1153815 255 255 255
-724.19513 -89.371185 -2.0611055 255 255 255
3.2541602 -68.05603 -1.0731611 255 255 255
-24.31424 -64.379478 -1.1088207 255 255 255
-20.069874 -63.342491 -1.0815949 255 255 255
-22.817945 -67.241638 -1.12745 255 255 255
5.5122161 -72.97818 -1.1477926 255 255 255
-6.3254724 -67.845474 -1.08434 255 255 255
-10.287207 -69.472649 -1.1236136 255 255 255
-11.86065 -67.197754 -1.1149415 255 255 255
-804.52679 -92.396919 -2.6597888 255 255 255
-29.824261 -63.514416 -1.1063521 255 255 255
-4.0197277 -70.040825 -1.1077219 255 255 255
11.568018 -74.174355 -1.1826583 255 255 255
-12.532516 -65.640823 -1.0819334 255 255 255
-32.434887 -65.395576 -1.1327496 255 255 255
15.265897 -74.454285 -1.1220447 255 255 255
-28.37995 -65.807899 -1.136569 255 255 255
-21.414392 -66.957886 -1.1120026 255 255 255
1.4611322 -69.807648 -1.0991455 255 255 255
-35.70517 -60.196419 -1.0550067 255 255 255
-2.2199316 -68.801216 -1.101627 255 255 255
-4.0406179 -68.609871 -1.091803 255 255 255
-18.694746 -62.567295 -1.0869294 255 255 255
-19.060076 -65.312836 -1.0905775 255 255 255
-38.881897 -62.805645 -1.1271756 255 255 255
-30.261282 -63.742188 -1.1029127 255 255 255
476.45975 -39.543873 -0.1041186 255 255 255
-5.9283423 -70.083717 -1.1213814 255 255 255
0.47810674 -67.643204 -1.0785891 255 255 255
7.6688166 -71.645538 -1.1281581 255 255 255
-8.4105949 -69.313995 -1.1159239 255 255 255
12.876338 -70.506844 -1.0906028 255 255 255
-25.536221 -65.813179 -1.1117324 255 255 255
95.962746 -61.023327 -0.85577255 255 255 255
-912.48669 -94.292549 -2.4102492 255 255 255
-25.351473 -66.336479 -1.1277176 255 255 255
7.740099 -71.692596 -1.1231718 255 255 255
-19.197231 -70.903572 -1.1902473 255 255 255
-0.74962223 -75.378601 -1.1980562 255 255 255
-9.2950325 -67.131256 -1.0990286 255 255 255
-1883.1622 -54.184929 -4.0141993 255 255 255
-19.371832 -64.782631 -1.0869246 255 255 255
-23.720863 -64.891052 -1.1064857 255 255 255
9.6362038 -74.072105 -1.1574477 255 255 255
-3.8857794 -69.031525 -1.1053622 255 255 255
22.896635 -66.369995 -1.1067319 255 255 255
-9.0725222 -65.669441 -1.0856426 255 255 255
-3.7818701 -69.476326 -1.1314845 255 255 255
2.9258335 -69.997787 -1.1288285 255 255 255
301.76767 -34.382061 -0.27305344 255 255 255
-5.847394 -66.827759 -1.0781838 255 255 255
-24.131155 -62.640312 -1.0544624 255 255 255
-6.0926428 -70.010231 -1.1147324 255 255 255
-3.754406 -68.780136 -1.0723343 255 255 255
-5.6056981 -71.921196 -1.1690928 255 255 255
-21.9841 -65.3536 -1.0942174 255 255 255
-11.951436 -73.666069 -1.2262658 255 255 255
-20.401003 -67.020119 -1.1072012 255 255 255
14.933716 -72.341354 -1.1276112 255 255 255
-21.625628 -74.338524 -1.2785625 255 255 255
21.340815 -75.695335 -1.1942052 255 255 255
-28.494867 -64.218246 -1.1094687 255 255 255
1.4204752 -69.310486 -1.1201941 255 255 255
147.06761 -64.258156 -0.76789039 255 255 255
-15.831398 -64.913506 -1.0603362 255 255 255
1.7399408 -70.87056 -1.1250755 255 255 255
-8.4505186 -66.97361 -1.0773667 255 255 255
-18.330957 -67.785225 -1.116549 255 255 255
14.493505 -67.674026 -1.0945165 255 255 255
14.572392 -70.149048 -1.1016291 255 255 255
216.79643 -62.488434 -0.63123602 255 255 255
-16.076941 -67.45034 -1.1295408 255 255 255
-23.112333 -60.682716 -1.0682448 255 255 255
-6.937253 -66.45105 -1.0833018 255 255 255
-20.769503 -66.446144 -1.0953203 255 255 255
5.5678234 -69.045311 -1.0968368 255 255 255
350.05823 -33.23674 -0.54932797 255 255 255
807.94098 -26.823931 0.59817475 255 255 255
-47.489841 -62.374992 -1.152119 255 255 255
-22.272829 -68.705215 -1.1569031 255 255 255
0.73286974 -69.628822 -1.1005297 255 255 255
11.91748 -77.598518 -1.1772571 255 255 255
-14.92371 -67.356606 -1.1156472 255 255 255
19.967068 -72.275703 -1.1132303 255 255 255
170.74208 -72.502953 -0.78506988 255 255 255
-18.434057 -65.742554 -1.1036938 255 255 255
-14.15686 -67.293617 -1.1105071 255 255 255
-16.774981 -65.989128 -1.102154 255 255 255
-20.849655 -70.085358 -1.1857471 255 255 255
-16.255552 -70.916809 -1.1587576 255 255 255
-8.9141426 -70.53643 -1.1532414 255 255 255
-29.658041 -63.27523 -1.1000092 255 255 255
-8.2922888 -67.780746 -1.1030097 255 255 255
-22.21368 -64.176521 -1.0937687 255 255 255
-9.8621588 -68.499313 -1.1116693 255 255 255
-9.1653795 -69.261444 -1.1212604 255 255 255
-22.819704 -67.469963 -1.1331246 255 255 255
-18.845076 -64.463791 -1.1290697 255 255 255
-17.090729 -72.468903 -1.221796 255 255 255
-21.87426 -68.564117 -1.1611712 255 255 255
4.8050318 -71.939651 -1.1359543 255 255 255
-21.646978 -74.342117 -1.2786527 255 255 255
5.4532995 -72.537277 -1.1359549 255 255 255
-17.451803 -69.000938 -1.1440465 255 255 255
-3.0278234 -67.894035 -1.0779374 255 255 255
-9.0681534 -66.036911 -1.1073349 255 255 255
-13.866877 -66.582314 -1.1059358 255 255 255
-16.66151 -73.118034 -1.2337064 255 255 255
-9.0092077 -67.691109 -1.0949363 255 255 255
246.26088 -78.049141 -0.69296336 255 255 255
-12.808278 -70.46743 -1.1629006 255 255 255
-2.4887168 -69.566383 -1.107265 255 255 255
-21.114899 -78.011131 -1.3199236 255 255 255
-20.212658 -67.35022 -1.1002449 255 255 255
-14.314393 -66.989792 -1.105709 255 255 255
-17.823734 -66.896622 -1.1323124 255 255 255
-33.394405 -64.423073 -1.1479365 255 255 255
-12.361631 -72.331619 -1.1989493 255 255 255
-19.938698 -66.282135 -1.0869869 255 255 255
-24.034079 -67.540077 -1.1373507 255 255 255
-399.88144 -90.837318 -1.8045968 255 255 255
-17.585993 -66.198883 -1.1041156 255 255 255
-10.086132 -70.205353 -1.1074514 255 255 255
-20.083168 -66.295204 -1.0909907 255 255 255
-2.0766437 -66.341949 -1.0863644 255 255 255
-26.733755 -64.849632 -1.0928397 255 255 255
-15.404487 -67.258255 -1.0968329 255 255 255
356.43167 -35.326359 -0.50867659 255 255 255
-2.6468437 -68.831047 -1.1109192 255 255 255
-10.210425 -66.419472 -1.0859588 255 255 255
-20.220901 -66.764626 -1.0987376 255 255 255
63513.484 2586.7808 108.18968 255 255 255
-18.831488 -71.212692 -1.2018914 255 255 255
-15.633257 -65.916031 -1.0842624 255 255 255
-25.464783 -64.215714 -1.093655 255 255 255
9.8164549 -72.174576 -1.0980197 255 255 255
1.2891818 -69.73381 -1.0977435 255 255 255
1421.4451 30.810848 1.8125504 255 255 255
-22.514572 -70.489388 -1.2020508 255 255 255
-18.768206 -67.55999 -1.1143413 255 255 255
108.74654 -68.529297 -0.8341558 255 255 255
-24.873302 -64.728401 -1.1408044 255 255 255
-5.713882 -70.936485 -1.132185 255 255 255
-29.196138 -61.96526 -1.1032985 255 255 255
180.25063 -58.845512 -0.62254465 255 255 255
-33.370884 -62.541233 -1.116855 255 255 255
-14.759776 -72.153587 -1.2050253 255 255 255
-20.686476 -66.442635 -1.0945326 255 255 255
-4.9768324 -72.028992 -1.1401236 255 255 255
2.871706 -69.948425 -1.1189041 255 255 255
-21.462809 -73.716492 -1.26544 255 255 255
-18.099285 -68.813026 -1.1425967 255 255 255
-9.6431036 -66.911835 -1.0981609 255 255 255
20.765621 -70.959991 -1.0947382 255 255 255
-1.7283632 -72.349716 -1.1962588 255 255 255
-14.698626 -65.825356 -1.0884097 255 255 255
-21.248777 -66.522491 -1.1101435 255 255 255
-9.9282503 -64.910973 -1.1049794 255 255 255
16.385748 -73.193962 -1.1189291 255 255 255
-12.354959 -67.346161 -1.1005379 255 255 255
6.4648328 -72.490608 -1.1257852 255 255 255
10.584494 -74.018555 -1.1744958 255 255 255
-31.190714 -63.974812 -1.1176901 255 255 255
-1.6472377 -66.937729 -1.0763909 255 255 255
-15.053336 -71.329483 -1.1880244 255 255 255
217.9422 -59.128002 -0.64308155 255 255 255
-13.825369 -65.671066 -1.0800402 255 255 255
-2.0961251 -69.539604 -1.0820442 255 255 255
25.906994 -68.46637 -1.1306218 255 255 255
-13.128098 -67.457146 -1.1045731 255 255 255
-0.023567976 -70.799507 -1.1357002 255 255 255
-19.789486 -67.599472 -1.1314245 255 255 255
155.24083 -63.392586 -0.70860237 255 255 255
-24.635073 -68.194 -1.1599348 255 255 255
-22.547449 -66.358345 -1.1110867 255 255 255
12.566684 -71.364586 -1.1109462 255 255 255
-29.581015 -65.966446 -1.1766881 255 255 255
3.0619617 -75.514214 -1.1863668 255 255 255
-15.282609 -65.412209 -1.0659698 255 255 255
6.089407 -71.766304 -1.1809473 255 255 255
5.2475014 -70.740486 -1.1185822 255 255 255
-32.720909 -62.361988 -1.1101266 255 255 255
-7.1543984 -70.236801 -1.1329923 255 255 255
0.095638901 -66.731163 -1.0788991 255 255 255
-34.903156 -66.437126 -1.1659046 255 255 255
-14.882049 -67.094772 -1.0885789 255 255 255
4.6003666 -68.306595 -1.1103822 255 255 255
9.1600809 -75.283524 -1.146163 255 255 255
-8.3715544 -68.149353 -1.1393656 255 255 255
-23.1544 -68.004105 -1.1479244 255 255 255
-5.8339496 -67.17144 -1.0827678 255 255 255
-20.063877 -64.489258 -1.0861775 255 255 255
-6.74825 -66.36261 -1.0738807 255 255 255
-8.3679314 -69.223778 -1.1358644 255 255 255
439.94247 -59.68462 -0.21373984 255 255 255
-20.731077 -65.51516 -1.1014576 255 255 255
-17.809677 -65.865562 -1.1061211 255 255 255
-5.5641403 -66.329628 -1.0779395 255 255 255
10.988364 -75.908363 -1.1988767 255 255 255
-15.437782 -71.507874 -1.19357 255 255 255
-2.0787237 -68.864586 -1.1200817 255 255 255
-22.7265 -67.967308 -1.1449835 255 255 255
-13.480584 -68.154396 -1.0951396 255 255 255
5.3235207 -67.701668 -1.0871456 255 255 255
-18.000999 -68.855156 -1.1431587 255 255 255
-11.754451 -65.348473 -1.0588415 255 255 255
-6.0061669 -68.270294 -1.1070281 255 255 255
-8.5665169 -67.486099 -1.1018703 255 255 255
5.5473013 -69.103477 -1.0740794 255 255 255
1.6354688 -74.354736 -1.1830302 255 255 255
183.89279 -55.109749 -0.60915953 255 255 255
1333.2925 -85.875496 0.8291344 255 255 255
-12.450938 -71.7146 -1.1772622 255 255 255
-15.387848 -68.54911 -1.0949233 255 255 255
162.26027 -66.681145 -0.73725301 255 255 255
-15.174008 -71.595993 -1.1945654 255 255 255
-20.312195 -66.324409 -1.0921336 255 255 255
-14.832932 -74.185524 -1.2207948 255 255 255
-0.8955276 -70.409607 -1.0919191 255 255 255
-15.979751 -65.869255 -1.0916876 255 255 255
-20.621351 -66.932808 -1.1062968 255 255 255
1.4544986 -70.000374 -1.0802212 255 255 255
16.742798 -72.026939 -1.1148236 255 255 255
-4.7788358 -67.475281 -1.0836754 255 255 255
-21.873508 -62.996944 -1.0966514 255 255 255
-1.3870461 -70.603912 -1.1188835 255 255 255
12.799287 -72.95977 -1.1214061 255 255 255
-19.499039 -70.316101 -1.1849394 255 255 255
188.97313 -64.62896 -0.68626428 255 255 255
22.545176 -71.332634 -1.1055422 255 255 255
8.5537071 -72.824837 -1.1453543 255 255 255
-13.354487 -71.045128 -1.1738019 255 255 255
3.9926257 -71.492104 -1.1370028 255 255 255
-13.345916 -68.615959 -1.1119485 255 255 255
-18.952057 -63.283409 -1.0971612 255 255 255
-21.866381 -64.907021 -1.0943753 255 255 255
155.06184 -68.199997 -0.75072092 255 255 255
13.447075 -70.991844 -1.0952165 255 255 255
-8.3007145 -71.142845 -1.16465 255 255 255
-31.626358 -61.977726 -1.110736 255 255 255
-32.011108 -63.401398 -1.1047636 255 255 255
-12.682896 -64.551628 -1.0672958 255 255 255
-27.431505 -67.010475 -1.1235857 255 255 255
-7.0834317 -68.723793 -1.0985193 255 255 255
-7.6029615 -64.797951 -1.054082 255 255 255
5.6930881 -75.300003 -1.1899424 255 255 255
-24.34137 -68.945244 -1.1753287 255 255 255
-10.727972 -73.21994 -1.1570547 255 255 255
-23.959501 -68.133179 -1.1550759 255 255 255
-13.935989 -66.035683 -1.1003464 255 255 255
-3.0840082 -67.948753 -1.0775766 255 255 255
117.44936 -65.779984 -0.83720142 255 255 255
-18.821451 -70.913528 -1.1952409 255 255 255
-3.0677736 -68.400452 -1.1058345 255 255 255
-37.87429 -62.683933 -1.1077019 255 255 255
3.357852 -71.197197 -1.125973 255 255 255
-9.6685534 -68.663681 -1.0823739 255 255 255
-5.3901763 -64.424347 -1.08257 255 255 255
-6.3791084 -70.385757 -1.1261296 255 255 255
280.77386 -86.493347 -0.73329967 255 255 255
2.1625106 -70.221092 -1.1201463 255 255 255
-21.136524 -52.841698 -1.07572 255 255 255
-11.061233 -67.320335 -1.1066513 255 255 255
-20.523067 -66.530144 -1.094785 255 255 255
4.7475953 -72.020607 -1.1055367 255 255 255
-15.021203 -69.908356 -1.1171454 255 255 255
15.006329 -72.16481 -1.1012648 255 255 255
-14.256116 -65.74144 -1.0883875 255 255 255
-22.00194 -62.560162 -1.0819283 255 255 255
-38.241505 -60.727402 -1.0975044 255 255 255
11.348642 -70.992615 -1.0984207 255 255 255
1.7286167 -73.906082 -1.1775899 255 255 255
1.4913763 -69.818954 -1.076966 255 255 255
-10.21882 -70.947342 -1.1442772 255 255 255
9.7956944 -75.44249 -1.1851577 255 255 255
-3.412483 -67.922379 -1.0812134 255 255 255
-6.9347568 -67.23336 -1.0823499 255 255 255
0.81892055 -67.687813 -1.0905932 255 255 255
3.4656708 -61.930958 -1.0661087 255 255 255
235.31097 -41.859985 -0.57156193 255 255 255
-7.7942591 -66.126266 -1.0801599 255 255 255
-1.3558499 -71.122192 -1.1270542 255 255 255
-7.703021 -68.709526 -1.1226497 255 255 255
-27.930632 -65.882439 -1.1200217 255 255 255
-14.147249 -72.765106 -1.189129 255 255 255
-7.4795227 -70.238701 -1.1428572 255 255 255
-39.14563 -63.17128 -1.1201006 255 255 255
1.8575243 -64.497749 -1.0656785 255 255 255
-3.8293266 -69.376144 -1.1175101 255 255 255
9.9931784 -72.257645 -1.1168759 255 255 255
0.34279171 -72.107162 -1.1381798 255 255 255
-13.433031 -67.58593 -1.1056104 255 255 255
-18.519754 -66.792603 -1.155697 255 255 255
-1.0198525 -70.940933 -1.1187522 255 255 255
-337.00967 -58.727726 -1.3887689 255 255 255
-16.880573 -66.085129 -1.0836545 255 255 255
-13.186534 -63.386105 -1.0992191 255 255 255
3.1975019 -72.272629 -1.1355785 255 255 255
177.51506 -67.21244 -0.73359233 255 255 255
-19.088991 -63.127682 -1.0866886 255 255 255
189.28178 -62.758427 -0.69404638 255 255 255
105.19942 -72.266838 -0.92075306 255 255 255
-16.030161 -64.608711 -1.0890929 255 255 255
190.44916 -67.45118 -0.70945668 255 255 255
-19.732374 -67.458961 -1.1181003 255 255 255
-0.79982281 -70.738464 -1.1180103 255 255 255
-26.981701 -63.8367 -1.1084105 255 255 255
10.15212 -75.552986 -1.1496866 255 255 255
-6.2547202 -74.313423 -1.1916732 255 255 255
0.64304119 -69.075775 -1.0908512 255 255 255
-29.84684 -62.058716 -1.0948781 255 255 255
-10.532398 -67.828133 -1.1483521 255 255 255
-8.9483747 -67.43718 -1.0811071 255 255 255
-20.996496 -63.597057 -1.0949489 255 255 255
-24.877333 -67.204376 -1.1424887 255 255 255
-20.828217 -70.085793 -1.1857078 255 255 255
-32.112808 -62.278011 -1.1079139 255 255 255
-3.6564581 -74.021584 -1.1753964 255 255 255
-19.110031 -72.614555 -1.2332364 255 255 255
-32.675533 -64.281921 -1.1463647 255 255 255
1.5284125 -67.859184 -1.0919334 255 255 255
-27.04188 -64.101242 -1.1053585 255 255 255
-36.882809 -63.320892 -1.1021878 255 255 255
-9.9239016 -68.586273 -1.104702 255 255 255
1127.465 -80.47892 0.45809722 255 255 255
-1.2929032 -71.324059 -1.1312138 255 255 255
-17.131008 -70.060699 -1.1681963 255 255 255
-11.761746 -66.532188 -1.09361 255 255 255
-21.849499 -66.408546 -1.1054519 255 255 255
-20.974852 -68.945831 -1.1599382 255 255 255
-14.500012 -68.328346 -1.1350828 255 255 255
-9.9825687 -64.778496 -1.0821693 255 255 255
-1.5876355 -67.378487 -1.0799985 255 255 255
5.7339163 -69.839569 -1.1144103 255 255 255
-0.61821133 -79.22805 -1.2512122 255 255 255
-13.255743 -64.583427 -1.140414 255 255 255
-22.20435 -64.05603 -1.09176 255 255 255
-13.064404 -71.673531 -1.1870487 255 255 255
-9.7125349 -67.96888 -1.0915987 255 255 255
6.7337017 -71.991516 -1.1224152 255 255 255
-4.8656712 -68.87661 -1.1169966 255 255 255
1045.5018 -140.24403 -0.12170401 255 255 255
-12.882921 -71.447281 -1.1811515 255 255 255
-2.4698868 -68.722054 -1.1104721 255 255 255
-8.6709661 -66.210945 -1.0823764 255 255 255
-11.386314 -78.675888 -1.2904612 255 255 255
-12.878899 -73.613586 -1.2010666 255 255 255
-17.296648 -68.561867 -1.1321559 255 255 255
117.16437 -67.657135 -0.83164006 255 255 255
-15.838629 -78.870483 -1.2840613 255 255 255
188.29631 -70.68116 -0.73462802 255 255 255
-23.289215 -66.563576 -1.1232926 255 255 255
-22.412378 -65.223801 -1.09427 255 255 255
-8.8483219 -66.245003 -1.0809973 255 255 255
-24.777222 -65.417839 -1.0913014 255 255 255
-15.066713 -66.031952 -1.0872563 255 255 255
-7.6776981 -65.927582 -1.0813594 255 255 255
9.1618948 -71.361931 -1.0888196 255 255 255
-4.2826695 -69.514442 -1.1335868 255 255 255
-14.295234 -66.30201 -1.0893263 255 255 255
-26.354527 -74.595009 -1.301831 255 255 255
-19.524925 -65.376205 -1.1041702 255 255 255
-5.0316033 -67.161125 -1.096637 255 255 255
-16.533901 -65.800095 -1.1061348 255 255 255
-8.1274786 -69.816551 -1.0968177 255 255 255
-4.8495255 -70.741966 -1.1318448 255 255 255
0.21292371 -69.407944 -1.0731968 255 255 255
-12.303767 -67.355179 -1.0955986 255 255 255
-10.151896 -68.718353 -1.0866539 255 255 255
-10.493492 -81.647186 -1.3463869 255 255 255
-27.370312 -64.212692 -1.1104147 255 255 255
-33.898743 -64.832573 -1.1348219 255 255 255
15.883719 -79.209366 -1.1922568 255 255 255
-6.7058287 -65.125252 -1.0990975 255 255 255
-5.4213557 -71.88858 -1.1241164 255 255 255
-19.977888 -73.359581 -1.2522997 255 255 255
-10.432155 -77.789726 -1.261117 255 255 255
-2.9276731 -70.184952 -1.1410084 255 255 255
5.7969742 -68.305107 -1.0744513 255 255 255
-8.4397974 -69.042007 -1.1346581 255 255 255
-7.4524679 -70.025398 -1.1357763 255 255 255
-3.0364792 -79.911964 -1.2446735 255 255 255
-20.955233 -66.753036 -1.1180103 255 255 255
-18.877787 -70.91568 -1.1955281 255 255 255
-53.244045 -61.251102 -1.1641315 255 255 255
6.1790433 -71.20549 -1.1349465 255 255 255
-9.1910133 -68.613503 -1.1166676 255 255 255
-42.32407 -67.565491 -1.2021189 255 255 255
-21.106089 -64.811546 -1.098202 255 255 255
-7.1503987 -68.382736 -1.0839411 255 255 255
-18.210426 -67.114586 -1.1059039 255 255 255
-0.30061373 -67.499596 -1.0754436 255 255 255
8.1465073 -76.606712 -1.2124892 255 255 255
-20.425095 -66.514984 -1.0935566 255 255 255
8.4193897 -72.599915 -1.1179671 255 255 255
-5.6368027 -73.144119 -1.1437434 255 255 255
18.689917 -74.549355 -1.1504544 255 255 255
-44.009876 -62.339783 -1.1174492 255 255 255
260.71701 -66.223785 -0.59422052 255 255 255
-22.667007 -66.801521 -1.128611 255 255 255
5.4756842 -69.813797 -1.1098331 255 255 255
-15.083714 -67.056541 -1.0845799 255 255 255
10.637492 -70.311073 -1.1136431 255 255 255
-1.0326653 -67.549522 -1.0797534 255 255 255
20178.168 -1042.3324 18.760262 255 255 255
-29.086874 -66.748596 -1.1532475 255 255 255
-26.430183 -65.566307 -1.1264876 255 255 255
-25.255522 -65.409859 -1.0992312 255 255 255
-1.5871462 -67.450371 -1.0802959 255 255 255
622.88373 -74.637787 -0.1639304 255 255 255
-21.204422 -68.989326 -1.1620181 255 255 255
-19.602079 -61.982216 -1.0893265 255 255 255
-41.261478 -60.334095 -1.1235067 255 255 255
-19.776699 -66.036095 -1.1072659 255 255 255
-11.89713 -68.369865 -1.1258758 255 255 255
-20.304567 -64.725838 -1.0753226 255 255 255
-7.7746601 -68.252846 -1.1138269 255 255 255
-1.6858245 -66.926735 -1.071891 255 255 255
-12.191874 -73.324898 -1.2198131 255 255 255
-19.045944 -63.082756 -1.0890919 255 255 255
-33.597168 -64.760612 -1.1298735 255 255 255
-2.0313332 -73.671112 -1.1688737 255 255 255
152.44057 -68.753288 -0.77828807 255 255 255
10.061834 -70.013329 -1.0947726 255 255 255
2.895076 -67.836472 -1.106874 255 255 255
1383.0392 72.636909 1.1648394 255 255 255
-5.3427029 -67.146492 -1.0854473 255 255 255
668.02576 -84.848648 -0.22561461 255 255 255
14.293627 -75.740044 -1.1427413 255 255 255
-34.304974 -64.594383 -1.1728343 255 255 255
-3.0791249 -70.575249 -1.1472558 255 255 255
363.73358 -58.686607 -0.4693664 255 255 255
-2.758182 -67.179337 -1.0748162 255 255 255
7.73491 -73.166931 -1.1489326 255 255 255
-16.151131 -67.304314 -1.1590368 255 255 255
178.05107 -65.899834 -0.72425854 255 255 255
-31.856495 -66.988716 -1.1458843 255 255 255
-3.5097811 -72.002182 -1.1359503 255 255 255
-30.874025 -65.257683 -1.1578192 255 255 255
-6.9786634 -69.517372 -1.1180471 255 255 255
9.910862 -74.750137 -1.1376398 255 255 255
-11.011107 -68.756874 -1.125212 255 255 255
180.04578 -66.915359 -0.6963526 255 255 255
-42.298531 -62.553818 -1.1100837 255 255 255
-20.583775 -66.923546 -1.105726 255 255 255
-22.866215 -67.35968 -1.1304804 255 255 255
91.001404 -70.9375 -0.91740048 255 255 255
9.2672625 -71.602051 -1.118185 255 255 255
-27.526615 -64.933868 -1.1173784 255 255 255
8.6565123 -70.459854 -1.1165237 255 255 255
147.23663 -72.361366 -0.8282401 255 255 255
-16.825323 -66.40023 -1.1088513 255 255 255
-18.995783 -69.721581 -1.1766677 255 255 255
-7.4932332 -72.492035 -1.1589364 255 255 255
-17.911348 -64.986237 -1.1020284 255 255 255
-0.46918082 -69.329025 -1.095716 255 255 255
7.4134102 -70.026886 -1.0997421 255 255 255
-21.468863 -68.708496 -1.1712571 255 255 255
-10.278314 -65.375824 -1.0852609 255 255 255
275.33173 -74.924438 -0.69487888 255 255 255
-9.9167957 -68.211494 -1.0959843 255 255 255
1.7896913 -73.605316 -1.1359918 255 255 255
-34.505001 -61.566021 -1.0775262 255 255 255
-5.7037916 -65.163788 -1.0802408 255 255 255
-3.8295784 -72.337471 -1.1735435 255 255 255
-8.5843706 -66.004654 -1.0834988 255 255 255
-41.580273 -63.286617 -1.1546158 255 255 255
-24.677523 -73.869591 -1.2650045 255 255 255
-12.322626 -66.487762 -1.126832 255 255 255
-35.948044 -63.404503 -1.1128074 255 255 255
-7.733582 -68.891579 -1.0812049 255 255 255
7.5602446 -70.04187 -1.1026899 255 255 255
223.44812 -61.989384 -0.65927076 255 255 255
-46.171852 -62.211002 -1.1191795 255 255 255
213.70319 -66.753242 -0.68357658 255 255 255
15.956033 -75.498085 -1.1641592 255 255 255
-8.2991323 -66.832687 -1.0794655 255 255 255
-20.65523 -66.374519 -1.0944923 255 255 255
-22.079731 -63.401417 -1.1165936 255 255 255
-9.2151337 -68.032364 -1.0977533 255 255 255
-15.495031 -66.954201 -1.0897475 255 255 255
-6.9525766 -67.299271 -1.0815569 255 255 255
-21.335999 -65.272629 -1.1104364 255 255 255
-1.6660821 -69.467339 -1.1090596 255 255 255
-24.129343 -66.159195 -1.1349678 255 255 255
-21.629244 -68.500717 -1.1524214 255 255 255
271.05118 -47.953812 -0.51110071 255 255 255
-7.9549894 -67.487106 -1.0805633 255 255 255
74.972954 -66.131119 -0.90561485 255 255 255
12.369346 -76.931808 -1.1899577 255 255 255
-13.384521 -63.039608 -1.0875738 255 255 255
-38.265522 -63.337048 -1.1292331 255 255 255
-13.408377 -66.187325 -1.1084248 255 255 255
-23.055262 -67.272919 -1.1297261 255 255 255
-37.258358 -63.683331 -1.1485857 255 255 255
12.610856 -69.097557 -1.0953256 255 255 255
-17.696077 -69.207542 -1.150437 255 255 255
-22.866488 -67.352791 -1.1303933 255 255 255
-6.4759531 -67.649712 -1.0848233 255 255 255
-1.8441138 -69.69278 -1.083129 255 255 255
-19.93483 -66.28331 -1.0888711 255 255 255
-2.0109377 -71.938942 -1.1525536 255 255 255
-2.2538261 -69.973335 -1.087792 255 255 255
12.452036 -68.478104 -1.1090276 255 255 255
8.1467085 -72.978592 -1.1353927 255 255 255
-21.711134 -67.883484 -1.1374457 255 255 255
-20.372484 -67.055466 -1.1080213 255 255 255
-10.601303 -73.094353 -1.1854136 255 255 255
-5.5373068 -72.235832 -1.1329857 255 255 255
245.92084 -81.746918 -0.74455446 255 255 255
-14.445949 -66.304878 -1.0896934 255 255 255
-8.7198668 -70.00544 -1.123539 255 255 255
95.870628 -67.438698 -0.87529355 255 255 255
19.039463 -74.241127 -1.1108766 255 255 255
-9.3281422 -69.516937 -1.1226202 255 255 255
-12.738292 -66.578285 -1.0757504 255 255 255
-0.34438822 -71.034317 -1.1219001 255 255 255
-18.296169 -67.462563 -1.1152773 255 255 255
-22.021811 -75.494705 -1.3026745 255 255 255
5.8284202 -71.291405 -1.0910777 255 255 255
-1.4142218 -69.324715 -1.0760784 255 255 255
5.8964791 -74.001732 -1.1495748 255 255 255
152.12105 -68.739388 -0.77870327 255 255 255
-19.176094 -68.753883 -1.1321532 255 255 255
-2.7862675 -69.536163 -1.1035571 255 255 255
8.1369019 -73.706947 -1.1269498 255 255 255
-22.532221 -68.166695 -1.148663 255 255 255
-10.139394 -67.761978 -1.0895638 255 255 255
-9.887723 -71.141922 -1.1210445 255 255 255
-24.273294 -67.958008 -1.152433 255 255 255
454.17172 -76.871597 -0.44508469 255 255 255
-18.843439 -65.511833 -1.0908965 255 255 255
-21.756605 -67.71534 -1.1333603 255 255 255
2.8849466 -71.517654 -1.1157817 255 255 255
-1785.7189 -327.26794 -4.8740768 255 255 255
7.7185888 -75.233955 -1.147404 255 255 255
-6.5771599 -67.774971 -1.0823671 255 255 255
234.58572 -76.078224 -0.6794576 255 255 255
5.8994393 -72.903831 -1.1367927 255 255 255
-7.6394763 -70.964035 -1.1365187 255 255 255
-17.517662 -66.314133 -1.0928242 255 255 255
-26.623867 -64.703094 -1.0957646 255 255 255
-2.1871207 -69.293434 -1.1066576 255 255 255
3.6413419 -74.095955 -1.139939 255 255 255
239.5612 -75.822304 -0.66978735 255 255 255
-17.746229 -68.069267 -1.1377605 255 255 255
-5.2277355 -67.307327 -1.0855192 255 255 255
-7.5963173 -66.662415 -1.0793506 255 255 255
-10.580338 -69.792862 -1.1018425 255 255 255
-18.205818 -67.385262 -1.1104105 255 255 255
6.5379281 -72.672775 -1.1115737 255 255 255
-7.1484704 -68.535988 -1.1094732 255 255 255
15.942341 -72.448906 -1.1126564 255 255 255
6.7291908 -70.504753 -1.099687 255 255 255
-12.935334 -66.325539 -1.0814859 255 255 255
15.670272 -78.220421 -1.178556 255 255 255
-22.577744 -67.135376 -1.125367 255 255 255
-22.601954 -67.636452 -1.1361274 255 255 255
-10.231385 -70.633484 -1.1493164 255 255 255
504.62274 -36.011177 -0.31130713 255 255 255
4.2568097 -71.121796 -1.1212306 255 255 255
-5.9058089 -66.972771 -1.0683315 255 255 255
-7.7789497 -69.08506 -1.1089325 255 255 255
-11.93117 -69.758926 -1.1477026 255 255 255
-22.852655 -67.47538 -1.1334394 255 255 255
-10.866992 -69.537094 -1.1002326 255 255 255
6.5568128 -73.593391 -1.1256379 255 255 255
-29.692057 -66.812401 -1.1251658 255 255 255
-8.5718622 -67.689056 -1.0860447 255 255 255
-18.697836 -66.366982 -1.0847569 255 255 255
-2.9787538 -69.285744 -1.077847 255 255 255
-14.664536 -69.074425 -1.1413354 255 255 255
-12.261136 -66.621185 -1.0752199 255 255 255
-12.139321 -69.054939 -1.1239241 255 255 255
-14.53718 -66.285522 -1.0581802 255 255 255
-12.621878 -67.545074 -1.0926514 255 255 255
-14.140414 -64.461128 -1.0831883 255 255 255
-17.998112 -70.038483 -1.177429 255 255 255
-10.114439 -68.906212 -1.0890198 255 255 255
-0.68368268 -68.385414 -1.0892148 255 255 255
-25.079954 -65.086151 -1.1002954 255 255 255
-11.947421 -71.126175 -1.1527153 255 255 255
435.15234 -75.03981 -0.45879984 255 255 255
-683.93378 -53.297176 -1.9350407 255 255 255
36.256233 -63.821083 -0.99705571 255 255 255
-3.9576426 -70.199638 -1.1616455 255 255 255
-21.218641 -69.002045 -1.1622382 255 255 255
19.362602 -83.792694 -1.2992837 255 255 255
-9.5410385 -67.793526 -1.0913049 255 255 255
-11.166112 -65.175415 -1.0932426 255 255 255
-13.711262 -68.083069 -1.1023965 255 255 255
-19.222034 -66.233444 -1.0855517 255 255 255
-37.790813 -64.054947 -1.1360214 255 255 255
-7.0192771 -67.67485 -1.1024591 255 255 255
-6.8394084 -74.879539 -1.2181727 255 255 255
-35.71714 -68.305351 -1.2297692 255 255 255
-12.118724 -68.294197 -1.0972722 255 255 255
-12.62255 -64.051834 -1.0924889 255 255 255
-7.6036458 -72.852989 -1.183255 255 255 255
-1.89553 -73.048592 -1.1574931 255 255 255
-24.464956 -69.177551 -1.18097 255 255 255
15.212957 -102.19312 -1.6142564 255 255 255
7.5313439 -71.829727 -1.1164432 255 255 255
-21.302649 -66.289902 -1.0882124 255 255 255
-10.459871 -66.659431 -1.1108146 255 255 255
-4.9762869 -78.04464 -1.2529426 255 255 255
-3.8850129 -70.378754 -1.132344 255 255 255
-14.87623 -64.24173 -1.087595 255 255 255
-21.125595 -67.673836 -1.133552 255 255 255
147.91641 -72.370255 -0.82700759 255 255 255
-23.64542 -67.35498 -1.1132919 255 255 255
-23.324926 -67.100838 -1.1273936 255 255 255
-10.470595 -68.277382 -1.1168963 255 255 255
-13.193242 -67.420067 -1.1164656 255 255 255
-9.3893251 -65.535728 -1.1050291 255 255 255
-13.853192 -65.993744 -1.0879853 255 255 255
-4.2204113 -67.890648 -1.080883 255 255 255
-17.211277 -66.371017 -1.0954386 255 255 255
188.43047 -70.687294 -0.73437971 255 255 255
-28.006376 -63.885849 -1.0866344 255 255 255
-27.52762 -66.322296 -1.1253183 255 255 255
-20.0921 -69.530991 -1.1696811 255 255 255
-30.331396 -63.798141 -1.1012044 255 255 255
-8.9035749 -67.103691 -1.0755606 255 255 255
-19.243176 -66.920242 -1.1147565 255 255 255
-13.042097 -67.877571 -1.0972503 255 255 255
-17.23316 -69.091629 -1.1452477 255 255 255
196.1828 -65.321892 -0.6685279 255 255 255
1.4914072 -69.417442 -1.1218637 255 255 255
-20.118347 -67.334023 -1.1082295 255 255 255
-5.2937093 -68.75386 -1.1123928 255 255 255
-7.3783908 -65.345772 -1.0973979 255 255 255
-23.977568 -63.809444 -1.1018803 255 255 255
-27.615852 -60.748646 -1.0969198 255 255 255
13.126482 -70.619331 -1.1422253 255 255 255
-19.482969 -63.68684 -1.0721725 255 255 255
-30.307869 -63.541473 -1.0985053 255 255 255
4.9308944 -71.197556 -1.1275183 255 255 255
-9.8544893 -68.083542 -1.0875052 255 255 255
-3.9881852 -71.761574 -1.1484215 255 255 255
-24.761049 -71.544464 -1.2067022 255 255 255
2.0496342 -70.174843 -1.1077809 255 255 255
-8.627697 -66.715714 -1.0829494 255 255 255
44.293766 -78.120667 -1.1521813 255 255 255
-30.461544 -64.011726 -1.1262863 255 255 255
-12.40702 -67.642982 -1.0884099 255 255 255
-22.335943 -66.522568 -1.1390518 255 255 255
10.156052 -72.656418 -1.095358 255 255 255
18.969004 -67.536308 -1.101319 255 255 255
-23.576664 -64.786171 -1.1344631 255 255 255
-16.069763 -67.741592 -1.1299872 255 255 255
1.0724033 -66.213806 -1.0564375 255 255 255
252.88795 -67.572075 -0.6518088 255 255 255
-8.1725197 -65.959961 -1.055477 255 255 255
-16.962851 -66.534943 -1.0997577 255 255 255
-20.519472 -66.528679 -1.094752 255 255 255
-20.629128 -66.384148 -1.0935872 255 255 255
-32.936375 -68.963432 -1.2194009 255 255 255
-20.447908 -66.352409 -1.0943131 255 255 255
68.14476 -69.322464 -0.94598693 255 255 255
-13.381207 -77.460548 -1.3092591 255 255 255
-4.7788825 -69.107117 -1.0955933 255 255 255
-20.153759 -66.560234 -1.0925741 255 255 255
-1418.6133 -92.178856 -3.1249008 255 255 255
-19.111404 -72.639946 -1.2335929 255 255 255
-7.2866001 -66.054932 -1.0608109 255 255 255
-20.96871 -64.43792 -1.0934461 255 255 255
0.91386032 -70.312279 -1.0775324 255 255 255
-7.2106152 -66.919907 -1.0792735 255 255 255
-30.289501 -63.396366 -1.0972104 255 255 255
6.6597362 -73.356735 -1.1559774 255 255 255
-28.664059 -64.419441 -1.0891761 255 255 255
-17.064892 -68.84156 -1.1379653 255 255 255
-11.967736 -66.682854 -1.0830809 255 255 255
-3.5855331 -68.047882 -1.0796812 255 255 255
1.5866661 -71.374367 -1.1483793 255 255 255
-30.969862 -62.109394 -1.1076342 255 255 255
-26.789976 -64.164711 -1.1295427 255 255 255
169.39963 -66.816597 -0.72917849 255 255 255
-13.656533 -65.599632 -1.0920666 255 255 255
-7.9638257 -71.164871 -1.1387376 255 255 255
-16.146505 -66.442062 -1.0832882 255 255 255
218.64301 -69.069183 -0.61451626 255 255 255
-20.519091 -65.074829 -1.1287582 255 255 255
-34.606804 -62.27681 -1.1472034 255 255 255
-33.909344 -64.531685 -1.14642 255 255 255
-22.690594 -68.138741 -1.1599697 255 255 255
-0.17582849 -69.476486 -1.076437 255 255 255
-22.530781 -69.365303 -1.176765 255 255 255
180.31252 -68.492332 -0.72796792 255 255 255
-3.3036716 -67.327057 -1.0772475 255 255 255
-21.951975 -66.823502 -1.1357301 255 255 255
-16.862906 -74.090721 -1.254763 255 255 255
-6.0690432 -65.875664 -1.0772656 255 255 255
-2.8498981 -71.917427 -1.1204087 255 255 255
-2.7038009 -73.92849 -1.1964972 255 255 255
6.3357639 -70.506264 -1.112204 255 255 255
-0.52686226 -68.398499 -1.0995938 255 255 255
2.157495 -70.208427 -1.1151536 255 255 255
260.65616 -41.184006 -0.41722968 255 255 255
-12.689831 -68.175621 -1.1116749 255 255 255
-16.106581 -67.287125 -1.1115353 255 255 255
-34.503487 -62.984417 -1.1464818 255 255 255
-2299.4175 -82.48291 -4.4371667 255 255 255
-12.824426 -66.725143 -1.0835725 255 255 255
-15.558601 -66.566261 -1.0833496 255 255 255
-23.058157 -67.271416 -1.1297324 255 255 255
-25.036522 -67.444878 -1.1459364 255 255 255
-27.158657 -65.711937 -1.1001819 255 255 255
-18.06881 -74.979164 -1.2768952 255 255 255
-40.193787 -62.224964 -1.1255728 255 255 255
-23.80084 -69.436127 -1.198464 255 255 255
11.616673 -74.905518 -1.1552985 255 255 255
-20.308104 -63.855209 -1.0878675 255 255 255
-26.679049 -68.028435 -1.1532109 255 255 255
-19.178007 -66.390076 -1.0964818 255 255 255
-9.2636871 -67.11821 -1.1247799 255 255 255
-11.321353 -68.956673 -1.164928 255 255 255
-11.89924 -65.505928 -1.1525426 255 255 255
-35.05164 -66.549789 -1.1678324 255 255 255
-2.8311059 -70.901611 -1.1174631 255 255 255
-20.096766 -66.30941 -1.0912535 255 255 255
-3.2319891 -68.905128 -1.1218755 255 255 255
-9.811841 -66.752502 -1.0863224 255 255 255
-14.869337 -67.620171 -1.1167785 255 255 255
-17.651749 -65.52578 -1.0887843 255 255 255
-34.927299 -63.836502 -1.1115174 255 255 255
-17.067533 -69.995705 -1.1663783 255 255 255
739.18201 -68.19619 0.051577605 255 255 255
6.2290173 -70.404915 -1.1276945 255 255 255
-1.8675996 -68.110512 -1.077114 255 255 255
-1.1433029 -72.719421 -1.1628752 255 255 255
-5.4299884 -68.243477 -1.1148472 255 255 255
-15.327106 -65.441467 -1.0466259 255 255 255
2.7416868 -75.458 -1.2184814 255 255 255
-16.523966 -70.357864 -1.1721842 255 255 255
-29.931887 -65.406136 -1.1224709 255 255 255
-9.8604355 -66.410294 -1.099104 255 255 255
0.50514853 -64.201355 -1.0751867 255 255 255
-25.848774 -65.8862 -1.1140039 255 255 255
-22.804399 -67.195663 -1.1262296 255 255 255
-20.961128 -66.611595 -1.1000373 255 255 255
-9.9310694 -68.148476 -1.1087041 255 255 255
-15.766569 -68.566574 -1.124397 255 255 255
6.9979467 -72.459732 -1.1270771 255 255 255
-32.694012 -63.412724 -1.0981848 255 255 255
-39.139774 -63.466221 -1.1553799 255 255 255
201.63365 -70.794067 -0.73072702 255 255 255
-3.0450413 -71.621094 -1.1326262 255 255 255
314.17029 -56.326904 -0.52652144 255 255 255
262.65292 -64.038017 -0.62052906 255 255 255
-18.875816 -66.224945 -1.0802701 255 255 255
-47.33931 -61.803715 -1.1240983 255 255 255
-21.025831 -64.62014 -1.121745 255 255 255
139.96178 -64.21077 -0.75011468 255 255 255
-16.973341 -69.232056 -1.1806712 255 255 255
-22.601864 -68.79541 -1.1702249 255 255 255
-22.821281 -67.243774 -1.1274863 255 255 255
-6.7659488 -70.983261 -1.11329 255 255 255
-23.107077 -66.36409 -1.1290418 255 255 255
233.99179 -60.097954 -0.52080798 255 255 255
-1.3030921 -66.473747 -1.0751082 255 255 255
0.58433169 -67.130775 -1.1187882 255 255 255
-6.2257438 -70.818169 -1.1404676 255 255 255
-20.011681 -67.237564 -1.1107601 255 255 255
-4.641295 -70.232666 -1.0944862 255 255 255
-6.8676014 -67.753899 -1.1050624 255 255 255
-21.296515 -66.101524 -1.0893339 255 255 255
0.30061135 -70.114548 -1.1069983 255 255 255
-2.2825491 -69.699722 -1.1066774 255 255 255
-18.92285 -66.605843 -1.085832 255 255 255
-17.892538 -65.483704 -1.0872389 255 255 255
5.6205559 -69.239128 -1.1135347 255 255 255
-43.894501 -60.564278 -1.122321 255 255 255
-17.637619 -66.018539 -1.1021764 255 255 255
-12.425966 -66.275383 -1.0927331 255 255 255
-2.3103354 -66.83297 -1.1073134 255 255 255
-17.164583 -63.000721 -1.1104344 255 255 255
-12.201284 -66.277557 -1.0860209 255 255 255
3.9265661 -72.594284 -1.1174099 255 255 255
-21.01186 -67.594986 -1.1197698 255 255 255
-2.7355642 -67.58493 -1.0771891 255 255 255
-16.301357 -67.265862 -1.1076792 255 255 255
-24.252754 -65.866302 -1.14133 255 255 255
-0.20490363 -70.457664 -1.1085529 255 255 255
-12.907119 -66.340607 -1.1053238 255 255 255
132.3763 -59.683998 -0.73100823 255 255 255
-5.968657 -67.053398 -1.0810827 255 255 255
-18.046473 -64.569168 -1.136438 255 255 255
-19.157284 -64.050568 -1.092061 255 255 255
-22.55743 -67.154037 -1.102242 255 255 255
-7.4358006 -71.147057 -1.1416473 255 255 255
-38.093307 -62.557957 -1.1180583 255 255 255
-1.872799 -65.967026 -1.0686678 255 255 255
-6.9663687 -66.901993 -1.097038 255 255 255
-17.294224 -68.64283 -1.1341016 255 255 255
-4.2394824 -69.89872 -1.0941954 255 255 255
-20.230654 -68.804108 -1.1527996 255 255 255
-8.0530596 -69.514503 -1.114699 255 255 255
-23.56539 -65.711914 -1.1476204 255 255 255
-18.382063 -65.075806 -1.0901244 255 255 255
-30.20742 -65.819679 -1.1417054 255 255 255
22.300915 -75.524765 -1.1660148 255 255 255
220.01219 -53.9403 -0.67313361 255 255 255
3.0467229 -69.147774 -1.0999461 255 255 255
1.5881975 -73.847244 -1.1921906 255 255 255
289.71078 -67.033463 -0.65610957 255 255 255
-18.671467 -64.499992 -1.0886918 255 255 255
-38.112679 -63.089832 -1.135781 255 255 255
-7.1103358 -68.548271 -1.1166182 255 255 255
1295.8159 -34.042435 0.84256876 255 255 255
-22.732094 -67.849411 -1.1418868 255 255 255
-11.350904 -66.169861 -1.0504447 255 255 255
-9.5879354 -68.359665 -1.1015738 255 255 255
-20.321932 -68.898155 -1.1463391 255 255 255
-30.929932 -64.866219 -1.1295373 255 255 255
9.6141825 -71.420143 -1.1037592 255 255 255
-22.612242 -66.079048 -1.113553 255 255 255
-11.081351 -66.138351 -1.08627 255 255 255
-15.621058 -70.34745 -1.1679503 255 255 255
-24.857311 -64.449959 -1.1149592 255 255 255
-18.291502 -68.510155 -1.1355298 255 255 255
-1.8658808 -69.279556 -1.1153138 255 255 255
4.0098133 -68.243767 -1.1265944 255 255 255
4.4913125 -72.551285 -1.148626 255 255 255
-32.847477 -62.140152 -1.11235 255 255 255
-0.023060499 -72.133041 -1.1381993 255 255 255
7.5016947 -72.482025 -1.1269133 255 255 255
-3.4870164 -69.471451 -1.1028334 255 255 255
584.20135 -55.212723 -0.10629605 255 255 255
-9.8904705 -65.6959 -1.0824114 255 255 255
-16.637907 -66.885483 -1.1017497 255 255 255
17.016907 -74.753822 -1.2154405 255 255 255
-14.191913 -66.669579 -1.1354259 255 255 255
-21.007755 -66.47831 -1.0976558 255 255 255
-4.3830552 -71.268379 -1.1376328 255 255 255
-5.0340524 -68.22982 -1.1039354 255 255 255
-25.77388 -64.090378 -1.1360685 255 255 255
2.1836174 -67.802689 -1.1102507 255 255 255
-36.713741 -64.217369 -1.1307145 255 255 255
-11.57132 -64.195488 -1.079916 255 255 255
-1.0258708 -71.189461 -1.1043496 255 255 255
-23.099899 -65.8685 -1.1082134 255 255 255
-20.369959 -66.347282 -1.0916959 255 255 255
27.348627 -76.20475 -1.1726844 255 255 255
-2916.5767 46.369858 -4.3251634 255 255 255
-21.115585 -64.840118 -1.0825491 255 255 255
-5.7524686 -73.026535 -1.1881316 255 255 255
-7.3311148 -68.298409 -1.0927538 255 255 255
140.40506 -68.203339 -0.77747989 255 255 255
-24.162056 -67.127876 -1.1362964 255 255 255
11.908618 -65.718933 -1.1029466 255 255 255
-40.076557 -63.649284 -1.1457376 255 255 255
15.145447 -67.416061 -1.096293 255 255 255
-13.869636 -67.311409 -1.1112098 255 255 255
5.0972905 -68.937714 -1.0999753 255 255 255
175.7643 -69.010399 -0.73809469 255 255 255
208.49197 -53.444027 -0.66523761 255 255 255
-29.537369 -64.79921 -1.0920594 255 255 255
-20.216431 -66.761292 -1.0987209 255 255 255
-8.1338902 -68.126442 -1.0972643 255 255 255
-7.5827303 -65.837074 -1.0800507 255 255 255
-19.516584 -66.314674 -1.0930825 255 255 255
174.94897 -68.078583 -0.73136193 255 255 255
390.88028 -36.297424 -0.15001413 255 255 255
-6.4146771 -71.740082 -1.1428397 255 255 255
1.1088668 -70.548019 -1.0893115 255 255 255
-9.0367851 -67.465767 -1.0626749 255 255 255
-21.717184 -65.368225 -1.0956002 255 255 255
-20.296135 -63.845802 -1.0910778 255 255 255
-13.325563 -67.33757 -1.1389936 255 255 255
-9.395154 -64.350288 -1.0713067 255 255 255
-24.518883 -66.061119 -1.1278306 255 255 255
-12.532679 -66.441582 -1.0733973 255 255 255
454.36554 -76.873367 -0.44492418 255 255 255
-3.0247416 -68.280846 -1.0985166 255 255 255
237.15909 -78.255112 -0.72974283 255 255 255
-25.605972 -63.211708 -1.1066116 255 255 255
-6.8076148 -66.661415 -1.0758121 255 255 255
1.8359963 -72.494583 -1.1183885 255 255 255
8.1169205 -71.744331 -1.0940666 255 255 255
-19.744619 -68.835831 -1.1417907 255 255 255
-27.054947 -64.065979 -1.1282049 255 255 255
146.41487 -64.25238 -0.76799756 255 255 255
-2.7981875 -69.995567 -1.1246817 255 255 255
-0.21588922 -73.368965 -1.1710321 255 255 255
181.92792 -68.747528 -0.72811371 255 255 255
-5.142211 -68.781372 -1.0753587 255 255 255
-27.228165 -66.812218 -1.1585019 255 255 255
3.8900037 -67.231819 -1.0830382 255 255 255
0.69742566 -69.833061 -1.1130131 255 255 255
-20.056595 -65.561905 -1.0947285 255 255 255
-18.57612 -65.07338 -1.0861092 255 255 255
8.6641932 -70.825638 -1.1111261 255 255 255
931.85516 -13.448351 0.73230839 255 255 255
-18.689821 -67.639427 -1.1221055 255 255 255
-0.37666589 -67.877434 -1.0777214 255 255 255
185.38509 -69.832268 -0.73139364 255 255 255
-20.112337 -77.752487 -1.2921062 255 255 255
-3.0274901 -69.367188 -1.0794742 255 255 255
-9.457221 -70.817802 -1.1584755 255 255 255
-503.6051 -79.698883 -1.6945331 255 255 255
-8.9185629 -67.578835 -1.0968462 255 255 255
-8.6592073 -68.93512 -1.084424 255 255 255
-5.9438038 -72.695168 -1.1639667 255 255 255
0.54572755 -66.218521 -1.0575249 255 255 255
-15.012299 -65.021217 -1.0935524 255 255 255
180.18985 -68.46553 -0.72803986 255 255 255
-24.665901 -65.527306 -1.1176705 255 255 255
-23.053169 -66.346031 -1.0945344 255 255 255
-9.8156929 -67.878426 -1.0932851 255 255 255
11.594513 -73.266029 -1.108629 255 255 255
-20.465298 -67.025185 -1.1076409 255 255 255
-16.079849 -67.514397 -1.1136537 255 255 255
-2.6903951 -68.981766 -1.0840085 255 255 255
-17.143461 -65.971344 -1.0891641 255 255 255
-2.1712251 -70.2444 -1.1251314 255 255 255
-38.231686 -66.29187 -1.213954 255 255 255
-36.908379 -64.33799 -1.1316291 255 255 255
-9.9783754 -72.405342 -1.1662254 255 255 255
-9.7217188 -70.143608 -1.1070787 255 255 255
63.772701 -69.769669 -0.94642252 255 255 255
3.8158519 -77.559052 -1.2037889 255 255 255
11.698927 -76.088303 -1.1549265 255 255 255
-23.342091 -65.729141 -1.1038449 255 255 255
-0.78106332 -63.30275 -1.0658451 255 255 255
-15.821783 -66.206673 -1.088622 255 255 255
0.057530262 -69.081482 -1.0908792 255 255 255
-23.712969 -66.188713 -1.1426716 255 255 255
-5.3994002 -67.502373 -1.0818496 255 255 255
-11.263091 -70.115532 -1.1342525 255 255 255
-18.84248 -66.225327 -1.0802119 255 255 255
-23.030899 -65.809402 -1.1138356 255 255 255
6.4955173 -69.926224 -1.0993711 255 255 255
-5.9709964 -66.142502 -1.0695928 255 255 255
9.1715651 -73.429482 -1.1179297 255 255 255
2.0189192 -69.194557 -1.0977176 255 255 255
201.20981 -69.736145 -0.67113799 255 255 255
-10.450795 -68.246536 -1.076973 255 255 255
-6.4551854 -69.594116 -1.1247369 255 255 255
-9.2485189 -68.786469 -1.0853436 255 255 255
311.97806 -71.634842 -0.55073929 255 255 255
2.7998092 -70.236404 -1.082696 255 255 255
17.481766 -75.479286 -1.1323228 255 255 255
-37.512348 -64.868408 -1.1723148 255 255 255
-4.1631274 -66.79911 -1.0816652 255 255 255
-11.489845 -70.483047 -1.1465957 255 255 255
3.7003276 -70.201157 -1.1339456 255 255 255
-12.08392 -65.755753 -1.1085612 255 255 255
-16.247421 -64.412308 -1.1288359 255 255 255
-27.358372 -65.809517 -1.1125884 255 255 255
-23.723234 -63.821533 -1.1092566 255 255 255
-23.324198 -67.102119 -1.1273937 255 255 255
-6.6790862 -68.590469 -1.0971916 255 255 255
449.78879 -87.516998 -0.43696421 255 255 255
-25.445152 -65.231445 -1.0973589 255 255 255
-3.758239 -86.183495 -1.3693548 255 255 255
-4.4612818 -69.146484 -1.0805498 255 255 255
-13.832608 -69.802284 -1.1238017 255 255 255
-27.202978 -67.189331 -1.0945207 255 255 255
-10.363037 -67.985954 -1.0908518 255 255 255
-27.575676 -62.022339 -1.0576439 255 255 255
-9.1215048 -65.660446 -1.0694633 255 255 255
7.5833731 -72.488487 -1.1220293 255 255 255
-23.916485 -68.006378 -1.1519029 255 255 255
-16.772955 -67.456802 -1.1026766 255 255 255
-16.438761 -66.635483 -1.0970421 255 255 255
551.07288 -50.645557 -0.29021797 255 255 255
-16.646353 -72.160751 -1.1808045 255 255 255
12.145138 -71.687302 -1.1155678 255 255 255
181.91078 -69.019684 -0.72977823 255 255 255
198.72575 -72.113678 -0.69886512 255 255 255
-9.7466402 -72.51075 -1.1833643 255 255 255
-9.9540443 -75.75753 -1.2478006 255 255 255
121.04104 -69.047508 -0.818138 255 255 255
-21.724422 -67.71788 -1.1333704 255 255 255
-19.191626 -66.236252 -1.0855514 255 255 255
-32.285603 -64.523369 -1.1550399 255 255 255
-20.533211 -66.527016 -1.0947808 255 255 255
-18.476521 -66.384796 -1.1004056 255 255 255
3.3489859 -71.393021 -1.0995905 255 255 255
13.328663 -74.353394 -1.146621 255 255 255
-22.118948 -67.644768 -1.1336348 255 255 255
-19.584215 -66.14254 -1.1087425 255 255 255
17.390898 -73.398224 -1.1050996 255 255 255
0.44836017 -69.854935 -1.1218051 255 255 255
9.3312235 -69.579071 -1.0820627 255 255 255
-13.169462 -71.781631 -1.1899508 255 255 255
13.052477 -69.328156 -1.1221603 255 255 255
-4134.6543 14.173214 -6.5042171 255 255 255
190.20126 -70.825943 -0.6974715 255 255 255
-30.877016 -63.652439 -1.10281 255 255 255
-7.2044277 -66.654503 -1.0800744 255 255 255
243.2421 -63.219387 -0.65228057 255 255 255
532.26251 -89.845695 -0.33982679 255 255 255
366.85806 -86.486427 -0.65687501 255 255 255
-6.033443 -70.674492 -1.1286912 255 255 255
667.02618 -84.826752 -0.22665183 255 255 255
-18.211857 -67.082535 -1.1099339 255 255 255
161.68053 -64.725578 -0.72685194 255 255 255
