ply
format ascii 1.0
comment PCL generated
element vertex 1102
property float x
property float y
property float z
property uchar red
property uchar green
property uchar blue
element face 0
element camera 0
property float view_px
property float view_py
property float view_pz
property float x_axisx
property float x_axisy
property float x_axisz
property float y_axisx
property float y_axisy
property float y_axisz
property float z_axisx
property float z_axisy
property float z_axisz
property float focal
property float scalex
property float scaley
property float centerx
property float centery
property int viewportx
property int viewporty
property float k1
property float k2
end_header
-438.3006 -867.19659 -2.3667119 255 255 255
-552.73297 -1030.2445 -2.5338142 255 255 255
1239.3757 1371.4496 1.6165191 255 255 255
1856.7533 1500.9955 2.151643 255 255 255
303.72 637.11169 1.1045493 255 255 255
-1443.9852 -1606.2839 -4.3355632 255 255 255
286.62686 626.09656 1.087432 255 255 255
-752.37512 -1927.5051 -3.8830147 255 255 255
-590.45477 -497.38095 -2.2885554 255 255 255
331.29446 424.33334 0.78284723 255 255 255
-1057.8184 -680.8197 -2.7045436 255 255 255
990.28601 1156.5592 1.2595595 255 255 255
-967.03033 -726.98407 -2.4492862 255 255 255
9494.9395 22596.42 51.504383 255 255 255
848.49701 708.04443 1.1032007 255 255 255
1174.7305 1129.7502 1.7506543 255 255 255
-564.76111 -1284.3457 -3.0333264 255 255 255
651.25409 1217.6781 1.5408877 255 255 255
268.75931 625.97656 1.0768783 255 255 255
1520.8018 735.33722 2.3738821 255 255 255
-404.35001 -537.96082 -1.9316689 255 255 255
-729.6203 -1202.1013 -3.055742 255 255 255
288.09683 607.44952 1.0754687 255 255 255
933.92139 960.62354 0.93677473 255 255 255
-3843.438 -3036.6611 -9.4602642 255 255 255
1914.9788 704.3371 3.346966 255 255 255
805.41187 962.05396 1.5563304 255 255 255
300.16541 635.047 1.1009314 255 255 255
2011.515 1637.7925 2.1164727 255 255 255
296.66162 633.6311 1.0983545 255 255 255
694.70453 1199.7122 1.5462239 255 255 255
2663.824 1588.7015 4.052402 255 255 255
-575.58502 -193.13693 -1.5537349 255 255 255
1374.0758 854.9765 2.8224733 255 255 255
289.55539 626.39752 1.0886047 255 255 255
461.74091 401.88531 1.1942288 255 255 255
-363.18475 -1063.201 -2.8763793 255 255 255
6422.2979 5920.1445 10.611214 255 255 255
352.4469 443.76361 0.62416971 255 255 255
750.50275 668.20044 1.5507408 255 255 255
-3411.3218 -8005.9614 -18.53097 255 255 255
-1580.3351 -3174.698 -5.9420505 255 255 255
-973.27496 -736.75946 -2.4599276 255 255 255
4108.4253 9273.9414 14.472682 255 255 255
1037.4933 925.52515 1.7364008 255 255 255
1350.8301 975.05536 1.9480604 255 255 255
298.86462 620.78516 1.0900098 255 255 255
-1110.9854 -1079.3566 -2.7945406 255 255 255
1537.4144 654.15948 2.5513098 255 255 255
968.63519 1055.2981 1.6637138 255 255 255
1924.7579 1484.281 1.7255405 255 255 255
5868.729 14349.779 21.111683 255 255 255
1661.1132 1560.9747 2.1229594 255 255 255
649.04114 772.31818 1.1585152 255 255 255
20272.307 38280.293 58.082157 255 255 255
-359.96719 -682.31165 -2.1550221 255 255 255
289.36865 629.65637 1.0908139 255 255 255
721.92206 722.0531 1.5107483 255 255 255
-368.22299 -1246.2092 -2.8486497 255 255 255
1988.0273 1925.9625 2.7236679 255 255 255
298.16574 634.82086 1.0993109 255 255 255
317.68814 146.36607 0.75868893 255 255 255
1065.9849 1322.1949 1.6823552 255 255 255
-331.84247 -1195.048 -2.6797438 255 255 255
1845.6765 1362.6344 1.8013657 255 255 255
1454.2024 1287.9457 1.8007008 255 255 255
-691.47473 -283.99585 -1.6732203 255 255 255
874.31567 887.78235 1.5859283 255 255 255
602.90851 1052.2667 1.0742707 255 255 255
515.81104 1006.2077 1.415749 255 255 255
-1308.1823 -1100.2909 -2.5619769 255 255 255
-1399.9708 -1201.2614 -3.352174 255 255 255
497.39777 977.04297 1.3934138 255 255 255
-1521.7808 -3089.9631 -6.7498989 255 255 255
1207.0409 1931.3954 2.4461327 255 255 255
1282.2922 810.77197 3.5719883 255 255 255
1921.09 1483.5432 1.7234064 255 255 255
451.79501 852.19128 1.3149781 255 255 255
2698.9253 4374.7578 6.0819745 255 255 255
-1971.0332 -2080.5583 -5.165278 255 255 255
-581.38605 -1183.6935 -2.8524654 255 255 255
964.83905 1407.5198 1.4195077 255 255 255
24519.092 5743.5156 51.354702 255 255 255
16755.703 30743.59 47.605339 255 255 255
397.47003 1029.3879 1.396485 255 255 255
-4302.8013 -10253.043 -17.59247 255 255 255
2397.6946 4099.7339 5.488677 255 255 255
-890.29712 -1790.8685 -3.9446383 255 255 255
1370.9167 1000.5524 1.9393829 255 255 255
-13518.427 -1061.483 -31.246733 255 255 255
-739.81641 -243.56912 -1.8031055 255 255 255
388.31808 370.14337 1.0704451 255 255 255
1448.7573 1122.1273 1.2934322 255 255 255
-2451.3811 -3272.6868 -8.8408308 255 255 255
-504.93985 -808.10889 -2.2736766 255 255 255
-347.44467 -515.68964 -1.8643633 255 255 255
-486.49432 -1051.6232 -2.8759794 255 255 255
-4281.0405 -4666.355 -11.456022 255 255 255
-523.81531 -908.41223 -2.5598652 255 255 255
-274.98654 -691.14191 -1.9984492 255 255 255
1464.0946 1407.0057 1.7603664 255 255 255
-994.19287 -758.51923 -2.4198005 255 255 255
1779.7251 2204.8069 2.6322281 255 255 255
514.69659 543.46533 1.2645932 255 255 255
-97.470818 -236.48465 -1.3472213 255 255 255
1382.1526 1149.3473 1.8407158 255 255 255
-397.85977 -563.43756 -2.0425854 255 255 255
-766.64612 -999.5625 -2.7391462 255 255 255
1832.1154 1626.137 2.2140486 255 255 255
1586.5831 779.7323 4.3934331 255 255 255
-770.68164 -329.77466 -1.8714683 255 255 255
1026.5409 972.95996 1.7071201 255 255 255
-589.84717 -1344.8085 -3.1934543 255 255 255
9473.1689 12242.676 18.580019 255 255 255
267.77777 607.15442 1.0614369 255 255 255
2984.5374 2178.3167 3.9458818 255 255 255
745.64178 729.07928 1.5366589 255 255 255
223.54433 291.75165 0.41659978 255 255 255
4872.8818 3857.354 7.4236321 255 255 255
1497.9742 772.27032 2.2923508 255 255 255
1004.9013 919.51355 1.7112261 255 255 255
795.34601 809.51898 1.5700731 255 255 255
820.58911 625.00647 0.99103254 255 255 255
-2223.2231 -1619.328 -3.9256196 255 255 255
740.99786 728.42389 1.5307152 255 255 255
3763.9883 3505.6956 6.9303708 255 255 255
1479.6074 678.00562 2.4326496 255 255 255
1407.6995 1158.7529 1.8467958 255 255 255
-776.06787 -1511.5928 -3.1309452 255 255 255
-356.63742 -262.26682 -1.5868577 255 255 255
931.47675 647.54388 1.7917113 255 255 255
-935.84589 -515.9212 -3.7396648 255 255 255
1364.8252 1000.6322 1.9349746 255 255 255
-248.70651 -488.12143 -1.7946802 255 255 255
435.8757 838.47791 1.8751414 255 255 255
1488.6942 720.63867 2.3572035 255 255 255
271.87354 622.98175 1.0761861 255 255 255
951.90991 803.11041 1.7128509 255 255 255
449.74469 809.10626 1.2927688 255 255 255
612.44745 226.30226 1.5638186 255 255 255
-7538.998 -11264.5 -21.051247 255 255 255
-1270.9514 -1227.6133 -3.3413346 255 255 255
1346.2235 2222.554 2.93629 255 255 255
4282.0898 4571.8159 9.0686464 255 255 255
1140.4884 1101.8346 1.2579693 255 255 255
2798.876 795.65802 2.6329544 255 255 255
1381.9302 1146.4915 1.8436912 255 255 255
-976.35663 -897.22528 -3.6827459 255 255 255
-258.12622 -263.40811 -1.5447963 255 255 255
742.40723 701.71747 1.5373853 255 255 255
1864.0132 1700.0667 2.4237342 255 255 255
645.22852 596.16034 0.71208447 255 255 255
225274.56 663608 957.23199 255 255 255
1358.754 1001.0986 1.9311455 255 255 255
1243.552 2674.3 3.2189684 255 255 255
1267.4884 1521.8462 1.6419318 255 255 255
1467.3677 1316.4517 1.791103 255 255 255
1247.0791 1746.01 2.0221486 255 255 255
-333484.22 -379525.78 -498.39066 255 255 255
9797.2793 7768.5088 32.358921 255 255 255
-695.59326 -1572.6097 -3.359479 255 255 255
-435.25143 -387.27222 -1.9013152 255 255 255
-333.14493 -545.5376 -1.8451321 255 255 255
2935.0781 5169.0732 6.75243 255 255 255
646.29144 1166.3995 1.5214489 255 255 255
-3124.5115 -4457.5801 -7.9711771 255 255 255
1231.4836 1242.3281 1.8422021 255 255 255
245.33257 184.42728 0.29548201 255 255 255
644.20282 1169.9675 1.5231752 255 255 255
3046.031 5504.439 7.7563491 255 255 255
487.42194 533.31262 0.63863152 255 255 255
-1383.1284 -1016.0654 -2.6495035 255 255 255
-807.46179 -636.37946 -2.6718788 255 255 255
2477.0532 4981.3115 9.9009399 255 255 255
1332.6868 2796.9277 3.8729305 255 255 255
2279.2964 3562.6697 5.6334219 255 255 255
724.6062 844.62463 1.0580552 255 255 255
950.0069 1054.4215 1.6529917 255 255 255
1192.0336 750.49915 0.93141681 255 255 255
533.15216 1563.663 1.9296855 255 255 255
1308.5244 953.92676 1.3304433 255 255 255
7124.8623 5485.6777 11.214013 255 255 255
1456.0756 1189.4304 1.5580094 255 255 255
4408.8892 5896.9092 8.691391 255 255 255
-504.06973 -464.24847 -1.8810071 255 255 255
464.70865 972.63568 1.2827165 255 255 255
-895.0033 -1002.746 -2.8778028 255 255 255
1580.5349 1615.4644 1.9828995 255 255 255
1058.0889 1122.0708 1.6952685 255 255 255
2135.8943 3895.4741 5.1040425 255 255 255
888.96686 666.81024 0.92728388 255 255 255
311.22 258.75677 0.6829533 255 255 255
2109.4216 1302.3132 3.2585673 255 255 255
1409.1166 2397.3982 2.7583673 255 255 255
704.67773 522.64728 0.84414822 255 255 255
690.82654 1026.3861 1.3731958 255 255 255
-627.90741 -748.13385 -2.4501388 255 255 255
939.2948 920.69318 1.658074 255 255 255
-520.69373 -536.01306 -2.2112019 255 255 255
558.26849 2517.6548 3.0772307 255 255 255
-1180.4722 -944.06793 -3.6477551 255 255 255
454.30548 735.03857 1.2616136 255 255 255
2061.9233 2396.3418 3.8786778 255 255 255
-164.11322 -1018.4192 -2.4352329 255 255 255
922.91077 714.33881 1.7299669 255 255 255
-358.57434 -715.8844 -2.145787 255 255 255
750.2392 709.68591 1.5447738 255 255 255
632.76862 1213.2598 1.5405809 255 255 255
3266.4507 4143.7974 6.3828058 255 255 255
-2005.155 -3028.7634 -4.3885074 255 255 255
1355.3307 3316.9456 4.3733854 255 255 255
598.159 1119.5928 1.4904881 255 255 255
519.04248 440.36887 1.698438 255 255 255
115504.48 141994.23 395.21732 255 255 255
800.05579 823.98938 1.571553 255 255 255
2642.8762 2410.7827 3.5044856 255 255 255
339.90768 279.44684 0.46245253 255 255 255
-4903.5508 -10697.127 -18.786015 255 255 255
970.16235 1036.9841 1.6659918 255 255 255
1255.1232 1415.0259 1.704532 255 255 255
1386.027 1116.2167 1.66355 255 255 255
523.32758 571.96436 0.85015857 255 255 255
1064.4659 1258.8335 1.6852 255 255 255
946.51086 1021.1096 1.655561 255 255 255
1001.7722 899.52338 1.7156695 255 255 255
-2915.9563 -3033.9536 -6.9924674 255 255 255
-1049.9329 -1082.1866 -3.5175536 255 255 255
-378.81442 -812.63757 -2.342072 255 255 255
1124.9436 1121.0128 1.2434335 255 255 255
239.58099 278.47202 0.61900365 255 255 255
-346.42746 -288.15726 -1.6026671 255 255 255
-2540.8154 -2881.179 -6.6291108 255 255 255
2391.5146 2107.8086 3.3183889 255 255 255
2067.8105 1896.1427 2.8332653 255 255 255
1976.5696 1655.476 2.6465154 255 255 255
259.32782 1085.5771 1.4196448 255 255 255
-718.45514 -620.06512 -2.566453 255 255 255
1864.3121 1692.6442 2.6244628 255 255 255
-971.99408 -598.06079 -2.5263381 255 255 255
843.552 922.30469 1.5945791 255 255 255
803.94666 975.42096 1.5586134 255 255 255
1060.6869 1138.5387 1.9001352 255 255 255
-527.4845 -321.17596 -1.9605709 255 255 255
-814.70453 -1689.5785 -4.0163002 255 255 255
-740.27075 -2673.8433 -5.3955359 255 255 255
-2399.2068 -3795.1953 -9.3206787 255 255 255
-663.4317 -591.95306 -2.2368894 255 255 255
1119.5563 1273.7556 1.5432307 255 255 255
557.09509 849.22742 0.72795588 255 255 255
5548.8916 15865.286 23.229471 255 255 255
1539.9827 7017.9839 9.7301493 255 255 255
-650.84747 -631.55914 -2.3485458 255 255 255
-97.541542 -230.90349 -1.3945727 255 255 255
-827.71783 -722.94562 -2.6536949 255 255 255
-2129.5957 -1782.0339 -9.4656868 255 255 255
-289.05222 -827.1087 -2.1653121 255 255 255
-613.79327 -483.33499 -2.0947874 255 255 255
1358.538 5323.3384 6.9954205 255 255 255
-1793.5978 -1838.006 -3.538202 255 255 255
-3873.176 -4045.2434 -8.5898952 255 255 255
1377.4 1232.7616 1.6277575 255 255 255
-52853.105 -51060.484 -96.230247 255 255 255
838.39264 935.38721 1.5860243 255 255 255
1199.6029 1012.097 1.4539863 255 255 255
-625.4848 -962.74213 -2.7003872 255 255 255
-4789.541 -5970.6641 -10.094563 255 255 255
-960.48883 -1375.2817 -4.112658 255 255 255
-695.56952 -886.2735 -2.4234107 255 255 255
1064.8795 944.9472 0.94857675 255 255 255
2759.6101 4263.9878 6.7176604 255 255 255
-453.81107 -619.10724 -2.1438472 255 255 255
-773.2113 -1882.7672 -3.7750604 255 255 255
438.7132 314.07382 0.35179642 255 255 255
-509.10623 -595.6759 -2.0412979 255 255 255
306.57504 320.41586 0.32957134 255 255 255
-1594.1531 -3524.8945 -7.231143 255 255 255
1169.3901 1712.6949 2.1103482 255 255 255
3968.6099 12354.176 18.903776 255 255 255
-527.92456 -654.28296 -2.561569 255 255 255
-822.72272 -1514.4292 -3.3764949 255 255 255
-1789.03 -1955.9579 -3.3850939 255 255 255
2387.7205 1669.0881 3.0052702 255 255 255
1718.4806 1538.6959 1.9576794 255 255 255
650.3009 1221.3563 1.5418926 255 255 255
645.4884 500.64902 0.72059232 255 255 255
1652.8572 2017.8173 2.5582159 255 255 255
4210.3896 5849.6094 9.8755875 255 255 255
-11098.708 -16952.205 -28.925858 255 255 255
-2019.6477 -3424.5232 -5.5640159 255 255 255
-789.28998 -1490.1528 -3.3167078 255 255 255
9027.8877 5750.2529 8.8009157 255 255 255
14892.851 8627.21 17.595501 255 255 255
-760.66724 -1153.8362 -3.1042247 255 255 255
582.91864 710.58093 1.359836 255 255 255
773.25659 769.06519 1.553001 255 255 255
860.46429 863.26434 1.2845855 255 255 255
4028.8501 4238.562 6.4330621 255 255 255
-2214.5425 -1594.3962 -5.2300787 255 255 255
2277.3623 1943.8749 2.6123204 255 255 255
970.50311 667.55121 1.0888357 255 255 255
-9196.2246 -13976.861 -26.119869 255 255 255
4582.2241 9426.9385 13.111238 255 255 255
970.9201 1024.6918 1.3000395 255 255 255
918.24194 907.04102 1.4304441 255 255 255
1420.5959 1154.6448 1.4290391 255 255 255
-277.96033 -307.98279 -1.548473 255 255 255
1442.6116 971.82263 1.5449318 255 255 255
-67330.594 -159405.06 -232.67085 255 255 255
596.10968 350.14185 0.59081107 255 255 255
-407.18933 -281.6243 -1.4817939 255 255 255
-568.27307 -626.45074 -2.0968761 255 255 255
-375.94427 -462.9249 -1.7798045 255 255 255
-755.45392 -1028.2665 -2.8434639 255 255 255
1196.4996 814.37891 1.3803174 255 255 255
-2107.22 -2619.5813 -4.3089976 255 255 255
-561.45502 -803.89288 -2.3527846 255 255 255
2191.386 2344.3857 3.9143729 255 255 255
2265.4688 1729.6467 2.9355528 255 255 255
-577.27631 -466.73468 -2.0554593 255 255 255
1073.2699 1103.8785 1.0079341 255 255 255
-411.44781 -675.29572 -1.9915842 255 255 255
-9514.3994 -10990.076 -24.861704 255 255 255
2128.7458 1691.4143 3.3949089 255 255 255
-360.00464 -294.04123 -1.5582194 255 255 255
1039.9603 530.8136 1.3383758 255 255 255
1921.2045 2951.4263 4.6042309 255 255 255
-414.15088 -566.53906 -1.9315497 255 255 255
1188.9349 1142.8735 1.4085324 255 255 255
1512.6193 1775.0156 2.4829073 255 255 255
4228.8418 2685.8831 6.8248949 255 255 255
-407.50443 -501.94354 -1.8860179 255 255 255
-697.2218 -573.77338 -2.3375449 255 255 255
915.3634 1033.2842 1.6326686 255 255 255
1356.1763 1595.4945 2.1679122 255 255 255
-1151.9144 -1024.1898 -2.9717209 255 255 255
-431.87579 -794.89502 -2.2386868 255 255 255
141944.17 326948.78 512.09692 255 255 255
737.21362 448.6171 0.79760873 255 255 255
2129.0723 5981.1162 8.8183527 255 255 255
-1149.1533 -1599.6227 -3.5893176 255 255 255
-539.32935 -253.03134 -2.2907155 255 255 255
2988.176 1942.6799 3.7386243 255 255 255
1170.925 5017.9683 7.167881 255 255 255
881.25964 1026.9335 1.6071147 255 255 255
-2320.2671 -1961.3191 -6.9048362 255 255 255
-2797.8613 -1358.5405 -6.6311808 255 255 255
2686.4741 1975.6593 3.5167398 255 255 255
-721.44855 -914.38928 -2.0632386 255 255 255
516.38721 516.19147 1.2670176 255 255 255
-1785.842 -3384.5972 -6.2107086 255 255 255
1269.1832 1492.4021 1.646881 255 255 255
-535.77185 -590.18475 -2.2122822 255 255 255
598.98645 1293.9185 3.4052618 255 255 255
2479.8342 2918.2163 3.8859596 255 255 255
2380.1609 1782.26 3.4092782 255 255 255
1012.655 975.44739 1.6966257 255 255 255
1022.1963 2709.7695 4.0491138 255 255 255
932.3631 1020.312 1.6469789 255 255 255
993.37671 887.86169 1.7145646 255 255 255
1140.5233 1210.9498 1.7137471 255 255 255
3144.1555 4264.7437 6.2638407 255 255 255
-820.94824 -499.00238 -2.2843277 255 255 255
-1055.3077 -851.88458 -2.6278305 255 255 255
-415.95175 -570.18225 -2.0505176 255 255 255
937.85712 583.98956 1.311058 255 255 255
1005.9366 911.17249 1.8737583 255 255 255
892.67285 971.77606 1.6255037 255 255 255
-335.67676 -669.07037 -2.0806885 255 255 255
1177.8345 1013.1314 1.0416028 255 255 255
-327.3963 -1007.2241 -3.2450137 255 255 255
588.96582 1317.7238 1.1476712 255 255 255
-2107.1665 -1876.9159 -4.0844951 255 255 255
1242.0366 1509.6528 2.4049177 255 255 255
10150.983 36643.723 53.913414 255 255 255
1032.9937 1202.9572 1.6787914 255 255 255
2179.8926 4076.1401 6.3999104 255 255 255
18187.43 40409.453 59.798538 255 255 255
2591.2563 5150.6812 7.1505671 255 255 255
-1493.6248 -2106.0916 -4.6907773 255 255 255
1344.4077 1052.83 1.3566254 255 255 255
-590.09149 -512.96411 -1.7776067 255 255 255
399.8421 437.6062 0.47662649 255 255 255
-367.82205 -586.38531 -1.9613543 255 255 255
908.53351 1127.7581 0.9468984 255 255 255
-1500.8466 -2288.512 -5.0529652 255 255 255
851.45776 1054.5518 1.5866315 255 255 255
1228.1677 1514.7133 1.6276479 255 255 255
1880.0225 1293.0457 2.6672068 255 255 255
715.32751 890.02307 1.4911038 255 255 255
-1135.0214 -735.15784 -2.8005385 255 255 255
581.92371 709.29578 1.3576759 255 255 255
-1154.4623 -918.54559 -2.7635741 255 255 255
563.33124 1114.2642 1.479 255 255 255
1040.6588 1456.0106 2.3258376 255 255 255
14973.491 2039.5322 33.285053 255 255 255
-1047.3202 -884.85632 -2.6339204 255 255 255
-1245.9617 -506.98749 -3.0652683 255 255 255
-1585.6877 -2096.5371 -4.7061434 255 255 255
-7687.5488 -8648.9697 -20.920315 255 255 255
-2168.3582 -4695.9897 -8.5310469 255 255 255
6496.1699 20008.07 30.234745 255 255 255
-552.05627 -1968.1544 -4.1495042 255 255 255
3707.5854 5472.1597 8.9071217 255 255 255
378.11307 635.99207 0.49587804 255 255 255
820.37915 1192.5894 1.3417313 255 255 255
2570.5862 3910.5259 4.8681006 255 255 255
2786.9456 804.90717 2.6044571 255 255 255
806.90326 970.44733 1.5586116 255 255 255
402.78601 524.25793 0.73052537 255 255 255
-372.5708 -383.30695 -1.7520329 255 255 255
1011.2964 1165.7758 1.6722803 255 255 255
958.26794 792.90369 1.7252303 255 255 255
503.50781 416.52829 1.2627764 255 255 255
-361.07959 -360.15536 -1.7082042 255 255 255
5861.7212 32171.553 46.442657 255 255 255
13126.024 14535.752 24.198805 255 255 255
-2426.4233 -5489.9849 -10.97939 255 255 255
-1428.9984 -1773.3229 -3.8037355 255 255 255
-1307.6145 -1099.6962 -2.5609477 255 255 255
1383.0569 1847.074 2.0540335 255 255 255
1518.2299 1255.5974 1.6409945 255 255 255
-639.71954 -196.13 -1.6522505 255 255 255
-359.75546 -323.35611 -1.6666648 255 255 255
-1111.5315 -1675.2639 -3.5269771 255 255 255
23462.754 29173.48 50.27137 255 255 255
-758.18994 -1017.6074 -2.8171208 255 255 255
7333.6841 9354.5674 17.110455 255 255 255
-1426.198 -1391.9847 -3.5941114 255 255 255
81.434799 314.82071 0.66184944 255 255 255
936.16705 704.62781 1.7502642 255 255 255
1767.2289 2088.9956 2.5574033 255 255 255
-3904.4797 -3555.283 -7.5515471 255 255 255
-411.58014 -664.04834 -1.892707 255 255 255
-1169.6899 -1839.5607 -4.1783195 255 255 255
-2144.7634 -1800.2321 -4.3293643 255 255 255
810.19598 4174.5898 7.1734848 255 255 255
2806.1807 4281.9297 6.8070135 255 255 255
-1702.9653 -2981.5884 -5.5064402 255 255 255
-792.10651 -1010.1696 -2.7701495 255 255 255
-1436.3458 -1719.9384 -4.3970146 255 255 255
-4645.8018 -10504.916 -21.580713 255 255 255
-1543.0807 -1522.6969 -4.0520067 255 255 255
-966.2757 -767.60309 -2.5664201 255 255 255
268.36435 607.08704 1.0611377 255 255 255
753.9834 738.37384 1.5456331 255 255 255
-11318.35 -31519.514 -47.823833 255 255 255
-438.88678 -677.94977 -2.2011859 255 255 255
357.54358 498.7131 1.0657845 255 255 255
457.43872 859.82751 1.3216625 255 255 255
1164.9999 753.12378 1.3020303 255 255 255
1768.1661 2129.9211 5.9318929 255 255 255
1476.4446 1909.5688 2.417582 255 255 255
-4742.0547 -7058.8438 -13.619857 255 255 255
-869.3808 -495.65408 -2.379355 255 255 255
-1516.3409 -2390.7236 -4.9998212 255 255 255
1212.6879 1442.2623 2.1125145 255 255 255
-478.37558 -398.44455 -2.0409808 255 255 255
2343.4321 1219.4309 1.8621365 255 255 255
928.29834 969.76483 1.6474404 255 255 255
629.703 763.00922 0.93377978 255 255 255
2530.9436 1882.5859 3.1902609 255 255 255
1220.7054 1418.1428 1.7214648 255 255 255
-1366.2648 -1163.2788 -3.3310637 255 255 255
-443.12067 -387.36398 -1.8296355 255 255 255
-6990.9487 -10179.995 -21.573206 255 255 255
3071.1104 5021.4131 7.8359022 255 255 255
-1086.2341 -677.06555 -2.4014137 255 255 255
7996.7656 6707.6094 20.129045 255 255 255
-1520.8015 -1074.6769 -3.269788 255 255 255
1535.2422 657.4892 2.5458107 255 255 255
951.24316 1062.9818 1.6533394 255 255 255
895.9834 977.27332 1.628198 255 255 255
1066.1412 1322.1744 1.6828798 255 255 255
786.09045 668.79205 0.74301589 255 255 255
2449.5386 1208.5216 1.8184248 255 255 255
-331.01059 -431.41821 -1.7640222 255 255 255
-2076.7996 -4338.2651 -7.80057 255 255 255
1675.9557 1378.6069 1.7581769 255 255 255
965.17877 1057.4193 1.6631312 255 255 255
184.0986 290.06152 0.67973518 255 255 255
-594.04877 -509.52954 -1.8052877 255 255 255
402.26974 775.20776 1.8110346 255 255 255
-1445.821 -571.41168 -3.9057298 255 255 255
741.617 705.30066 1.5374129 255 255 255
473.90659 1234.0361 1.4163253 255 255 255
897.32483 873.19495 1.095103 255 255 255
-476.38989 -526.96149 -2.1826494 255 255 255
423.86969 726.51227 1.2368274 255 255 255
267.55402 622.07983 1.073167 255 255 255
-948.18896 -2153.7747 -4.4538102 255 255 255
-344.8526 -1482.5168 -3.8803158 255 255 255
-1952.161 -2773.3022 -6.4480038 255 255 255
1063.943 1321.3505 1.6826519 255 255 255
-1059.1792 -925.58655 -2.758306 255 255 255
5472.2651 7418.6577 11.038117 255 255 255
1015.4383 1168.7144 1.6735464 255 255 255
-1734.71 -1636.7432 -3.9006763 255 255 255
49.202576 336.12106 0.68381739 255 255 255
-557.46912 -915.62665 -2.6078773 255 255 255
288.23337 607.54291 1.0759586 255 255 255
942.69519 690.8205 1.0250176 255 255 255
-443.13452 -763.94995 -2.3331409 255 255 255
-942.50385 -702.9649 -2.3506489 255 255 255
617.67755 451.00085 0.60129344 255 255 255
-351.61569 -460.53204 -1.7757989 255 255 255
-576.79144 -1852.9917 -3.8292022 255 255 255
-1113.1816 -1664.6791 -3.4791899 255 255 255
-454.92639 -1628.5813 -3.4595969 255 255 255
-758.55463 -1230.3802 -2.6891863 255 255 255
1706.0054 859.07391 2.3424733 255 255 255
-735.18781 -1308.2278 -3.2566206 255 255 255
908.45972 910.23206 1.6393416 255 255 255
-919.40759 -512.81757 -2.3802407 255 255 255
255.97395 313.84396 0.69971192 255 255 255
578.40179 689.71918 1.0121542 255 255 255
1073.5087 1251.2693 1.6902906 255 255 255
1350.3767 974.82874 1.9477874 255 255 255
735.60455 860.39233 1.5026343 255 255 255
980.81439 1092.8875 1.6659439 255 255 255
-766.91022 -1672.6556 -3.479161 255 255 255
978.04041 1055.1018 1.6680604 255 255 255
278.01767 614.95166 1.0716885 255 255 255
-853.02094 -910.26276 -2.6356084 255 255 255
278.03607 625.78137 1.0816662 255 255 255
705.32941 1052.6783 0.97856665 255 255 255
2464.4497 2829.8386 4.5842333 255 255 255
-611.89343 -574.37384 -2.2704298 255 255 255
13268.955 1728.2421 28.817997 255 255 255
1095.1515 1468.2174 1.5000052 255 255 255
3370.5029 5905.8662 10.314126 255 255 255
-718.12866 -778.47296 -2.4570615 255 255 255
-1149.884 -1384.3831 -3.4889104 255 255 255
1488.5442 682.50818 2.4465275 255 255 255
800.60474 824.59344 1.5738291 255 255 255
1343.6462 974.13458 1.9418907 255 255 255
3948.3232 3466.0718 10.846143 255 255 255
2454.3955 3204.6157 6.947515 255 255 255
2447.0474 3264.6592 5.3621221 255 255 255
1357.6455 979.57709 1.9491425 255 255 255
236.18372 1066.5154 1.406873 255 255 255
210.48764 867.54694 1.2556608 255 255 255
689.82397 569.53424 0.61827338 255 255 255
-3332.6785 -2975.5808 -8.4626122 255 255 255
3165.0608 2276.1511 3.0471408 255 255 255
-715.30261 -1110.7893 -3.0720334 255 255 255
1012.8163 1169.6187 1.6726183 255 255 255
794.69623 795.49078 1.574192 255 255 255
-2704.2107 -3613.2405 -7.7105827 255 255 255
787.73077 791.18781 1.5641621 255 255 255
-1379.9673 -843.21216 -3.1534288 255 255 255
1054.816 1361.8976 1.3715218 255 255 255
-359.34412 -375.85614 -1.6359308 255 255 255
3956.7026 6543.9473 11.970198 255 255 255
-872.87762 -1215.3931 -3.2447104 255 255 255
-10077.587 -19761.922 -53.885159 255 255 255
-472.44855 -381.64575 -1.913482 255 255 255
587.09814 595.1051 0.67492521 255 255 255
1351.2114 1001.2703 1.9254295 255 255 255
969.48962 1053.4309 1.6663951 255 255 255
-1024.631 -924.60602 -2.6624937 255 255 255
-1653.8947 -4264.521 -7.4019585 255 255 255
-533.37225 -853.61145 -2.3967378 255 255 255
1381.1227 1329.9778 1.7352154 255 255 255
1147.3209 1093.9835 1.7511777 255 255 255
953.00208 804.04688 1.7151227 255 255 255
-8055.6152 -9188.749 -21.109718 255 255 255
-30769.787 -65110.801 -96.344727 255 255 255
44863.078 120538.3 174.7623 255 255 255
1271.4465 1264.7207 1.6149429 255 255 255
1359.7926 1002.0175 1.9333255 255 255 255
299.25372 635.83746 1.1015037 255 255 255
-1004.5844 -3364.6816 -5.7655463 255 255 255
461.25443 931.61774 1.6373324 255 255 255
2246.1101 938.03552 2.3942969 255 255 255
2274.4636 2754.0144 3.6462135 255 255 255
-1665.5286 -2377.9399 -4.7828884 255 255 255
1364.8196 1000.6698 1.9352527 255 255 255
-778.26428 -287.88086 -1.9694349 255 255 255
2808.3374 793.69568 2.6372352 255 255 255
-950.46967 -418.76199 -2.3835196 255 255 255
650.90948 1217.149 1.5398879 255 255 255
1294.4684 2410.1963 3.0473301 255 255 255
-922.40735 -367.452 -2.0358858 255 255 255
-1044.7566 -704.06335 -2.6708531 255 255 255
1323.6589 2989.1313 4.125505 255 255 255
-1254.5645 -1911.0372 -4.2793498 255 255 255
289.56647 630.3324 1.0924088 255 255 255
-894.92072 -631.93079 -2.3023942 255 255 255
-1320.2275 -1354.8163 -3.3728104 255 255 255
1508.0013 1626.667 3.7028537 255 255 255
-1468.7209 -1649.9817 -3.8896511 255 255 255
-1340.5775 -674.54358 -2.6490326 255 255 255
968.56781 1736.6493 2.2028074 255 255 255
2234.8984 2244.1128 3.8661056 255 255 255
404.92377 420.27621 1.3579117 255 255 255
-1332.2472 -895.38666 -2.8020413 255 255 255
975.84943 1091.5806 1.6625084 255 255 255
-566.89923 -497.79041 -2.2696149 255 255 255
654.14703 1215.8949 1.5051117 255 255 255
6756.231 13776.11 20.36047 255 255 255
-499.62955 -451.05029 -1.9974072 255 255 255
541.63727 713.11249 1.2764122 255 255 255
351.46881 355.68619 1.0051522 255 255 255
745.57562 1145.0309 1.6628131 255 255 255
-344.07944 -531.15747 -1.8299001 255 255 255
-25988.949 -31662.801 -71.515808 255 255 255
369.94305 2449.8979 3.5326824 255 255 255
-2784.749 -2390.0051 -6.1606483 255 255 255
453.60419 734.43018 1.2602291 255 255 255
-601.26831 -732.01868 -2.2099123 255 255 255
-3029.5159 -7890.1543 -12.637931 255 255 255
20684.699 42605.699 74.404053 255 255 255
741.00525 728.59314 1.5304492 255 255 255
-3115.6816 -5555.2671 -9.7517805 255 255 255
1375.7998 1151.0562 1.8388385 255 255 255
-739.54297 -1378.0984 -3.3943884 255 255 255
1131.8556 1322.129 1.310057 255 255 255
242.68556 1071.9928 1.4105051 255 255 255
-988.29559 -1109.3997 -2.9223561 255 255 255
723.41504 718.76276 1.5139656 255 255 255
-706.40283 -1425.1307 -3.1544507 255 255 255
289.64127 626.77216 1.0890174 255 255 255
-1304.6951 -1314.6012 -4.0026774 255 255 255
24271.053 20533.572 31.407837 255 255 255
1463.7002 1823.5739 2.3909504 255 255 255
597.77454 1119.7399 1.4906219 255 255 255
-445.3363 -478.70184 -1.7958493 255 255 255
-596.18195 -808.95306 -2.353992 255 255 255
-1677.7526 -1267.7957 -3.1799552 255 255 255
935.40002 715.39825 1.2450715 255 255 255
368.04935 80.634537 0.86141211 255 255 255
-1649.1816 -1403.8425 -4.067399 255 255 255
545.29401 320.44373 0.60438508 255 255 255
-925.48724 -1620.1683 -2.8875487 255 255 255
-834.05249 -601.20288 -2.2251329 255 255 255
-1030.207 -594.36359 -2.6015768 255 255 255
1259.64 744.13666 3.1091299 255 255 255
-353.41238 -563.53979 -1.883846 255 255 255
353.46768 133.57062 0.87990427 255 255 255
276.40637 617.20264 1.073549 255 255 255
-1378.4965 -1014.0435 -4.5652757 255 255 255
-715.49286 -317.08194 -1.6986405 255 255 255
-501.28134 -451.12363 -2.0068247 255 255 255
740.67786 726.97235 1.5306653 255 255 255
1264.2643 747.18799 3.1585653 255 255 255
-3568.4929 -6833.6782 -14.016327 255 255 255
1385.0309 1606.4619 2.3536277 255 255 255
927.90833 1387.3048 1.2614576 255 255 255
3651.8582 4162.2329 7.9508176 255 255 255
-6286.1675 -9650.2959 -18.166111 255 255 255
-388.80768 -410.41269 -1.8034383 255 255 255
779.10938 1109.7804 1.0988604 255 255 255
-379.78427 -263.81018 -1.8114387 255 255 255
8880.5469 12510.104 19.476274 255 255 255
1863.3149 1468.1904 1.7354647 255 255 255
1261.55 986.89777 1.5444285 255 255 255
-518.13995 -836.05835 -2.4810207 255 255 255
928.37183 1289.4567 2.0958896 255 255 255
1298.6367 1669.9856 1.7383912 255 255 255
1129.8416 763.38324 1.7118797 255 255 255
4601.5171 11901.632 18.358715 255 255 255
2598.4053 3746.1042 5.5323548 255 255 255
-3801.4465 -5801.0312 -11.422874 255 255 255
253.59515 204.36536 0.34315878 255 255 255
-674.9928 -471.30969 -2.6490211 255 255 255
-460.92468 -296.89087 -1.9085447 255 255 255
1714.2074 1627.6437 2.4100602 255 255 255
-827.17603 -1243.3823 -3.2146611 255 255 255
849.10931 1029.0557 1.5847702 255 255 255
-197.69612 -1054.4252 -2.5164723 255 255 255
5499.5947 8539.7549 13.53711 255 255 255
4378.1157 7867.8564 13.169825 255 255 255
257.30118 880.91949 1.2558986 255 255 255
-2899.7378 -4572.499 -10.068721 255 255 255
1822.743 1535.6055 2.4994321 255 255 255
-409.75305 -669.34601 -2.1965687 255 255 255
1408.9965 1848.0759 2.4455464 255 255 255
548.3609 443.95279 1.3593818 255 255 255
535.89386 1055.0167 1.4456242 255 255 255
827.2132 5418.8804 7.1948609 255 255 255
1557.0894 1142.5962 2.1844666 255 255 255
5934.7334 4834.6143 6.6475487 255 255 255
916.85742 533.9538 1.1565636 255 255 255
860.60193 924.60278 1.6079589 255 255 255
-132.21405 -200.972 -1.3068533 255 255 255
1482.3969 1185.2032 1.7044767 255 255 255
341.84695 377.43137 0.73171419 255 255 255
-1638.0181 -3817.3335 -6.9281039 255 255 255
-647.74243 -456.92087 -2.1357603 255 255 255
-548.8645 -424.37833 -1.6362283 255 255 255
-421.83545 -402.6716 -1.875398 255 255 255
1436.4034 1005.584 1.9894055 255 255 255
1391.4535 1277.5973 1.2974105 255 255 255
-371.62054 -168.60956 -1.6637565 255 255 255
-640.97925 -742.94727 -2.3619704 255 255 255
-690.73401 -1214.5248 -3.0013235 255 255 255
-232.59692 -727.40485 -2.1494005 255 255 255
1173.0856 1437.1394 1.754494 255 255 255
231.145 129.83009 0.38751557 255 255 255
604.86859 1050.3662 1.4637402 255 255 255
1423.9888 1098.1393 1.7208345 255 255 255
1121.1331 1088.7498 1.7366203 255 255 255
-1254.3015 -500.90707 -2.304425 255 255 255
-12198.282 -19221.668 -49.77158 255 255 255
1868.9268 1212.9387 1.9407133 255 255 255
-354.15897 -527.70148 -1.9557357 255 255 255
-761.35242 -515.07495 -2.772306 255 255 255
-1088.5759 -1561.6521 -3.5167186 255 255 255
803.67731 975.07172 1.5583279 255 255 255
-998.63605 -3738.5173 -6.4778557 255 255 255
-321.62537 -282.91159 -1.6007842 255 255 255
1602.5068 1539.1827 2.1878386 255 255 255
-2483.3821 -2027.0936 -6.2911153 255 255 255
15031.768 28450.389 44.106964 255 255 255
38248.949 98390.352 156.41925 255 255 255
-684.5481 -916.70209 -2.6797266 255 255 255
938.92865 920.41144 1.6571954 255 255 255
-894.98804 -979.32751 -3.1419408 255 255 255
2985.3381 4007.2527 5.6937222 255 255 255
3016.8469 8660.0596 17.111855 255 255 255
770.62823 948.59467 0.82349318 255 255 255
655.70184 545.69757 1.0205195 255 255 255
875.7793 1187.7037 1.0393833 255 255 255
-353.85922 -1167.9558 -2.8784008 255 255 255
-396.1857 -331.12869 -1.6546005 255 255 255
-536.05811 -298.57913 -2.2773027 255 255 255
5086.7881 2010.1805 4.2635989 255 255 255
722.7674 522.84912 0.70339578 255 255 255
-348.83789 -327.18652 -1.6209493 255 255 255
-3577.9595 -4750.3096 -9.945899 255 255 255
-339.93756 -434.19803 -1.7268468 255 255 255
-1612.2209 -1249.2526 -4.8169379 255 255 255
-307.18039 -1112.619 -2.8275375 255 255 255
-477.31931 -548.93701 -2.0656765 255 255 255
838.42059 935.59698 1.5862169 255 255 255
-1746.542 -2502.1638 -6.0890851 255 255 255
-14130.822 -5963.1948 -18.66633 255 255 255
-1177.2714 -1272.1843 -3.8387063 255 255 255
-789.44617 -789.07172 -2.7793887 255 255 255
932.97101 1020.7355 1.6477108 255 255 255
454.9335 869.37604 1.256305 255 255 255
1555.2056 1952.3462 3.6125102 255 255 255
2196.166 1646.9058 2.9503655 255 255 255
-731.35309 -1237.2429 -3.2251034 255 255 255
-358.52826 -1034.2419 -2.4789026 255 255 255
-3682.5808 -4674.6758 -9.1893892 255 255 255
796.04962 810.39575 1.5722541 255 255 255
672.39758 441.27084 0.56763256 255 255 255
2845.4309 2631.5452 3.8862195 255 255 255
1535.3003 1708.1099 2.0810373 255 255 255
3988.9087 19806.094 31.46529 255 255 255
-678.35071 -1693.604 -4.2651467 255 255 255
-558.18323 -316.74762 -1.7060825 255 255 255
-9433.8984 -31187.855 -48.455231 255 255 255
-1333.4427 -2721.6467 -5.0175076 255 255 255
890.33832 334.34055 1.9931653 255 255 255
1614.7122 3505.6694 4.9246621 255 255 255
655.6814 1190.8217 1.0874202 255 255 255
471.67233 959.81653 1.5769486 255 255 255
533.66632 901.38202 0.83092028 255 255 255
-538.86792 -419.13297 -1.8402444 255 255 255
-2093.8345 -3284.0122 -6.8955903 255 255 255
-788.18213 -1026.2672 -2.9322786 255 255 255
2861.2532 2270.2717 3.5116465 255 255 255
2169.5752 11001.127 14.739339 255 255 255
-2060.499 -1178.7975 -3.2408135 255 255 255
-519.55634 -1045.8556 -3.0510521 255 255 255
1084.345 832.05237 1.2715262 255 255 255
1305.3712 2631.8169 3.4983332 255 255 255
-409.49698 -976.80573 -2.5790055 255 255 255
212.82158 130.30931 0.28894168 255 255 255
1040.8887 1929.9988 2.0085142 255 255 255
969.77399 927.13898 1.674188 255 255 255
1077.3271 2590.5935 3.5761001 255 255 255
1439.6003 1510.4159 2.0462036 255 255 255
1301.3683 1581.681 1.9549116 255 255 255
1774.4279 2413.0903 3.2246919 255 255 255
2361.3142 1243.522 1.8198979 255 255 255
1033.4143 1203.3136 1.6793325 255 255 255
1444.746 2856.6707 3.8794298 255 255 255
-348.87494 -924.15332 -2.3765414 255 255 255
653.88776 873.19623 1.4449512 255 255 255
716.93805 844.37634 1.3977901 255 255 255
634.75891 882.39227 1.2975036 255 255 255
-997.58716 -2041.1044 -4.2491798 255 255 255
463752.47 1063623.1 1648.2294 255 255 255
1111.7944 1281.1318 1.2821383 255 255 255
3664.5176 6105.2129 10.56978 255 255 255
-485.0881 -563.21661 -2.0124981 255 255 255
1958.5259 3976.0723 6.9358044 255 255 255
-1499.2561 -1068.3713 -3.5198441 255 255 255
-353.45013 -135.64984 -1.3881379 255 255 255
1329.1576 1271.0635 1.6615869 255 255 255
-297.7041 -703.88721 -2.1531944 255 255 255
1819.9241 2077.7856 2.9303734 255 255 255
12877.915 16422.15 28.195705 255 255 255
-693.72662 -801.19379 -2.4096437 255 255 255
1686.4781 3446.6201 5.0057006 255 255 255
-517.80682 -2037.1156 -4.2793112 255 255 255
757.75208 745.28198 1.5467421 255 255 255
811.85492 1406.5897 1.9327122 255 255 255
3058.5212 1901.9502 3.6407218 255 255 255
-407.49377 -384.08945 -1.8482411 255 255 255
1019.395 705.62396 1.3460599 255 255 255
908.69092 910.03204 1.6390051 255 255 255
-14000.182 -37221.207 -54.742897 255 255 255
555.60168 513.98395 1.4386104 255 255 255
937.00085 1139.9596 1.2909069 255 255 255
-834.58032 -680.34625 -2.2984943 255 255 255
-1652.649 -1406.0669 -4.0760984 255 255 255
6449.2344 2529.3108 9.0574417 255 255 255
1346.2715 975.79523 1.9463636 255 255 255
-1279.6633 -802.74139 -3.1386719 255 255 255
3649.9819 2744.4438 8.7399492 255 255 255
371.16165 664.87695 0.84225255 255 255 255
-1328.2076 -1964.9689 -3.4863598 255 255 255
-411.40509 -368.95129 -1.768935 255 255 255
-1539.9138 -5021.7363 -8.6748171 255 255 255
1480.2625 678.47729 2.4324257 255 255 255
275.66959 617.35614 1.0737681 255 255 255
896.67883 978.08099 1.6300219 255 255 255
934.65674 704.10925 1.7506967 255 255 255
-1614.8728 -937.08167 -4.0133748 255 255 255
-1413.9288 -902.73553 -2.8292956 255 255 255
2220.8679 6698.7812 10.144125 255 255 255
939.54352 615.79034 0.9802202 255 255 255
-926.2688 -519.31866 -2.4048135 255 255 255
1587.1288 1053.2435 3.3724573 255 255 255
740.89178 728.35114 1.5298971 255 255 255
-419.90134 -459.5253 -1.8659803 255 255 255
-985.10583 -1299.6853 -3.1935184 255 255 255
905.99585 600.50256 1.0689942 255 255 255
-1446.9978 -1103.2997 -3.3028114 255 255 255
285.28561 624.0517 1.0839623 255 255 255
1807.7382 1130.0797 2.0044465 255 255 255
833.59052 1051.1893 1.5775985 255 255 255
-446.56821 -477.37778 -1.8682615 255 255 255
-3519.6089 -5480.4868 -9.8718863 255 255 255
-672.90015 -217.64275 -1.7122012 255 255 255
-3336.1211 -5113.9004 -11.580102 255 255 255
1704.4962 2558.6013 3.4623668 255 255 255
966.58472 808.08948 1.7267016 255 255 255
-987.68805 -651.11987 -2.0913532 255 255 255
-355.13141 -892.58917 -2.4014268 255 255 255
5936.3623 1424.5334 14.744878 255 255 255
1066.3055 1321.3795 1.6827196 255 255 255
2548.4878 2441.2444 3.5026693 255 255 255
16602.744 26385.016 46.920723 255 255 255
928.77948 970.3028 1.648338 255 255 255
214.433 810.00378 1.2103149 255 255 255
-1275.1941 -505.49838 -3.1748948 255 255 255
-1019.8267 -1090.188 -2.9653645 255 255 255
-478.82657 -810.06824 -2.2350156 255 255 255
1342.0645 982.13629 2.1762335 255 255 255
-905.9176 -1587.7106 -2.8251417 255 255 255
5362.4731 10677.331 16.85866 255 255 255
-5692.8452 -5070.0337 -12.406025 255 255 255
-1538.0471 -2067.218 -4.4922466 255 255 255
289.48907 630.11829 1.0920173 255 255 255
-1899.7014 -2958.2603 -7.7337303 255 255 255
-705.61835 -1205.3282 -3.1749947 255 255 255
-408.33063 -1326.0695 -3.0167441 255 255 255
1072.7372 1251.3163 1.6900183 255 255 255
1817.0067 1130.562 2.0127957 255 255 255
-1282.7971 -763.21222 -3.1586061 255 255 255
984.63055 1102.9969 1.6667585 255 255 255
302.15643 637.52502 1.1050683 255 255 255
1363.5289 2377.5664 3.2034225 255 255 255
304.01682 638.68939 1.1071403 255 255 255
351.83444 355.97208 1.007085 255 255 255
341.4523 798.8479 1.0223032 255 255 255
1376.6724 1150.6716 1.8389176 255 255 255
476.07739 916.81238 1.3505851 255 255 255
-1062.229 -1633.6018 -3.8915858 255 255 255
416.50012 671.55743 1.2044003 255 255 255
2973.1699 760.63269 2.4335189 255 255 255
-799.68976 -533.67035 -2.239805 255 255 255
-1227.7478 -808.00311 -3.0787439 255 255 255
549.60339 813.27026 0.7742362 255 255 255
-1810.6172 -2771.8997 -5.4709511 255 255 255
787.56677 791.24512 1.5657521 255 255 255
319.91852 142.44455 0.73403066 255 255 255
-2045.1777 -3465.1218 -6.6748424 255 255 255
567.18689 572.3288 0.84557539 255 255 255
-1156.0206 -1402.5466 -3.42589 255 255 255
1737.5435 1570.7145 2.1647749 255 255 255
-286.06122 -244.21365 -1.5029447 255 255 255
-1879.1271 -1855.764 -3.8264964 255 255 255
2439.4539 1218.0312 1.8073372 255 255 255
736.52472 861.30554 1.5044651 255 255 255
-798.57568 -1224.9237 -3.17204 255 255 255
1501.3585 657.14893 2.4981456 255 255 255
81.690849 315.39136 0.66362077 255 255 255
2253.0969 564.83557 3.1168749 255 255 255
1744.4838 1058.1158 2.0735314 255 255 255
503.5564 416.3595 1.262696 255 255 255
-1544.4974 -1449.7299 -3.713757 255 255 255
1381.5238 1145.7017 1.8427222 255 255 255
-1087.5355 -1634.6639 -3.4687915 255 255 255
266.98868 620.86755 1.0717355 255 255 255
747.57855 706.18781 1.5416155 255 255 255
1004.8293 919.41614 1.7111025 255 255 255
-966.6582 -1360.1947 -3.2195449 255 255 255
1805.1807 2862.9961 5.6137877 255 255 255
-985.51837 -564.1239 -2.4209058 255 255 255
-800.3996 -1059.4452 -2.9260917 255 255 255
9123.4551 15006.957 22.605804 255 255 255
1351.389 1000.4261 1.925325 255 255 255
-415.49304 -439.62918 -1.8626516 255 255 255
-995.57257 -815.52222 -2.5284398 255 255 255
-1387.2872 -571.53595 -3.3953903 255 255 255
5238.4712 16905.191 23.044367 255 255 255
-1080.286 -2269.9675 -4.4267149 255 255 255
443.11719 418.55283 1.0970833 255 255 255
-557.42865 -1444.1222 -3.1568623 255 255 255
-2173.7263 -6825.3926 -12.267651 255 255 255
-1386.8938 -884.44165 -2.7848206 255 255 255
-2989.4734 -2266.5259 -7.1875381 255 255 255
2438.7148 1031.1561 3.1668069 255 255 255
-806.66724 -415.92148 -2.0562947 255 255 255
952.32489 1062.7091 1.6539733 255 255 255
-7578.5894 -8696.9951 -19.245184 255 255 255
-1986.22 -3499.3948 -6.0263901 255 255 255
272.29926 625.90723 1.0796698 255 255 255
-517.76044 -510.64124 -2.0353787 255 255 255
1311.1921 741.65076 2.1754591 255 255 255
739.61133 722.45325 1.5316647 255 255 255
680.0376 667.927 1.3218006 255 255 255
1364.1814 1000.2667 1.9344838 255 255 255
-572.68951 -665.72522 -2.5072827 255 255 255
-5971.979 -8760.3496 -16.77033 255 255 255
1689.1241 1462.7529 1.6590992 255 255 255
-571.94568 -1231.8241 -2.9586768 255 255 255
-762.49011 -2811.3477 -5.1152701 255 255 255
-971.88525 -737.48822 -2.6318173 255 255 255
-2281.1128 -3975.8079 -7.154283 255 255 255
3109.3762 2630.6289 4.7699409 255 255 255
-376.55582 -643.57294 -2.0200312 255 255 255
-1378.9119 -1916.9868 -4.3796234 255 255 255
946.73138 1775.9233 1.8575832 255 255 255
720.61359 742.03076 1.0915773 255 255 255
3081.7935 2363.5498 3.1327095 255 255 255
-473.56335 -1699.7677 -3.5947955 255 255 255
-750.526 -1303.8146 -2.8526587 255 255 255
-1560.3203 -1509.0693 -3.5526683 255 255 255
681.61621 446.14755 1.5737495 255 255 255
389.83426 432.99942 0.87026232 255 255 255
714.15936 309.12366 2.0257156 255 255 255
986.20062 1313.8442 1.3074366 255 255 255
-580.66724 -802.54968 -2.5697947 255 255 255
969.77521 1056.316 1.6646442 255 255 255
606.58447 455.48615 1.4239249 255 255 255
926.26331 669.1189 1.7676101 255 255 255
461.63083 401.19196 1.192873 255 255 255
-21531.682 -23713.789 -63.071896 255 255 255
2345.6089 1214.3921 1.8624479 255 255 255
-457.17999 -1556.8512 -3.2788754 255 255 255
159.97844 183.72375 0.46063125 255 255 255
-1247.8075 -2706.7798 -5.0211105 255 255 255
-614.9054 -522.29474 -1.8419033 255 255 255
838.68597 1775.5349 1.8098609 255 255 255
-11485.62 -11641.208 -30.361971 255 255 255
426.2117 733.47809 1.2426097 255 255 255
800.93878 1619.075 2.2990668 255 255 255
978.32416 1055.7645 1.6693649 255 255 255
258.87744 1084.7561 1.4189516 255 255 255
-373.05103 -169.7795 -1.6829648 255 255 255
2224.7852 1432.6094 1.6955538 255 255 255
979.617 1091.8428 1.6639477 255 255 255
692.62897 1228.6819 1.5545226 255 255 255
501.97681 1022.4377 2.8017278 255 255 255
506.44717 985.39355 1.4921076 255 255 255
-677.03845 -197.57664 -1.6868479 255 255 255
5692.5908 9801.4678 18.499466 255 255 255
1356.2905 999.50287 1.9278291 255 255 255
1349.7865 973.06787 1.9436728 255 255 255
-5451.3105 -10157.42 -18.249517 255 255 255
2525.0867 3391.0312 4.7311244 255 255 255
1072.2477 1413.0804 1.6986046 255 255 255
388.3222 369.64191 1.0691493 255 255 255
2117.031 5518.2266 10.000645 255 255 255
363.3013 271.41324 0.85986054 255 255 255
-3090.5576 -4674.4854 -10.405822 255 255 255
2188.2571 1490.6559 2.4271114 255 255 255
171.46738 103.11404 0.17360178 255 255 255
2025.5863 1813.7227 5.7848845 255 255 255
18984.617 22324.514 46.148857 255 255 255
-5184.9468 -13439.486 -21.451466 255 255 255
1923.5583 1482.1357 1.724745 255 255 255
49.105427 336.20221 0.68381095 255 255 255
3243.4597 5937.9551 8.6771908 255 255 255
-1472.6345 -1646.9397 -3.8837948 255 255 255
1708.1982 859.99255 2.3455803 255 255 255
-804.39606 -688.71637 -3.1819742 255 255 255
-1025.8489 -554.79401 -2.5216818 255 255 255
1443.5026 2416.9929 3.2409489 255 255 255
1012.6713 1169.7079 1.672024 255 255 255
-726.5495 -932.26294 -2.5673468 255 255 255
-1359.9596 -2015.6926 -4.4666266 255 255 255
-924.73749 -507.65567 -2.3312902 255 255 255
-4382.0752 -8208.0566 -12.873126 255 255 255
983.31885 882.86938 1.7086463 255 255 255
13137.06 29140.428 47.055992 255 255 255
234.17128 404.74777 0.85122263 255 255 255
-1665.4135 -1354.3246 -3.9962199 255 255 255
1099.834 1019.6571 1.2234255 255 255 255
-4865.5664 -8132.7974 -15.324333 255 255 255
-359.85162 -280.82599 -1.6295341 255 255 255
-533.01178 -247.7934 -2.1742094 255 255 255
1302.474 899.68896 1.6878755 255 255 255
978.42297 1002.5773 1.6710167 255 255 255
-32175.762 -84310.836 -125.3916 255 255 255
945.4068 1433.5692 2.6703801 255 255 255
2358.3835 2359.447 5.845737 255 255 255
824.8006 655.56134 0.88072783 255 255 255
289.24292 738.14862 1.9264778 255 255 255
1543.8374 1292.8185 1.6663959 255 255 255
1284.3944 1141.7367 1.4708769 255 255 255
-3464.2673 -5164.7373 -11.440129 255 255 255
941.14258 916.14691 1.661551 255 255 255
-380.43851 -419.42599 -1.7997319 255 255 255
-502.68945 -811.38116 -2.2518966 255 255 255
235.64418 1065.8586 1.4061866 255 255 255
-608.69702 -1073.6637 -2.8654737 255 255 255
226.07288 268.64578 0.38611719 255 255 255
-458.33905 -329.97769 -1.9135724 255 255 255
-1823.6249 -2317.7639 -5.698123 255 255 255
-41430.129 -61569.781 -116.12727 255 255 255
965.58899 1159.1915 1.7292981 255 255 255
-591.64252 -654.58765 -2.5442605 255 255 255
845.81012 1156.5177 2.6346629 255 255 255
949.01672 959.9563 1.0593101 255 255 255
1544.4022 1034.5791 1.6128707 255 255 255
-1374.5215 -1855.2842 -3.9555151 255 255 255
4116.5503 7238.2686 11.549663 255 255 255
848.95673 1029.0657 1.5855174 255 255 255
-348.30255 -205.50156 -1.4920948 255 255 255
-365.08615 -542.06049 -1.9002956 255 255 255
-555.58142 -499.23587 -2.5382171 255 255 255
902.97418 984.74292 1.6301026 255 255 255
-967.29584 -397.72345 -2.5599456 255 255 255
948.53754 1269.7076 1.6383402 255 255 255
-830.38141 -577.58588 -2.6147468 255 255 255
-980.97607 -1354.5786 -2.617321 255 255 255
207.32637 233.52731 0.27714896 255 255 255
-5674.0762 -12614.587 -22.531235 255 255 255
-1895.2451 -2248.5879 -5.3450618 255 255 255
1164.126 2460.4641 3.7986627 255 255 255
3694.7358 6228.9287 13.634007 255 255 255
3300.3679 5202.8721 8.1276045 255 255 255
-3178.4819 -3558.772 -7.2587619 255 255 255
1580.1576 3825.3357 4.8822355 255 255 255
-10811.273 -4667.9297 -16.199148 255 255 255
3514.782 5802.1982 9.3298893 255 255 255
242.34242 1031.4854 1.3807532 255 255 255
-2758.7114 -3933.8394 -7.1281657 255 255 255
3234.5779 1805.6748 3.0815957 255 255 255
1848.0951 1449.9493 1.5834119 255 255 255
932.24353 1020.8301 1.6469663 255 255 255
698.4646 598.59222 1.5125796 255 255 255
805.3764 962.04688 1.5563896 255 255 255
-585.02307 -1072.4558 -2.7162168 255 255 255
-373.8822 -297.52557 -1.5537117 255 255 255
2893.0366 2234.9648 2.4447081 255 255 255
-849.69843 -1191.7001 -3.714318 255 255 255
807.14038 952.90765 1.5574387 255 255 255
5275.7334 6342.5161 10.187799 255 255 255
1194.6737 1334.2543 1.7120166 255 255 255
939.98718 633.89111 0.90497047 255 255 255
1728.0038 3209.5334 4.0989633 255 255 255
2907.0735 10829.012 14.837651 255 255 255
686.42279 670.28937 0.70283306 255 255 255
841.0174 1050.9863 1.0807122 255 255 255
-382.61362 -762.23059 -2.2367883 255 255 255
-82309.117 -263564.81 -403.38364 255 255 255
-685.71277 -925.22992 -2.5901875 255 255 255
954.63202 591.85358 1.3024921 255 255 255
-1088.9015 -485.25732 -2.3150325 255 255 255
6107.4277 10893.8 15.758902 255 255 255
-5006.5215 -7223.0083 -12.665673 255 255 255
-585.38007 -766.46057 -2.4599252 255 255 255
142.93987 218.0634 0.28106824 255 255 255
978.39709 871.70502 1.0719403 255 255 255
377.5665 1118.1742 1.5711528 255 255 255
-2185.7383 -3091.9175 -5.8289871 255 255 255
3065.4351 4604.7407 6.8003969 255 255 255
224.14224 239.24454 0.30840269 255 255 255
-2304.2114 -1464.2831 -5.4144387 255 255 255
48034.188 44476.414 66.023651 255 255 255
-738.39563 -1306.5327 -3.2139163 255 255 255
479.30069 805.06268 1.3094013 255 255 255
16601.273 32457.271 47.441177 255 255 255
756.95239 744.38171 1.5445081 255 255 255
1971.3849 2418.6235 4.095418 255 255 255
-3689.3694 -4623.8965 -7.4491558 255 255 255
4781.2158 6906.2593 11.516813 255 255 255
-1341.6973 -2959.5354 -6.3355527 255 255 255
-1047.9843 -1071.6819 -3.3036406 255 255 255
485.14844 519.24396 1.2250556 255 255 255
-659.21466 -1099.4143 -2.9952497 255 255 255
-578.54163 -406.70956 -1.9531679 255 255 255
-441.25986 -585.68823 -2.067914 255 255 255
