ply
format ascii 1.0
comment PCL generated
element vertex 1096
property float x
property float y
property float z
property uchar red
property uchar green
property uchar blue
element face 0
element camera 0
property float view_px
property float view_py
property float view_pz
property float x_axisx
property float x_axisy
property float x_axisz
property float y_axisx
property float y_axisy
property float y_axisz
property float z_axisx
property float z_axisy
property float z_axisz
property float focal
property float scalex
property float scaley
property float centerx
property float centery
property int viewportx
property int viewporty
property float k1
property float k2
end_header
6886.3809 2703.6587 6.6953688 255 255 255
331.31824 889.88391 1.3508271 255 255 255
335.58957 891.35889 1.355285 255 255 255
338.7919 889.65265 1.3551216 255 255 255
1751.1412 835.97797 3.0590596 255 255 255
5329.501 1652.2067 6.7692122 255 255 255
697.89679 327.61078 0.67177838 255 255 255
-1572.7815 -1798.0098 -3.122515 255 255 255
-279.24271 -656.0896 -1.9735011 255 255 255
200.50224 452.35199 0.89183837 255 255 255
543.74823 1190.3601 2.4299614 255 255 255
-693.91229 -1080.0775 -2.9604683 255 255 255
1039.7693 1023.1229 5.0394983 255 255 255
5234.5308 2314.9604 5.6786642 255 255 255
-519.98059 -754.52155 -3.0147963 255 255 255
-1348.1652 -1784.3562 -3.4487088 255 255 255
35358.512 36671.898 78.006813 255 255 255
258.70184 2631.9827 5.2044678 255 255 255
-401.4111 -371.86771 -1.5153823 255 255 255
-1189.9536 -1569.0508 -5.5259051 255 255 255
-15987.212 -16240.224 -57.598331 255 255 255
8234.833 2694.2952 7.9214573 255 255 255
-3459.3384 -2830.6841 -10.096326 255 255 255
-330.35889 -540.49115 -1.8506312 255 255 255
560.25104 368.1022 1.3389316 255 255 255
-658.36469 -251.64124 -1.7460983 255 255 255
361.63525 676.91376 1.6947014 255 255 255
399.54709 327.5748 0.46572548 255 255 255
-10034.497 -8093.6191 -22.240587 255 255 255
-1981.6533 -528.15521 -6.8627739 255 255 255
-571.6958 -511.33441 -2.9191751 255 255 255
-613.99182 -407.47366 -1.6533984 255 255 255
-825.87781 -1296.4689 -4.3032384 255 255 255
337.26849 505.04053 1.0629876 255 255 255
-4470.1411 -4317.4932 -9.375206 255 255 255
6702.0591 2209.7249 7.2625089 255 255 255
-636.62018 -556.50598 -1.8702906 255 255 255
2422.0266 3256.3123 10.03616 255 255 255
1223.8969 3080.6069 5.7001367 255 255 255
396.36856 898.23041 1.3937446 255 255 255
-2314.0288 -1396.4093 -5.0428758 255 255 255
-452.96146 -532.92572 -1.8919312 255 255 255
1514.3796 4310.209 8.3652086 255 255 255
-566.32037 -546.95795 -2.1894825 255 255 255
422.57153 1657.9961 2.8626599 255 255 255
608.41284 472.15146 0.67557299 255 255 255
-351.90427 -369.91122 -2.1091726 255 255 255
-967.87897 -1732.793 -3.6508188 255 255 255
300.77805 620.86639 1.1208179 255 255 255
-364.7243 -222.1284 -1.4137409 255 255 255
-428.40042 -544.83142 -1.6337751 255 255 255
-347.26096 -735.62512 -2.1208034 255 255 255
-603.71399 -433.72595 -1.7338873 255 255 255
-692.86206 -589.9303 -2.0994527 255 255 255
-979.09637 -1002.7025 -2.2430346 255 255 255
2805.1399 6561.2261 11.344567 255 255 255
821.82013 552.38434 0.96873295 255 255 255
-1075.5986 -1180.2302 -2.4406817 255 255 255
-566.50378 -877.45874 -2.7349091 255 255 255
28574.029 11329.667 30.634384 255 255 255
3386.6433 2381.8096 3.9518814 255 255 255
4835.0986 8109.1367 13.953173 255 255 255
669.27356 653.92334 0.77995193 255 255 255
-412.94806 -355.58942 -1.5130625 255 255 255
1815.4241 809.65094 3.184655 255 255 255
291.43774 381.01407 0.38006485 255 255 255
1990.6857 1025.3607 6.5041084 255 255 255
508.88828 606.90576 0.76467186 255 255 255
1131.2971 1670.8663 3.1073277 255 255 255
-346.53305 -169.35455 -1.8995434 255 255 255
507.34061 537.36078 1.284212 255 255 255
-601.4007 -410.31351 -1.9001806 255 255 255
1212.2117 1101.1842 1.453154 255 255 255
-849.17487 -974.80194 -3.5784984 255 255 255
588.44397 490.34894 0.70004034 255 255 255
-321.54755 -163.48039 -1.4096562 255 255 255
782.80536 696.13458 1.7968104 255 255 255
294.52316 619.81329 1.0744005 255 255 255
770.56842 291.78455 0.79388946 255 255 255
6022.4829 5763.5562 12.845921 255 255 255
275.1517 798.65759 1.4015735 255 255 255
-389.71494 -143.04478 -1.3970116 255 255 255
6116.5278 2772.6562 5.9533138 255 255 255
-550.57959 -210.09059 -1.546931 255 255 255
6777.2681 6587.3594 26.118404 255 255 255
8051.5454 4041.9841 9.1602383 255 255 255
2666.0688 3589.9255 11.873048 255 255 255
-808.63855 -644.82745 -2.0130091 255 255 255
376.82037 637.01013 1.1963713 255 255 255
-298.28604 -426.42093 -1.4752597 255 255 255
2488.9565 1485.7839 3.5506489 255 255 255
469.0741 778.51892 1.2407022 255 255 255
-470.1824 -272.11737 -1.6859621 255 255 255
3787.4197 3535.1238 13.653359 255 255 255
726.65131 971.07831 2.4187596 255 255 255
-1116.8679 -1268.7744 -2.5234888 255 255 255
368.91629 1349.652 2.0764265 255 255 255
313.34259 576.16907 1.0951391 255 255 255
469.18823 342.63116 1.1748041 255 255 255
-1170.4813 -1798.3019 -3.0443773 255 255 255
692.8811 1643.6304 2.6178715 255 255 255
4376.6377 2071.5579 5.0926299 255 255 255
-840.3324 -636.84503 -3.278971 255 255 255
218.5405 179.5782 0.24565163 255 255 255
1044.8453 1884.3967 5.0283394 255 255 255
-3079.0986 -4864.564 -8.5773382 255 255 255
-805.82379 -937.20062 -3.478538 255 255 255
-480.94418 -108.69396 -1.5321445 255 255 255
-525.9248 -836.86914 -2.4544253 255 255 255
459.98453 769.42657 1.3547122 255 255 255
-618.1756 -167.50296 -1.6663148 255 255 255
250.66917 1367.1161 2.3839395 255 255 255
-830.99249 -1099.9761 -2.3422284 255 255 255
495.66949 788.66095 1.3937157 255 255 255
-519.00714 -418.40118 -1.9288119 255 255 255
819.38605 1603.9442 2.4006188 255 255 255
7071.1982 2722.8677 6.8284521 255 255 255
195.14746 515.31799 0.95246011 255 255 255
-1278.6593 -753.60211 -4.289772 255 255 255
-257.78006 -835.38568 -2.2161965 255 255 255
-395.38654 -499.94125 -2.108304 255 255 255
12160.324 3015.6677 20.558125 255 255 255
225.46889 561.28687 1.0160403 255 255 255
-1716.4082 -1540.326 -7.7551336 255 255 255
2884.4863 1695.0161 3.8529634 255 255 255
523.66058 441.20859 0.58139932 255 255 255
-1729.3065 -1938.2885 -3.7774904 255 255 255
204.25987 902.7439 1.4333342 255 255 255
-524.9552 -1644.9218 -3.6600754 255 255 255
-2320.1116 -1116.6313 -8.236557 255 255 255
332.21442 317.74969 0.44231215 255 255 255
1189.175 1420.7739 1.4787289 255 255 255
-1358.1432 -1783.5586 -6.0646873 255 255 255
185.15349 496.72968 0.92670763 255 255 255
-2820.0889 -4147.0366 -7.8918786 255 255 255
-775.32025 -2515.8845 -7.2303104 255 255 255
404.11765 797.0481 1.3292782 255 255 255
2609.312 6081.6406 10.692364 255 255 255
-986.66321 -1175.7552 -2.3770118 255 255 255
69.514114 362.78561 0.7113356 255 255 255
-860.64929 -1188.3418 -3.1244323 255 255 255
661.13623 605.54785 0.83636755 255 255 255
444.4758 652.0614 1.7933805 255 255 255
91.630623 490.95929 0.87829483 255 255 255
-855.19751 -1125.4802 -2.4654629 255 255 255
2174.1389 1193.1001 7.5540919 255 255 255
-389.15292 -184.84996 -1.3916669 255 255 255
20.863613 124.77988 0.31231585 255 255 255
-884.21393 -1308.7844 -5.0313721 255 255 255
581.19476 457.84061 0.66122162 255 255 255
476.57471 558.61334 2.0040195 255 255 255
455.77414 412.14865 1.7750734 255 255 255
4554.8833 1705.5067 5.7556949 255 255 255
-386.08804 -501.3689 -2.0414104 255 255 255
1655.6381 4500.0337 7.6409335 255 255 255
-725.73547 -605.53223 -2.0302629 255 255 255
-992.3512 -683.1842 -2.3515728 255 255 255
801.74286 646.20081 0.93863326 255 255 255
-2372.1213 -1749.1229 -4.5230918 255 255 255
-826.50018 -555.66956 -2.1048312 255 255 255
408.79059 1842.7231 4.3617935 255 255 255
362.81506 491.46313 1.4463729 255 255 255
111.3585 364.89993 0.73231483 255 255 255
-881.14575 -356.46762 -1.9119107 255 255 255
-554.15765 -442.77682 -2.4490361 255 255 255
405.91113 1101.1686 2.6147618 255 255 255
2905.5925 1703.3595 3.8735435 255 255 255
-639.60815 -599.00079 -2.3102522 255 255 255
-652.91821 -340.68475 -1.8449965 255 255 255
1587.9199 1604.0978 2.162478 255 255 255
-263.73444 -616.34491 -2.0343437 255 255 255
-758.42218 -1376.7556 -2.353833 255 255 255
3710.4402 1799.9348 4.6688447 255 255 255
-353.73846 -472.1409 -2.1935821 255 255 255
545.59985 441.37054 0.66265261 255 255 255
2497.2874 1479.6074 3.5670598 255 255 255
576.63684 593.69519 1.4205191 255 255 255
3732.7114 1808.6155 4.6894655 255 255 255
-16433.924 -24561.146 -76.527046 255 255 255
440.27621 656.29791 1.2670708 255 255 255
895.03375 548.57977 1.8763405 255 255 255
-699.16547 -1681.6603 -4.0546546 255 255 255
970.24847 534.7868 2.6948149 255 255 255
-469.16986 -764.56067 -2.6529145 255 255 255
-1358.0715 -983.03442 -2.9063973 255 255 255
6382.7676 2860.9895 6.0783453 255 255 255
-629.32941 -1203.8325 -3.0779581 255 255 255
799.43274 934.87421 1.7980565 255 255 255
-473.61404 -415.54297 -2.2866979 255 255 255
-564.62604 -765.93182 -2.7587352 255 255 255
-279.31018 -808.67206 -2.4647751 255 255 255
-2857.074 -1386.8661 -4.650713 255 255 255
-338.7251 -264.97668 -1.4721169 255 255 255
1424.4923 1094.1105 3.3001547 255 255 255
2079.8281 2344.9585 8.8602695 255 255 255
-1545.5267 -1593.5757 -3.3937638 255 255 255
-1524.0439 -2346.3894 -7.7746935 255 255 255
-338.81171 -207.47278 -1.4470123 255 255 255
197.34677 195.0145 0.27030545 255 255 255
669.00726 1255.0814 1.770238 255 255 255
-1865.8765 -1804.6829 -5.7708611 255 255 255
-711.9823 -1048.6575 -2.8563499 255 255 255
402.63373 719.18127 1.1585821 255 255 255
6151.5376 2778.1196 5.9837036 255 255 255
3069.5247 2033.6472 3.834305 255 255 255
-733.69861 -906.50452 -2.5452514 255 255 255
-494.68393 -803.50623 -2.3789811 255 255 255
963.46356 649.6358 2.1810269 255 255 255
-716.93823 -798.58539 -2.3989289 255 255 255
-1724.5355 -4150.7944 -7.8965664 255 255 255
-774.97583 -1058.033 -2.1912317 255 255 255
1729.9299 834.89606 3.0211885 255 255 255
172.63672 450.11295 0.86852664 255 255 255
-2030.7797 -1789.2517 -6.2823892 255 255 255
247.74615 375.29517 0.86071992 255 255 255
399.94312 254.08505 0.41409889 255 255 255
623.89801 582.68481 0.75393158 255 255 255
254.7849 555.88287 1.0310209 255 255 255
-2524.4207 -1195.701 -4.7002645 255 255 255
-441.8096 -403.49451 -2.289923 255 255 255
-471.27271 -226.0274 -1.5555665 255 255 255
1714.9292 3537.4495 6.3263826 255 255 255
952.52979 603.87518 3.5856607 255 255 255
1745.0186 3309.0779 5.4954724 255 255 255
-363.23682 -476.61972 -2.3225296 255 255 255
-753.67365 -674.68774 -3.5956028 255 255 255
1779.8552 824.53125 3.1144989 255 255 255
349.56458 325.86722 0.94675928 255 255 255
2103.582 753.82977 3.7153821 255 255 255
6928.728 2776.1089 6.6418672 255 255 255
262.28534 2620.7139 5.5422883 255 255 255
41.404392 269.97861 0.5703131 255 255 255
-494.90765 -743.72565 -2.2916284 255 255 255
2429.2888 963.95624 3.9448588 255 255 255
-641.25043 -398.26459 -1.7542628 255 255 255
-9161.3545 -4987.2593 -12.238131 255 255 255
-666.10358 -996.48914 -2.0669029 255 255 255
-6214.2822 -8756.4902 -34.164494 255 255 255
398.53311 945.26691 1.4286848 255 255 255
1122.0371 2532.9668 5.21591 255 255 255
17764.797 6014.3179 18.568945 255 255 255
-482.61536 -526.11725 -3.3875484 255 255 255
-494.29364 -889.06085 -2.8004761 255 255 255
666.53278 499.43613 0.80642033 255 255 255
-1052.0676 -1130.5782 -2.4119222 255 255 255
1558.6482 1584.0125 2.0941782 255 255 255
-3336.2854 -12206.481 -19.029083 255 255 255
-1724.061 -1640.2289 -3.2366805 255 255 255
-2595.9507 -6263.8057 -16.575487 255 255 255
208.21861 495.81299 0.9417451 255 255 255
-698.49847 -1299.8256 -3.7291026 255 255 255
-78.179352 -91.607529 -1.2545311 255 255 255
-1071.6606 -1620.7268 -2.5932894 255 255 255
5279.3496 7591.8672 20.08387 255 255 255
2722.6355 1812.6708 3.6199381 255 255 255
-854.61243 -870.56952 -2.3143504 255 255 255
2624.1597 2708.3584 8.569993 255 255 255
2705.9402 1805.5695 3.6047275 255 255 255
373.62067 902.87799 1.3857453 255 255 255
374.79855 943.55243 1.4134595 255 255 255
-348.52972 -182.79965 -1.440802 255 255 255
-1408.4836 -1232.1688 -6.0581861 255 255 255
6337.7334 2647.3784 6.2902665 255 255 255
326.05869 645.82764 1.1607307 255 255 255
-417.00784 -151.78001 -1.5048553 255 255 255
-1090.9827 -1173.5221 -2.4854758 255 255 255
2508.0015 1091.0754 6.6688428 255 255 255
356.95102 506.03949 1.4209064 255 255 255
-516.11609 -403.00461 -1.6487101 255 255 255
8479.0264 2104.6155 18.046864 255 255 255
-3602.2305 -4673.6011 -7.739203 255 255 255
-540.02692 -613.29309 -2.1156116 255 255 255
368.36075 393.10657 0.45538032 255 255 255
-407.66763 -88.812279 -2.4071121 255 255 255
-131015.3 -74203.641 -136.10066 255 255 255
-292.49744 -378.83014 -1.4321586 255 255 255
-417.15948 -360.16693 -1.6044526 255 255 255
-405.41776 -123.97748 -1.402528 255 255 255
369.64645 813.2301 1.6289848 255 255 255
-695.10297 -546.16724 -2.5646427 255 255 255
1783.3624 826.02576 3.1217902 255 255 255
-319.27325 -117.14629 -1.7784945 255 255 255
-561.73083 -251.34203 -1.5603069 255 255 255
168.16579 187.2872 0.57476509 255 255 255
8200.3604 7919.0312 35.102978 255 255 255
6126.5684 2195.1021 6.7167368 255 255 255
-326456.34 -102496.73 -358.28305 255 255 255
-832.15601 -511.99951 -1.9467005 255 255 255
-658.21851 -797.85693 -3.1847701 255 255 255
32.100784 307.2937 0.62406421 255 255 255
-756.64105 -339.30991 -3.2347744 255 255 255
1468.4811 1241.3669 1.9326906 255 255 255
-322.79114 -496.80637 -1.9025944 255 255 255
3068.7112 2033.9916 3.8331969 255 255 255
-248.26141 -475.21313 -1.9580647 255 255 255
256.57535 510.77496 0.99265361 255 255 255
478.81152 759.34186 1.3632563 255 255 255
6628.8037 2515.3066 6.7178025 255 255 255
308.29834 262.81775 0.35122508 255 255 255
-740.01349 -3093.144 -5.4667888 255 255 255
-423.5488 -171.7043 -1.5521927 255 255 255
-1012.0296 -690.78186 -2.3093164 255 255 255
-527.37988 -465.69931 -1.6707642 255 255 255
1477.0146 1737.7859 5.1402206 255 255 255
-438.93195 -443.0267 -1.9018803 255 255 255
-297.02063 -517.47601 -1.9272982 255 255 255
15340.892 8457.7822 18.345587 255 255 255
-474.94058 -268.53543 -1.5169152 255 255 255
353.58148 463.5549 0.88715106 255 255 255
3590.1079 2305.8279 4.1671534 255 255 255
530.42438 986.20947 1.535337 255 255 255
-450.00681 -400.5054 -1.5537183 255 255 255
37969.754 11420.785 41.269314 255 255 255
-244.23792 -342.67853 -1.7016125 255 255 255
-298.32117 -705.16858 -2.4209425 255 255 255
2408.877 1253.9935 3.6240032 255 255 255
-1765.6779 -2404.6123 -7.647172 255 255 255
4366.8413 2067.9131 5.0815096 255 255 255
16435.549 18554.316 70.534286 255 255 255
-653.71527 -1003.3618 -3.7209978 255 255 255
6685.6748 2760.2087 6.4421844 255 255 255
528.96326 528.40802 0.65371931 255 255 255
-572.72498 -272.54303 -2.0078137 255 255 255
1736.7754 839.78662 3.03427 255 255 255
256.88397 826.24036 1.2513672 255 255 255
11839.232 2172.6396 12.866542 255 255 255
446.30414 471.59183 0.56152332 255 255 255
5669.439 2830.6992 5.5395517 255 255 255
10498.46 7544.312 13.188784 255 255 255
-2921.2673 -2555.75 -10.066742 255 255 255
-656.7702 -936.7583 -2.6551738 255 255 255
254.19566 556.04089 1.0308005 255 255 255
4677.3652 1450.0902 4.4248128 255 255 255
24.962856 129.37869 0.32277712 255 255 255
-78553.859 -144161.75 -395.23566 255 255 255
23191.518 15139.003 24.094889 255 255 255
478.78543 753.43933 1.3582971 255 255 255
126.9815 317.65533 1.0099294 255 255 255
1827.5505 1162.2722 2.9485066 255 255 255
1178.6637 431.46417 1.734449 255 255 255
-1229.9701 -1465.4587 -6.1164975 255 255 255
1982.6007 1069.9753 3.2097123 255 255 255
216.54123 836.65033 1.2608598 255 255 255
-500.40182 -812.96851 -2.8387034 255 255 255
7118.5015 2158.3342 7.8092265 255 255 255
1074.8248 999.48621 1.244971 255 255 255
-468.96622 -709.22632 -2.138088 255 255 255
-1256.6354 -567.95691 -2.5596242 255 255 255
-3014.7217 -5314.73 -18.679512 255 255 255
-294.44052 -562.09515 -2.0553386 255 255 255
41.369522 270.33633 0.57065469 255 255 255
256.51361 515.58698 0.99669343 255 255 255
-1585.751 -1454.1329 -3.7975838 255 255 255
6128.9854 2778.479 5.968658 255 255 255
4533.4731 1700.8102 5.7386961 255 255 255
44.203171 87.35183 0.25213882 255 255 255
4534.1133 1698.3451 5.7306104 255 255 255
7294.9067 2127.4075 8.0534191 255 255 255
2471.6333 1482.3676 3.5310211 255 255 255
-2846.313 -1350.0985 -10.438899 255 255 255
-623.94769 -954.89319 -3.5393288 255 255 255
5858.1201 17084.746 30.674574 255 255 255
3350.5496 7982.2876 14.025273 255 255 255
1155.8229 1110.7068 1.5566061 255 255 255
4196.2681 3480.9185 5.4845743 255 255 255
6113.1592 3460.3682 6.1999154 255 255 255
1229.3856 1834.2435 5.8254628 255 255 255
265.95789 638.5448 1.1103423 255 255 255
-326.19785 -310.75272 -1.4126036 255 255 255
-11384.276 -15776.02 -48.73576 255 255 255
297.62857 233.6539 0.63931173 255 255 255
386.28479 221.95357 0.40219927 255 255 255
-582.41211 -2082.0789 -4.1621737 255 255 255
-695.90704 -2186.062 -4.5579457 255 255 255
4416.4092 3376.519 5.8053775 255 255 255
-565.32782 -1831.4877 -3.7386775 255 255 255
-372.10217 -655.42596 -2.0147996 255 255 255
21.019215 124.52977 0.31167069 255 255 255
-546.58612 -142.22723 -1.7159216 255 255 255
-1681.1082 -917.49463 -3.6995943 255 255 255
-499.27725 -311.09891 -1.5694839 255 255 255
69.452217 362.12259 0.70993298 255 255 255
-1593.9138 -2107.9546 -5.9609823 255 255 255
55158.484 59729.809 122.15453 255 255 255
1328.8375 833.55536 2.2992659 255 255 255
-8071.1299 -5292.6885 -13.908576 255 255 255
6410.1914 2884.8462 6.0866652 255 255 255
5337.0762 1655.1648 6.7779312 255 255 255
-522.92743 -588.08362 -2.106365 255 255 255
5361.3887 1661.6021 6.799016 255 255 255
389.08292 1915.4321 3.4264321 255 255 255
-14256.878 -5614.1123 -18.463108 255 255 255
6144.0703 2903.2058 6.8745375 255 255 255
484.93787 361.92136 1.2032193 255 255 255
6446.4492 6337.9014 10.927014 255 255 255
468.21719 1173.4971 1.6158315 255 255 255
-5861.9077 -11209.492 -21.07156 255 255 255
378.1347 394.51877 0.80819929 255 255 255
-439.29947 -208.832 -1.44556 255 255 255
5987.1182 2877.9758 5.7453661 255 255 255
3157.5117 3913.3979 12.10071 255 255 255
313.56015 576.21796 1.0953481 255 255 255
739.58765 1724.6335 2.7058015 255 255 255
82.854568 233.68314 0.44328946 255 255 255
3418.73 6675.9526 18.177761 255 255 255
2406.7629 955.96466 3.9165752 255 255 255
2318.2483 1288.1801 3.4814203 255 255 255
-585.42102 -377.40646 -1.6619531 255 255 255
-1210.7943 -1837.2092 -3.0013869 255 255 255
-503.79166 -756.31854 -2.5467503 255 255 255
-1206.2979 -1233.3069 -5.3976831 255 255 255
-1665.5284 -1788.3815 -3.1190152 255 255 255
7124.2524 7723.272 28.351986 255 255 255
-8525.2861 -12801.024 -38.520061 255 255 255
71178.18 25919.768 90.375328 255 255 255
6014.1436 2831.8252 5.8261642 255 255 255
-228.39505 -322.2261 -1.3788899 255 255 255
62730.324 85255.914 193.54948 255 255 255
-431.04187 -513.41254 -1.669636 255 255 255
-1181.5978 -1287.0757 -4.4955378 255 255 255
1079.1985 896.21484 3.2451086 255 255 255
6346.4043 2857.908 6.049572 255 255 255
3374.4668 1885.0142 4.2329836 255 255 255
3394.1472 1892.2961 4.2506466 255 255 255
-980.5437 -946.75446 -3.0042064 255 255 255
8647.9795 2167.4487 18.115898 255 255 255
1083.3077 1376.6605 4.5191765 255 255 255
-652.37048 -374.11584 -2.5658603 255 255 255
886.38062 1377.9465 4.6296325 255 255 255
45.605366 74.153786 0.13486831 255 255 255
-457.42416 -455.12814 -1.5847105 255 255 255
80.861649 296.15656 0.6238482 255 255 255
-55917.52 -62130.074 -197.01381 255 255 255
3385.7314 2382.9709 3.9516792 255 255 255
267.77945 1028.9363 2.0120702 255 255 255
420.43875 235.95741 1.0866953 255 255 255
417.62402 641.19421 1.6048228 255 255 255
-542.45148 -651.92145 -2.4530873 255 255 255
4449.7334 2058.8569 5.1816049 255 255 255
-516.96124 -310.92191 -1.6918519 255 255 255
190.65164 514.57465 0.87994426 255 255 255
972.54425 618.896 1.9739739 255 255 255
-434.37753 -117.9871 -1.4792888 255 255 255
2145.4683 1384.5138 3.2158043 255 255 255
-1077.2946 -1417.885 -2.8449478 255 255 255
768.13983 632.66095 0.88842171 255 255 255
221.68065 429.63721 1.0120773 255 255 255
533.38959 604.73291 0.72876453 255 255 255
-386.79312 -224.54318 -1.5098357 255 255 255
6327.0825 2779.7141 6.1183352 255 255 255
6062.6196 2835.4634 5.8561831 255 255 255
-10320.071 -20027.852 -57.52758 255 255 255
4447.1343 2061.1199 5.1710558 255 255 255
5872.4126 2828.1492 5.7136064 255 255 255
-219.37282 -201.58157 -1.3897541 255 255 255
703.24786 736.06213 0.84011048 255 255 255
6060.1021 2781.8213 5.9005833 255 255 255
8411.9736 2059.3079 17.601921 255 255 255
-808.66882 -1619.0255 -4.3895674 255 255 255
-392.4389 -289.84427 -1.4843313 255 255 255
6030.7158 2834.8855 5.8020072 255 255 255
148.0105 392.82083 0.58238757 255 255 255
338.57419 890.38745 1.3556489 255 255 255
-1338.5735 -1354.0306 -2.7300756 255 255 255
2495.5688 1477.9067 3.5640347 255 255 255
4928.5771 2711.4116 5.0562158 255 255 255
-777.88281 -544.82037 -1.9824628 255 255 255
-972.99615 -1335.3765 -3.4627569 255 255 255
454.56897 445.46109 0.62071574 255 255 255
-1691.5908 -3977.3042 -6.6173167 255 255 255
5239.1304 2316.7888 5.6845417 255 255 255
-548.87531 -514.68787 -2.013098 255 255 255
-1320.0265 -1368.0513 -2.7968266 255 255 255
13377.615 4575.4985 13.760812 255 255 255
459.04779 768.85168 1.3542597 255 255 255
3966.03 1902.3276 4.059371 255 255 255
-989.87286 -403.00223 -2.083612 255 255 255
2716.7161 1808.856 3.6124051 255 255 255
-798.22656 -652.51904 -3.1581237 255 255 255
6926.5703 1643.5414 6.7981062 255 255 255
-1956.4197 -1479.9374 -7.583282 255 255 255
-1350.6365 -1597.7719 -3.1004837 255 255 255
681.72186 1572.9998 2.7031014 255 255 255
61.15498 70.595016 0.26180935 255 255 255
-363.92062 -290.23386 -1.5097367 255 255 255
289.77277 545.75946 1.0481774 255 255 255
738.90546 1730.4417 3.6059291 255 255 255
10010.064 2324.5425 10.474255 255 255 255
337.33002 505.35971 1.0636208 255 255 255
1094.3553 4323.2236 6.2994184 255 255 255
875.16736 2064.6553 4.9935412 255 255 255
245.40242 395.97339 0.87723994 255 255 255
356.25754 156.44763 0.34046918 255 255 255
-1349.8199 -2460.3398 -5.2568369 255 255 255
1787.9535 1242.2064 5.8854332 255 255 255
-520.10608 -229.35979 -1.5791298 255 255 255
1012.5075 1364.8551 2.9026806 255 255 255
216.40631 746.46332 1.1831731 255 255 255
2805.4775 2958.4143 11.057302 255 255 255
-457.67383 -268.91077 -1.590552 255 255 255
-450.97049 -778.7038 -2.3591304 255 255 255
441.02765 960.25323 1.5066539 255 255 255
-476.37204 -178.22028 -1.5699843 255 255 255
-1186.4233 -829.40735 -2.6411138 255 255 255
1816.8794 1158.606 2.9402442 255 255 255
-644.66901 -536.98187 -1.7980404 255 255 255
-532.46155 -1019.8253 -4.242938 255 255 255
-1049.5742 -860.06586 -3.8015418 255 255 255
286.67111 554.99463 1.0555668 255 255 255
5959.125 1407.3248 8.1138725 255 255 255
-9489.3477 -5878.7666 -14.796573 255 255 255
7357.8159 4914.1587 22.086529 255 255 255
1639.0037 1430.9583 2.6568503 255 255 255
1965.9803 2304.1641 2.8500543 255 255 255
324.79163 277.22537 0.42240363 255 255 255
4068.6086 6914.0635 23.850117 255 255 255
-236.35472 -242.68607 -1.3078027 255 255 255
-289.88278 -396.88113 -1.6972414 255 255 255
282.47311 355.99152 0.88847131 255 255 255
-830.18439 -818.97589 -2.7158341 255 255 255
748.01257 882.93323 0.99447888 255 255 255
283.99326 308.54391 0.35540229 255 255 255
897.07025 1715.806 3.1378288 255 255 255
172.29326 449.1824 0.86628592 255 255 255
267.51657 174.8138 0.31413934 255 255 255
157.49536 170.4626 0.53895462 255 255 255
-637.81134 -473.08661 -2.1073234 255 255 255
-19600.941 -17555.463 -83.473007 255 255 255
384.71136 914.67157 1.3994805 255 255 255
-646.28235 -532.12531 -1.7815081 255 255 255
-411.36685 -443.38388 -1.5557512 255 255 255
15468.484 3734.1567 18.698391 255 255 255
184.64119 496.35635 0.92510396 255 255 255
371.36444 877.99518 1.3667079 255 255 255
91.863045 494.85126 0.88288671 255 255 255
200.91263 554.2251 0.99284071 255 255 255
-4248.3462 -2263.4634 -5.9996428 255 255 255
-971.68677 -1274.8042 -2.4484901 255 255 255
639.94098 678.27252 0.78650898 255 255 255
-2563.0652 -1658.0675 -10.360802 255 255 255
-2309.2036 -1234.6292 -6.4049292 255 255 255
-1535.5002 -2063.387 -6.7776079 255 255 255
528.52576 1200.5803 1.9291049 255 255 255
-415.00388 -285.91028 -1.7934619 255 255 255
6791.5781 2796.9343 6.4983521 255 255 255
4588.6875 2590.4968 4.8407936 255 255 255
-513.68475 -383.50156 -1.6390655 255 255 255
1461.4872 1440.7954 1.7279853 255 255 255
-919.29272 -798.64624 -4.3577032 255 255 255
616.46399 507.68344 1.4338026 255 255 255
454.80884 637.60486 1.229689 255 255 255
-464.99048 -817.3371 -2.4312887 255 255 255
2723.2566 4251.251 13.433196 255 255 255
454.82513 671.32422 1.290361 255 255 255
978.26562 498.80341 2.0460196 255 255 255
566.6651 487.24136 0.72508299 255 255 255
305.1973 856.28156 1.3597499 255 255 255
503.03531 830.56769 1.4261436 255 255 255
732.8559 1718.6407 2.9519696 255 255 255
-260.22208 -655.65503 -2.1418617 255 255 255
-214.39281 -476.01465 -1.8072511 255 255 255
-325.85785 -183.64526 -1.4010056 255 255 255
-846.95844 -858.01324 -3.7738783 255 255 255
1653.2611 1768.5732 7.9408245 255 255 255
-1320.179 -941.47974 -5.1078548 255 255 255
303.69623 1084.5465 1.9569112 255 255 255
-405.75735 -254.74814 -1.4644796 255 255 255
422.94623 989.20068 1.7023559 255 255 255
211.0433 725.50684 1.1630731 255 255 255
-63.396385 -78.426956 -1.1360116 255 255 255
10010.009 7169.4448 12.718287 255 255 255
-281.50052 -205.49429 -1.3504483 255 255 255
311.67804 314.81543 0.40068391 255 255 255
-1215.7841 -1829.8472 -3.1795349 255 255 255
-7514.9868 -16365.635 -29.232166 255 255 255
-636.21716 -567.23242 -2.4824824 255 255 255
-345.4697 -168.55463 -1.8967137 255 255 255
1401.9083 1664.604 1.842943 255 255 255
6385.0957 2220.2473 6.9377036 255 255 255
-540.33582 -432.09009 -1.9745656 255 255 255
5396.6162 2549.4504 5.6020374 255 255 255
239.97659 366.12625 0.84383428 255 255 255
-2619.189 -1741.5129 -7.4723816 255 255 255
-330.89816 -403.44995 -1.6487652 255 255 255
200.04433 538.00366 0.9764514 255 255 255
217.15994 403.94519 0.8561638 255 255 255
-2560.8826 -2267.2866 -6.0420785 255 255 255
459.24918 787.9873 1.3761888 255 255 255
502.02853 371.76468 0.55577666 255 255 255
536.30408 791.30548 1.4333068 255 255 255
-288.5596 -555.11682 -2.5710111 255 255 255
1157.5569 4092.1785 6.5756297 255 255 255
561.53284 540.32019 1.3579595 255 255 255
215.20296 736.10394 1.1740745 255 255 255
-674.63342 -286.28418 -1.7629963 255 255 255
-413.51971 -895.06055 -2.5811474 255 255 255
-2111.9539 -2213.1235 -4.3236017 255 255 255
1090.9542 267.0311 2.9271159 255 255 255
-477.19901 -499.57468 -1.6419672 255 255 255
8664.1436 2428.9595 18.393864 255 255 255
847.1203 611.11169 1.0094992 255 255 255
2278.7537 3067.4822 10.399863 255 255 255
-518.43335 -476.68799 -1.8344154 255 255 255
4037.6094 2597.7644 4.455071 255 255 255
-4337.7432 -2314.6436 -6.1114421 255 255 255
789.56708 892.97321 1.7337251 255 255 255
2934.3704 2152.9788 3.6528533 255 255 255
-5165.4092 -7947.0742 -15.995773 255 255 255
173.57674 487.28854 0.90854174 255 255 255
939.51959 1691.1183 3.6897621 255 255 255
3713.1692 1802.2743 4.6735096 255 255 255
-403.91113 -654.90674 -2.0352161 255 255 255
339.85797 695.64978 1.1219879 255 255 255
-481.6366 -781.28949 -1.8108087 255 255 255
5330.2383 2379.9714 8.0268202 255 255 255
-5297.2666 -15130.827 -26.263142 255 255 255
-1174.73 -872.25171 -4.3302879 255 255 255
692.16656 628.27081 0.91069055 255 255 255
-812.77692 -4714.8569 -7.7133889 255 255 255
1199.9519 1777.7507 1.8092028 255 255 255
1091.1606 1497.7885 3.7289352 255 255 255
-431.94357 -685.31744 -2.0911839 255 255 255
280.97302 526.6593 1.0253141 255 255 255
-295.86462 -539.79205 -1.9969221 255 255 255
-1478.6382 -900.39502 -4.6559229 255 255 255
5537.4878 2481.1855 5.8249054 255 255 255
3385.1367 1885.6813 4.2393532 255 255 255
289.39307 544.96576 1.0469722 255 255 255
-646.84949 -1457.1152 -4.0065274 255 255 255
63.621147 61.597904 0.092348628 255 255 255
2473.5566 3223.7295 12.27337 255 255 255
5118.0649 2290.2476 7.6876941 255 255 255
8641.1699 2168.1572 18.09832 255 255 255
-649.96417 -166.28253 -1.7504852 255 255 255
-1101.3448 -812.16211 -2.2281258 255 255 255
-4191.9326 -5266.0752 -15.472895 255 255 255
435.69196 315.952 0.50116879 255 255 255
1675.193 1351.5364 2.708189 255 255 255
-1104.822 -1092.5033 -4.4232774 255 255 255
15195.338 5259.2251 16.030241 255 255 255
157.01454 438.3833 0.84570253 255 255 255
258.31747 193.48845 0.30021968 255 255 255
-630.927 -397.86786 -1.7293043 255 255 255
6330.1021 2778.4421 6.1222281 255 255 255
-17455.189 -10786.481 -27.52199 255 255 255
-1396.0754 -831.54883 -2.8350747 255 255 255
6123.189 2774.1396 5.9616513 255 255 255
-392.62134 -235.73463 -1.5229684 255 255 255
6803.0391 2059.5745 8.9853029 255 255 255
-2100.5525 -1412.6832 -3.8483419 255 255 255
10597.132 2831.7051 11.124187 255 255 255
774.76642 588.29419 0.98132503 255 255 255
-337.3526 -712.81061 -2.2235429 255 255 255
-633.42932 -823.27258 -1.9548036 255 255 255
-535.01874 -436.00665 -2.6685674 255 255 255
-534.50446 -340.87411 -1.7146053 255 255 255
1717.7312 1773.6342 5.8565278 255 255 255
-339.75092 -368.32684 -2.3839414 255 255 255
-3238.6682 -4566.7812 -8.4731512 255 255 255
460.35382 367.49792 0.56812692 255 255 255
1398.786 875.57043 2.5105577 255 255 255
934.39685 1113.8691 3.8009577 255 255 255
-865.42664 -577.60065 -3.3744023 255 255 255
272.33231 466.1033 1.3472623 255 255 255
-648.08826 -467.2243 -1.8816164 255 255 255
-522.80737 -577.06885 -3.0523279 255 255 255
280.71573 304.60764 0.34192428 255 255 255
-562.69855 -455.3548 -1.6813542 255 255 255
133.61122 481.74677 0.88143992 255 255 255
2413.0171 1254.1747 3.6298232 255 255 255
-262.92767 -702.42365 -2.0697293 255 255 255
580.05072 532.35028 1.3819194 255 255 255
-794.48358 -296.29678 -3.2382271 255 255 255
-1066.6899 -414.59537 -2.3071418 255 255 255
902.72552 914.85315 1.0938048 255 255 255
6062.8701 2782.4136 5.9011698 255 255 255
-917.30737 -1042.6964 -3.2661383 255 255 255
-1799.1243 -1099.0604 -4.0394907 255 255 255
1818.777 1158.135 2.9379296 255 255 255
-2110.6936 -2142.6265 -7.7537804 255 255 255
4365.9141 2066.3594 5.0801358 255 255 255
452.70465 1580.5267 2.8217287 255 255 255
-485.77328 -717.35852 -2.3187437 255 255 255
2413.3501 2717.8186 10.044831 255 255 255
1669.425 858.94629 2.9181209 255 255 255
-1008.5676 -1594.2062 -4.0242195 255 255 255
-319.42224 -222.74052 -1.5082275 255 255 255
58647.238 63488.547 129.95163 255 255 255
1241.261 599.79639 2.4277239 255 255 255
-1694.5022 -2330.0913 -6.6832252 255 255 255
-1254.6183 -1619.1052 -2.7568786 255 255 255
-1857.7437 -2856.7283 -8.8417683 255 255 255
-15204.866 -8790.0156 -18.145302 255 255 255
-481.45361 -311.64746 -1.6492822 255 255 255
8109.2358 8893.2324 29.33215 255 255 255
526.75116 884.85852 1.8645157 255 255 255
488.0116 362.49118 1.2073419 255 255 255
-306.16901 -361.00095 -1.4734911 255 255 255
1836.9377 4034.9731 7.6095185 255 255 255
-392.33051 -451.69345 -1.8651952 255 255 255
583.97845 516.0304 0.76145107 255 255 255
1456.5961 882.61896 2.4725752 255 255 255
-216.09782 -81.915543 -1.2281783 255 255 255
-1495.123 -1355.1945 -2.8579161 255 255 255
284.50641 611.96594 1.0540442 255 255 255
481.62473 756.37079 1.3638359 255 255 255
-118.62655 -55.09185 -1.1488122 255 255 255
-624.11694 -638.04028 -1.9018917 255 255 255
-803.84698 -792.97705 -2.6943898 255 255 255
-79476.203 -17885.553 -86.300941 255 255 255
-1207.4133 -1513.35 -3.0027196 255 255 255
-310.259 -340.50381 -1.4168134 255 255 255
4132.3364 8752.3301 15.063766 255 255 255
-12498.869 -7402.8633 -14.575022 255 255 255
5849.9844 2214.6531 6.404851 255 255 255
204.54341 498.57382 0.94081056 255 255 255
6054.353 2831.5662 5.8491235 255 255 255
-522.97296 -855.09583 -2.7121069 255 255 255
-380.58051 -492.29257 -1.5702925 255 255 255
452.14618 671.93054 1.2878785 255 255 255
-318.89047 -661.43469 -1.9975388 255 255 255
-3976.1379 -3114.0454 -8.0568609 255 255 255
597.49805 1308.7535 2.275851 255 255 255
570.71466 1179.052 1.9958328 255 255 255
-939.2605 -292.02579 -1.9823729 255 255 255
765.51929 938.50507 0.97857916 255 255 255
-350.33762 -629.35846 -2.1361635 255 255 255
-421.77585 -346.81787 -1.5539715 255 255 255
308.18884 1078.864 1.8100153 255 255 255
215.05914 358.9585 0.80985111 255 255 255
-703.76349 -668.80994 -2.2086058 255 255 255
-353.83801 -1541.6307 -3.2990329 255 255 255
-486.87674 -165.09396 -1.5508802 255 255 255
2879.0264 1691.9546 3.8453803 255 255 255
-736.61597 -3018.9819 -5.0628285 255 255 255
-2025.7887 -2282.4485 -3.8262234 255 255 255
-1374.8538 -1875.504 -3.3999245 255 255 255
80.955284 295.80444 0.62392485 255 255 255
473.65082 790.04926 1.3788595 255 255 255
-350.56998 -395.86288 -1.5690708 255 255 255
1315.3459 875.87585 3.9287159 255 255 255
439.97925 655.88843 1.2662549 255 255 255
-1689.9802 -1009.9935 -3.8743985 255 255 255
7167.5024 2201.7476 7.7686067 255 255 255
2672.3735 5931.4849 10.226232 255 255 255
-14055.794 -7018.2007 -20.719891 255 255 255
5990.5303 2879.1221 5.7490468 255 255 255
243.6649 370.25156 0.85237867 255 255 255
284.91351 513.53955 1.0189301 255 255 255
260.09073 933.13013 1.5420057 255 255 255
1631.7626 1422.8408 2.6432359 255 255 255
1643.6406 1429.9979 2.6565533 255 255 255
6204.4785 2222.9312 6.7522817 255 255 255
-2195.4407 -1325.2249 -3.4106953 255 255 255
-1916.1971 -1953.5325 -4.6422234 255 255 255
-451.37155 -332.49677 -1.9207652 255 255 255
42.01516 85.816261 0.24698159 255 255 255
579.94043 981.4386 1.5706955 255 255 255
-6599.0376 -3170.9263 -21.663134 255 255 255
2474.4785 1484.2439 3.5340929 255 255 255
402.74402 821.39575 1.3485761 255 255 255
6004.7368 2826.1963 5.8146186 255 255 255
-682.96906 -684.47516 -3.101006 255 255 255
568.10693 432.81073 0.88967776 255 255 255
6132.4028 2195.7732 6.7206459 255 255 255
1015.6195 282.92227 1.2699772 255 255 255
-316.33524 -635.94373 -2.2159731 255 255 255
1369.3092 840.3598 2.3500912 255 255 255
-562.21735 -412.198 -1.736069 255 255 255
-2207.6824 -2995.9395 -4.8307056 255 255 255
461.31073 645.49988 1.0738999 255 255 255
-922.41571 -563.61609 -2.1709778 255 255 255
-1973.6987 -2148.8892 -3.6182554 255 255 255
-631.34418 -352.49826 -1.803314 255 255 255
346.72034 894.67163 1.3628141 255 255 255
378.08121 914.29938 1.3960334 255 255 255
-2479.2554 -2717.8513 -4.7500954 255 255 255
-1259.6327 -1876.588 -3.065732 255 255 255
2049.074 4420.772 9.1369314 255 255 255
-2446.4731 -2229.1418 -6.8094177 255 255 255
57800.598 61252.383 126.22606 255 255 255
-1603.6288 -2071.0591 -7.2447577 255 255 255
10490.697 7542.894 13.173653 255 255 255
443.59451 697.6637 1.2955788 255 255 255
114.10847 117.65976 0.40289468 255 255 255
-3556.5129 -545.46765 -6.4919982 255 255 255
832.7984 1767.7444 4.0139923 255 255 255
6514.5342 3483.3586 6.5349312 255 255 255
453.97537 767.86725 1.2013036 255 255 255
-2398.7117 -829.50281 -4.1303673 255 255 255
-2382.8025 -2934.3074 -4.8812394 255 255 255
551.09381 969.08582 1.4983051 255 255 255
9237.7617 2710.3901 19.854925 255 255 255
-358.60699 -464.48279 -1.7448291 255 255 255
986.80365 180.68449 1.0344979 255 255 255
249.45729 221.96561 0.64568174 255 255 255
3362.5488 2370.7292 3.9327908 255 255 255
4472.5947 3109.9546 5.1965566 255 255 255
6952.8003 2265.9253 7.429338 255 255 255
1711.7365 2241.4812 5.817101 255 255 255
-659.77686 -253.41605 -2.1820116 255 255 255
-413.04047 -395.03677 -2.121598 255 255 255
-1113.8776 -1645.6553 -4.63273 255 255 255
-514.64679 -303.65115 -1.5766752 255 255 255
2447.0713 1313.6803 3.6111586 255 255 255
-850.86365 -1000.2377 -3.3254833 255 255 255
-838.13361 -950.93597 -4.1070285 255 255 255
454.72571 1170.5931 2.4178426 255 255 255
-731.01392 -869.69696 -2.1409912 255 255 255
-384.93692 -503.06491 -2.0651858 255 255 255
165.78838 147.93417 0.53072089 255 255 255
-725.6178 -585.85498 -3.2037237 255 255 255
-554.06384 -721.27661 -3.1724463 255 255 255
9452.7666 3260.2317 9.4238033 255 255 255
-411.1507 -188.45515 -1.4657429 255 255 255
5844.7275 2818.6033 5.6982989 255 255 255
-835.56946 -244.40459 -2.8864284 255 255 255
1355.3765 843.5163 2.3292596 255 255 255
4341.0288 2083.5898 4.5055718 255 255 255
4456.3267 2058.605 5.1874189 255 255 255
-886.44916 -1066.0549 -2.8325922 255 255 255
-1563.9202 -1643.231 -4.4233031 255 255 255
125.78727 144.22806 0.45663545 255 255 255
459.49298 264.71866 0.51064622 255 255 255
225.27866 339.12198 0.80290967 255 255 255
-252.98599 -234.44942 -1.8847063 255 255 255
-479.92371 -825.20386 -2.261811 255 255 255
-229.39932 -498.63739 -1.7600768 255 255 255
-2576.2046 -3390.7524 -11.618127 255 255 255
-206.68629 -512.93384 -1.7513669 255 255 255
6909.5771 2712.3015 6.7176628 255 255 255
6725.605 2769.1416 6.4724569 255 255 255
5923.4614 2525.6606 10.958522 255 255 255
-2350.2461 -1706.6154 -4.8229361 255 255 255
250.26053 556.07678 1.0276434 255 255 255
-609.05859 -329.02179 -1.7415713 255 255 255
-481.20312 -464.14392 -1.6967599 255 255 255
-745.99396 -624.21112 -1.9007816 255 255 255
-577.18219 -936.55261 -2.4960909 255 255 255
2242.1912 1455.3344 6.1492853 255 255 255
-478.19977 -349.20355 -1.6192108 255 255 255
5986.2944 2871.9695 5.7510271 255 255 255
-210.32111 -386.46896 -1.6125301 255 255 255
608.0741 582.75812 0.8384341 255 255 255
1145.6505 828.28229 5.0283198 255 255 255
-861.31311 -845.88586 -4.5981817 255 255 255
-531.01001 -962.78247 -3.1987748 255 255 255
-4403.061 -6127.1641 -18.425566 255 255 255
201.45543 501.61203 0.94138324 255 255 255
7072.8574 2728.3582 6.8329668 255 255 255
-659.32367 -800.89807 -2.0164521 255 255 255
339.58115 364.95093 1.0992928 255 255 255
-313.72476 -765.73633 -2.1264579 255 255 255
11946.292 4845.125 13.660188 255 255 255
-724.3147 -261.68915 -1.8569273 255 255 255
68.33744 194.73361 0.46352297 255 255 255
2188.1748 3571.5806 9.250617 255 255 255
-598.45959 -1080.1119 -3.1907396 255 255 255
-1387.366 -1567.3536 -5.7417374 255 255 255
3607.7397 8429.8633 21.890219 255 255 255
500.5928 970.33722 1.5029796 255 255 255
-838.95306 -1998.6727 -4.0821657 255 255 255
8806.25 2172.6655 18.017136 255 255 255
-2217.21 -2614.3577 -4.1810398 255 255 255
341.23157 255.69507 0.39325085 255 255 255
5520.5068 2844.8962 5.4124141 255 255 255
-864.48291 -637.617 -3.0421321 255 255 255
-160.45717 -312.98862 -1.5251654 255 255 255
327.061 413.79129 0.40095243 255 255 255
-608.35046 -764.98657 -2.5945668 255 255 255
-261.23773 -256.6286 -1.5518382 255 255 255
178.52887 317.10971 0.72693044 255 255 255
-404.99329 -169.71222 -1.4381416 255 255 255
566.3075 910.61377 1.6769634 255 255 255
459.30417 752.01276 1.3427083 255 255 255
-615.93793 -881.70972 -3.1752505 255 255 255
1546.7894 1543.7971 2.097157 255 255 255
13751.918 3691.2996 16.990704 255 255 255
199.73184 537.3277 0.97550607 255 255 255
446.95151 656.79712 1.2745793 255 255 255
47152.09 150300.34 281.37762 255 255 255
-482.11044 -591.44934 -2.0324352 255 255 255
256.22775 134.10381 0.27521914 255 255 255
459.12674 431.45706 0.5772121 255 255 255
973.68811 818.97803 3.1512108 255 255 255
371.31857 877.84863 1.3670391 255 255 255
616.59161 998.00427 1.6080652 255 255 255
535.13788 789.12347 1.4298222 255 255 255
6433.0869 2724.2278 6.2926722 255 255 255
503.55789 829.53387 1.4259825 255 255 255
-3078.4775 -1308.9221 -8.4348831 255 255 255
588.45776 417.43085 0.67774284 255 255 255
286.08749 553.75293 1.0531995 255 255 255
-471.50894 -211.16624 -1.8228536 255 255 255
-325.91513 -394.86783 -1.5765116 255 255 255
-973.70367 -705.67719 -2.365917 255 255 255
-186.58948 -452.69293 -1.6919775 255 255 255
296.73288 249.3103 0.32874873 255 255 255
423.78113 680.93671 1.4073077 255 255 255
421.7695 503.7446 0.58821583 255 255 255
692.96204 2115.3501 3.7982039 255 255 255
2807.2009 1173.3395 2.8245876 255 255 255
1409.5363 2807.8726 6.3728027 255 255 255
536.07605 963.81567 1.5277234 255 255 255
-1140.6659 -740.97308 -3.8885798 255 255 255
-478.94693 -791.99463 -2.5628872 255 255 255
817.26447 1535.4827 2.3960099 255 255 255
-555.53259 -898.32404 -2.5996137 255 255 255
-2099.0015 -2484.9548 -4.1853499 255 255 255
-10496.066 -12576.236 -38.391521 255 255 255
195.06833 105.64642 0.78370112 255 255 255
1870.6995 3038.2437 9.7085676 255 255 255
360.64746 1111.4933 2.0692525 255 255 255
723.27258 867.49878 3.1695251 255 255 255
-9367.3828 -22626.303 -39.057415 255 255 255
-773.28241 -372.47925 -3.296226 255 255 255
-826.28418 -241.05043 -2.8648598 255 255 255
-300.086 -797.56622 -3.1957381 255 255 255
10427.573 7635.5737 13.120169 255 255 255
-496.3757 -450.85315 -1.8552086 255 255 255
521.1532 249.09282 0.54107553 255 255 255
-376.83008 -255.67015 -1.4461402 255 255 255
581.94318 534.15167 1.3865281 255 255 255
-490.36255 -421.0563 -1.8855377 255 255 255
3366.7114 2374.2161 3.9373693 255 255 255
-451.43747 -214.47797 -1.4686691 255 255 255
267.28143 639.16022 1.1146175 255 255 255
3376.0312 2379.699 3.9420867 255 255 255
-3472.3179 -4653.8574 -13.901145 255 255 255
21576.721 12408.691 48.141846 255 255 255
4459.9585 2059.5952 5.1935868 255 255 255
521.07019 736.40002 1.7855648 255 255 255
-276.08752 -672.64453 -2.1445131 255 255 255
9297.8896 2216.3982 18.268425 255 255 255
1117.3103 588.44006 2.1978199 255 255 255
585.26129 954.06512 2.3855522 255 255 255
-564.8512 -376.14716 -1.7229311 255 255 255
2052.7649 1465.9929 3.0769982 255 255 255
-564.74005 -669.78491 -2.5051327 255 255 255
13013.707 9493.9971 14.033312 255 255 255
-1213.8682 -951.74329 -3.3516417 255 255 255
-380.13211 -743.27325 -2.4671755 255 255 255
1711.8004 1253.9651 6.0049481 255 255 255
7669.4336 1908.3518 15.692058 255 255 255
32.112671 307.46667 0.62506986 255 255 255
-765.53094 -2958.4695 -6.4476166 255 255 255
-1742.7605 -978.5249 -3.8549895 255 255 255
-462.63873 -309.60114 -1.5943121 255 255 255
289.84824 545.52423 1.0483849 255 255 255
2711.2126 1804.9902 3.6094682 255 255 255
474.97546 2070.8362 4.47472 255 255 255
5329.8003 1653.0905 6.7682161 255 255 255
-585.62164 -488.58566 -2.0207622 255 255 255
100.53931 328.14969 0.67910075 255 255 255
579.81219 434.93338 1.3677081 255 255 255
-9606.3271 -5965.6396 -11.726814 255 255 255
-1243.2627 -1611.7925 -3.0482676 255 255 255
-5246.5942 -6300.3398 -20.433361 255 255 255
341.99966 927.67834 1.8877689 255 255 255
9166.5059 3654.9133 9.0650978 255 255 255
-668.35229 -679.67151 -2.8113692 255 255 255
-543.76819 -303.49469 -1.6335952 255 255 255
6051.5903 2828.9199 5.8457074 255 255 255
3083.1956 2039.3303 3.848213 255 255 255
6400.9419 2873.5693 6.0954123 255 255 255
-426.39386 -229.66035 -1.5974977 255 255 255
10162.531 7168.7051 13.157293 255 255 255
-2983.8506 -3477.187 -11.044168 255 255 255
1147.1731 2228.4985 3.8814919 255 255 255
-6954.104 -4209.79 -23.296522 255 255 255
-761.87634 -694.64783 -3.0538669 255 255 255
-5896.1504 -3467.2783 -9.0176477 255 255 255
37351.051 38654.453 82.808342 255 255 255
-2808.2288 -2217.6169 -4.4785852 255 255 255
1707.9819 811.41345 3.0125146 255 255 255
8395.2363 7914.6982 22.655134 255 255 255
4531.2109 1696.4448 5.7347856 255 255 255
-585.72772 -328.15277 -1.7610848 255 255 255
-18655.746 -19379.59 -41.137424 255 255 255
429.14862 381.68182 0.52377933 255 255 255
4464.0576 2068.231 5.1940765 255 255 255
101.89117 100.80789 0.35774094 255 255 255
-3218.7097 -3026.3567 -13.201571 255 255 255
-1181.7969 -1444.7867 -4.0914407 255 255 255
217.44672 327.36203 0.78226572 255 255 255
-2359.7678 -3400.5703 -6.1710615 255 255 255
-1586.1453 -1490.6127 -3.0295162 255 255 255
1303.0112 2272.0249 4.7110767 255 255 255
41.870476 86.399017 0.24768505 255 255 255
1821.9559 2418.1409 2.8706808 255 255 255
-430.43707 -526.98822 -2.1444542 255 255 255
702.78113 931.81787 1.8001662 255 255 255
208.65004 854.00519 1.3732507 255 255 255
421.00009 490.42606 0.53626436 255 255 255
-784.63361 -435.68027 -2.0121131 255 255 255
-454.02652 -71.642471 -1.5468948 255 255 255
14338.362 27271.443 51.469616 255 255 255
8478.5234 2037.4443 17.455942 255 255 255
479.24619 1050.6035 1.610387 255 255 255
6254.9321 2767.9565 6.0640011 255 255 255
-829.68036 -405.88763 -1.8634324 255 255 255
-395.25754 -395.36987 -1.7317387 255 255 255
-639.35022 -841.65845 -1.9143746 255 255 255
718.1709 536.79095 0.83351839 255 255 255
5345.6143 2400.5723 5.0667429 255 255 255
-300.1409 -133.12227 -1.3745021 255 255 255
583.71265 922.68134 1.5431211 255 255 255
-682.14948 -1073.4757 -2.6651926 255 255 255
6424.9854 3003.5203 6.2869058 255 255 255
-16877.744 -7949.6162 -21.665785 255 255 255
4918.2344 2704.5991 5.0467749 255 255 255
-485.17505 -1662.355 -3.4246898 255 255 255
2947.7922 2161.1216 3.670454 255 255 255
-419.93176 -375.92462 -1.76533 255 255 255
229.08644 573.25824 0.87383807 255 255 255
327.95996 893.89929 1.3522851 255 255 255
-1429.7534 -1438.2426 -4.1760402 255 255 255
383.50067 631.61536 0.9851169 255 255 255
-315.47226 -234.29051 -1.4233456 255 255 255
-695.02838 -830.88776 -3.7315335 255 255 255
4623.2427 1436.6755 6.2480459 255 255 255
1237.616 572.29242 2.7228153 255 255 255
174.12212 348.44107 0.75977814 255 255 255
25.167658 141.20886 0.34667107 255 255 255
-863.51019 -936.11444 -3.9064136 255 255 255
616.25885 997.95111 1.609591 255 255 255
-2432.4753 -6655.8896 -20.461727 255 255 255
659.99976 559.52759 0.75635689 255 255 255
1015.6001 525.83063 1.897103 255 255 255
6886.7993 11951.923 32.055359 255 255 255
177.71312 209.2119 0.61177593 255 255 255
6717.7393 2214.6467 7.2829847 255 255 255
-1413.6002 -1633.7913 -4.3875065 255 255 255
-5429.5581 -8805.5264 -29.878307 255 255 255
968.25006 491.63885 2.0323975 255 255 255
-920.23499 -280.53149 -1.9908762 255 255 255
-312.53934 -436.1463 -1.7399427 255 255 255
-637.01282 -2331.592 -6.506752 255 255 255
-872.48755 -1815.6898 -4.8161325 255 255 255
687.37891 395.41064 0.74085379 255 255 255
-542.00262 -1247.0875 -4.1327324 255 255 255
-279.36096 -369.20349 -1.8020312 255 255 255
437.92062 659.69843 1.2671713 255 255 255
2470.1011 1482.474 3.5265677 255 255 255
590.65936 438.35651 0.72037995 255 255 255
478.78271 681.88751 1.3206452 255 255 255
-449.73502 -1397.3118 -3.2465241 255 255 255
481.66693 755.91235 1.3644066 255 255 255
568.87823 808.67255 1.4726634 255 255 255
2320.3489 1288.4718 3.4888756 255 255 255
450.75735 257.84625 0.74529356 255 255 255
440.83984 657.2605 1.2689296 255 255 255
-692.09991 -360.92261 -1.807802 255 255 255
-1294.8593 -1158.5833 -2.5945888 255 255 255
-526.90344 -704.6319 -2.1933939 255 255 255
1911.0474 1876.9966 2.4605279 255 255 255
-491.51025 -304.66974 -1.58867 255 255 255
60071.59 64808.375 132.52255 255 255 255
3730.9553 1808.4983 4.6907358 255 255 255
4845.7817 3123.0422 6.4901876 255 255 255
590.6684 904.09595 2.2914927 255 255 255
-113.4812 -101.34298 -1.1344153 255 255 255
1644.2124 1431.304 2.6594183 255 255 255
-2045.2036 -2892.3186 -7.2802172 255 255 255
43.75996 86.739052 0.25105765 255 255 255
404.60776 686.53986 1.8523322 255 255 255
6737.7583 2534.8323 6.7583308 255 255 255
-691.32129 -462.0274 -2.9236481 255 255 255
-1753.1166 -2050.0601 -7.1064239 255 255 255
-279.65872 -210.33269 -1.3925242 255 255 255
356.30319 156.33633 0.34068322 255 255 255
-817.6944 -1550.4537 -3.7732184 255 255 255
6144.8032 2782.9319 5.9845014 255 255 255
169.57454 147.274 0.53838837 255 255 255
395.45975 659.99451 1.9832025 255 255 255
2449.8477 1312.1288 3.6130447 255 255 255
8970.0234 5274.3804 8.9063549 255 255 255
-576.4245 -1121.4708 -2.7055588 255 255 255
-430.57419 -333.63959 -1.6396843 255 255 255
-1460.7467 -1709.3848 -4.3513341 255 255 255
4631.6465 3033.9829 7.3124771 255 255 255
283.81482 183.58495 0.38716587 255 255 255
-801.0824 -1427.6803 -4.8664598 255 255 255
579.12488 915.39453 1.536188 255 255 255
168.62411 187.34134 0.5756706 255 255 255
-550.50726 -1017.9632 -3.6641433 255 255 255
979.48352 499.18234 2.052238 255 255 255
1662.9982 1343.5098 2.6910875 255 255 255
6813.7168 2802.4622 6.5207734 255 255 255
-2590.6782 -2846.406 -9.8970785 255 255 255
-197.82576 -522.54034 -1.7804713 255 255 255
202.39507 502.43353 0.94414604 255 255 255
-599.75739 -258.55908 -1.7056327 255 255 255
-871.79095 -331.1478 -1.8990444 255 255 255
261.25064 386.30981 0.88828194 255 255 255
1370.8844 840.03394 2.35604 255 255 255
