ply
format ascii 1.0
comment PCL generated
element vertex 1085
property float x
property float y
property float z
property uchar red
property uchar green
property uchar blue
element face 0
element camera 0
property float view_px
property float view_py
property float view_pz
property float x_axisx
property float x_axisy
property float x_axisz
property float y_axisx
property float y_axisy
property float y_axisz
property float z_axisx
property float z_axisy
property float z_axisz
property float focal
property float scalex
property float scaley
property float centerx
property float centery
property int viewportx
property int viewporty
property float k1
property float k2
end_header
-959.27588 -451.02423 -2.1386828 255 255 255
-245.20811 -846.85651 -2.2662213 255 255 255
5987.0942 3961.1028 7.6810575 255 255 255
32596.854 27527.652 48.550674 255 255 255
-273.25275 -349.35434 -1.5250425 255 255 255
-2248.1792 -920.03436 -3.3741555 255 255 255
-615.38959 -587.52972 -2.0968435 255 255 255
-476.58774 -1062.1499 -2.6909571 255 255 255
755.12036 1070.1769 2.0500367 255 255 255
41641.926 14315.405 54.009445 255 255 255
-642.78699 -302.78473 -1.7210307 255 255 255
4321.0757 2913.6628 6.3088017 255 255 255
-677.21289 -535.4787 -1.8450868 255 255 255
-709.93024 -354.63455 -1.909192 255 255 255
-2035.7689 -1519.8588 -3.9770942 255 255 255
1206.6115 837.4884 2.8321111 255 255 255
-1163.2 -748.43243 -2.3114603 255 255 255
-780.8775 -522.19391 -1.9595163 255 255 255
910.27466 1165.9884 2.2701793 255 255 255
-813.16614 -1210.6997 -2.8809395 255 255 255
36818.426 11879.279 42.866295 255 255 255
-804.25018 -392.61807 -2.0395069 255 255 255
-1123.484 -1164.5857 -4.1815658 255 255 255
-1016.6296 -1215.5757 -3.3368843 255 255 255
-237.01248 -365.93481 -1.5736346 255 255 255
3711.2747 1866.4893 6.4201808 255 255 255
-768.11914 -412.11017 -1.9054147 255 255 255
1869.3997 1582.3936 2.3632092 255 255 255
10972.001 4923.8618 13.768395 255 255 255
-1130.204 -2076.7913 -4.268436 255 255 255
-2743.1104 -3317.4023 -8.3012638 255 255 255
-4417.4253 -4107.1406 -10.898026 255 255 255
-632.77423 -662.37982 -2.1410408 255 255 255
-5808.3623 -5733.0215 -14.236112 255 255 255
1596.8713 2231.3918 2.6499228 255 255 255
-751.9115 -898.84613 -2.4247062 255 255 255
3058.0178 2698.2361 4.6715841 255 255 255
-1190.5293 -1572.4789 -3.5885136 255 255 255
1057.4778 1732.9072 2.531949 255 255 255
5611.3774 3898.312 7.2361035 255 255 255
-1713.4048 -2874.4446 -6.7713723 255 255 255
-577.26941 -257.84293 -1.7225457 255 255 255
17085.617 10404.753 32.942062 255 255 255
5652.7959 3352.3992 6.9556251 255 255 255
-908.56757 -990.05865 -2.8201313 255 255 255
3288.3816 2838.7346 4.9143028 255 255 255
-830.14832 -463.00885 -2.0139251 255 255 255
-570.65271 -310.25519 -1.5932699 255 255 255
-553.67841 -289.50183 -1.6515275 255 255 255
-561.03619 -252.3243 -1.6339908 255 255 255
-576.88 -407.4783 -1.7178744 255 255 255
5199.8608 2724.094 7.7775364 255 255 255
20473.125 12779.057 27.845821 255 255 255
-651.65613 -372.85794 -1.7535223 255 255 255
-280.24014 -306.48395 -1.4011136 255 255 255
2528.272 5481.1729 7.290627 255 255 255
10722.265 4878.9795 13.473779 255 255 255
-3401.0649 -3245.9954 -9.6250782 255 255 255
11021.852 5738.374 14.276807 255 255 255
-1008.1984 -1117.8068 -3.4792962 255 255 255
-613.82458 -525.01807 -1.7604121 255 255 255
-887.05542 -888.07086 -2.8855674 255 255 255
20083.855 11267.875 22.097965 255 255 255
-1026.002 -907.18311 -2.2963183 255 255 255
-16792.982 -28288.049 -57.907799 255 255 255
754.49274 1413.6565 2.1479111 255 255 255
-791.30157 -671.86462 -2.0485065 255 255 255
-604.15869 -260.69553 -1.6603041 255 255 255
3013.3425 2557.2153 4.7088823 255 255 255
5073.5493 3841.8293 6.5933876 255 255 255
6899.4595 4103.1245 8.7740355 255 255 255
-409.9613 -573.63837 -2.3580828 255 255 255
-593.69421 -301.61322 -1.6748546 255 255 255
5259.1504 6262.6382 9.4939547 255 255 255
-981.86676 -787.9989 -2.2517669 255 255 255
-1023.5389 -654.922 -3.9401057 255 255 255
-1235.0493 -1512.2524 -3.9707944 255 255 255
-4524.9565 -2859.686 -12.219425 255 255 255
879.00012 852.15424 2.2155693 255 255 255
3697.8391 3221.4329 9.8223257 255 255 255
-645.90399 -239.89807 -1.6417842 255 255 255
964.41608 1326.1602 2.3698041 255 255 255
4728.2612 3813.8103 6.189302 255 255 255
-256.34341 -381.86902 -1.7590628 255 255 255
-830.7193 -394.94623 -2.1052058 255 255 255
-510.52719 -425.37357 -1.668801 255 255 255
-677.46375 -491.70551 -1.7957997 255 255 255
15011.675 6181.1377 22.601337 255 255 255
-885.37787 -274.06924 -2.1233935 255 255 255
4122.9473 1851.7645 7.1785855 255 255 255
-622.3418 -227.69443 -1.6868917 255 255 255
-1807.0602 -1972.7703 -4.8811245 255 255 255
-717.19983 -395.35229 -1.945278 255 255 255
-502.38739 -856.23627 -2.3086219 255 255 255
5727.23 3890.7676 7.3890653 255 255 255
-5370.4429 -4841.9966 -15.315032 255 255 255
-1498.9899 -728.82196 -4.3829384 255 255 255
6896.1533 4067.9939 8.8005219 255 255 255
-1089.3669 -1552.9447 -3.4806001 255 255 255
1050.0001 1287.5059 2.4763708 255 255 255
-830.83038 -944.62396 -2.5576792 255 255 255
-557.80054 -262.73123 -1.6060621 255 255 255
-616.5918 -326.09201 -1.6605152 255 255 255
-290.28427 -476.88281 -1.9803425 255 255 255
-703.67212 -429.38269 -1.7696428 255 255 255
4327.9258 3610.321 11.54098 255 255 255
-653.06354 -422.4884 -1.8178506 255 255 255
5830.5439 3924.4197 7.5015144 255 255 255
-2218.8379 -3162.9194 -7.9989843 255 255 255
-1351.4762 -1295.9896 -3.3242195 255 255 255
1907.1592 4796.2485 7.499568 255 255 255
-3252.7424 -5031.9629 -11.714835 255 255 255
-7265.4541 -2408.2061 -20.001118 255 255 255
-236.58488 -418.43887 -1.8332962 255 255 255
-644.79041 -262.85522 -1.7031524 255 255 255
5539.668 3899.8411 7.1442699 255 255 255
-946.58374 -1494.4268 -3.3513494 255 255 255
42151.371 16788.008 63.57019 255 255 255
-2166.1494 -2162.1418 -6.1257515 255 255 255
3443.5691 2781.6909 5.1376348 255 255 255
-697.64783 -1039.7034 -2.9144807 255 255 255
9763.9463 14150.247 22.86928 255 255 255
4340.3047 2348.2363 5.0462899 255 255 255
5035.9009 3808.4438 6.5707607 255 255 255
-2823.9048 -2138.3655 -6.7214813 255 255 255
29586.857 16538.639 82.545898 255 255 255
-871.28418 -1205.5664 -3.4140542 255 255 255
8254.2549 4375.5146 10.423991 255 255 255
-3727.4695 -2002.522 -5.8640971 255 255 255
770.67847 930.19928 2.0488293 255 255 255
-684.98676 -302.0657 -1.8731248 255 255 255
-676.90985 -400.74557 -1.862262 255 255 255
-273.42859 -409.02835 -1.8612926 255 255 255
601.20154 1372.2635 1.9891866 255 255 255
13711.896 7350.3325 14.78334 255 255 255
-801.7796 -418.66217 -1.8289537 255 255 255
21806.154 28228.32 45.424965 255 255 255
-576.0473 -707.82721 -2.2969437 255 255 255
6469.8423 4738.1392 7.7477274 255 255 255
-2062.6326 -3293.4624 -6.1606941 255 255 255
591.66418 586.13312 1.7139003 255 255 255
3441.4502 3381.4099 6.2478395 255 255 255
-259.10431 -281.71402 -1.3686844 255 255 255
-675.70233 -268.32635 -1.7554376 255 255 255
-1701.8746 -1315.928 -4.5601606 255 255 255
13877.413 13489.403 23.377089 255 255 255
7007.252 4095.4968 8.9316196 255 255 255
-569.38739 -462.94571 -1.7077341 255 255 255
-970.39191 -1192.1508 -3.2109241 255 255 255
-670.2597 -354.70633 -1.8177208 255 255 255
-675.19751 -312.77362 -1.8808947 255 255 255
1489.2372 1011.7827 3.2636061 255 255 255
-2338.8413 -2546.0833 -8.0146379 255 255 255
-602.93573 -325.82373 -1.6818244 255 255 255
5095.1196 3830.6846 6.615242 255 255 255
-1061.5122 -1042.2098 -3.2877507 255 255 255
-314.68976 -231.8956 -1.3731971 255 255 255
-321.51126 -282.09998 -1.425277 255 255 255
23456.564 7756.728 29.086946 255 255 255
8401.8789 4371.9443 10.646283 255 255 255
-2165.6726 -2213.8574 -5.3268542 255 255 255
-605.35034 -364.33047 -2.1938939 255 255 255
-1469.8236 -1047.8802 -4.1522303 255 255 255
-662.12091 -402.11243 -1.7515064 255 255 255
-536.55371 -240.10823 -1.5846486 255 255 255
-480.49451 -383.20801 -1.6085963 255 255 255
10282.837 4744.1694 12.970706 255 255 255
2238.3743 1855.4521 5.9744253 255 255 255
-527.98065 -878.19751 -2.4013226 255 255 255
58030.773 15444.151 72.297119 255 255 255
4234.8086 8467.9238 12.537039 255 255 255
-1040.0596 -1252.6854 -3.8121934 255 255 255
38674.98 11100.458 48.245495 255 255 255
2787.241 2577.2439 4.4050031 255 255 255
3284.9275 2836.5591 4.9096589 255 255 255
-635.02869 -379.97702 -1.7260774 255 255 255
2789.999 2572.1816 4.4115744 255 255 255
-697.27557 -438.03165 -1.843021 255 255 255
7790.7671 2332.2722 13.482524 255 255 255
-471.97882 -386.43774 -1.5860444 255 255 255
3667.2393 3099.3298 5.7981653 255 255 255
-556.07416 -414.86279 -1.9389427 255 255 255
-1371.9957 -1791.2986 -2.9254813 255 255 255
4569.2515 3348.5742 6.4089518 255 255 255
3167.9719 2802.0652 5.04743 255 255 255
79585.336 47883.543 90.164024 255 255 255
-239.41226 -197.71513 -1.637531 255 255 255
3308.9456 2821.3892 4.9456167 255 255 255
3241.1484 2778.9023 4.869225 255 255 255
15051.23 9881.4443 30.123434 255 255 255
-249.89798 -475.3143 -1.9368317 255 255 255
725.14917 530.44458 2.0006058 255 255 255
460.06897 543.88696 1.4658165 255 255 255
-812.92902 -444.92484 -3.2356091 255 255 255
25116.076 8238.0684 30.960171 255 255 255
-718.37457 -321.32797 -1.7711555 255 255 255
-619.54724 -336.74982 -1.7163763 255 255 255
-138.11346 -187.57312 -1.305261 255 255 255
-1017.6082 -1170.2874 -3.2023604 255 255 255
3413.7961 2849.4434 5.0724034 255 255 255
-1193.558 -875.66827 -2.7543561 255 255 255
-1055.822 -1437.5642 -3.6910584 255 255 255
-1384.5784 -747.39386 -4.1933246 255 255 255
-1293.3464 -1089.0076 -3.7654052 255 255 255
756.99847 1075.615 2.0505335 255 255 255
-654.1568 -356.19595 -1.733507 255 255 255
-498.31354 -434.86707 -2.3282912 255 255 255
-588.98529 -276.38559 -1.5812323 255 255 255
-682.4425 -290.75003 -1.802331 255 255 255
661.11658 1374.2659 2.0432203 255 255 255
10305.292 4770.9717 13.004664 255 255 255
-334.50653 -284.39929 -1.4489594 255 255 255
-1227.5598 -1897.5153 -4.0857191 255 255 255
4767.1597 3805.6365 6.2332263 255 255 255
5591.4541 3899.7178 7.2082171 255 255 255
4726.2593 3814.853 6.1906962 255 255 255
1346.2307 780.73535 3.1733358 255 255 255
-783.54645 -452.04803 -2.1565804 255 255 255
-653.55829 -334.15527 -1.7520057 255 255 255
-16592.307 -9362.0576 -40.844982 255 255 255
-923.0553 -1659.0186 -3.5366724 255 255 255
-9287.1621 -4774.6108 -22.513678 255 255 255
-1922.2899 -1061.5133 -5.4133677 255 255 255
-830.73071 -342.74298 -1.9620749 255 255 255
-1156.9109 -1824.3439 -4.2828555 255 255 255
-405.40848 -488.45947 -2.183836 255 255 255
-1068.8708 -878.95209 -3.1409092 255 255 255
901.19769 1180.7059 2.2613299 255 255 255
-712.43555 -749.57922 -2.2987986 255 255 255
5727.189 3910.656 7.366632 255 255 255
5528.9482 2021.8496 9.5716858 255 255 255
-1176471.5 -807404.88 -1327.3529 255 255 255
7949.2935 4328.0107 10.052421 255 255 255
-1244.0557 -2559.6514 -5.6324224 255 255 255
-732.43268 -528.33557 -1.9235947 255 255 255
-1024.723 -961.11005 -3.5530207 255 255 255
2138.0466 2190.6675 3.8444676 255 255 255
-910.60565 -1000.3679 -3.0157082 255 255 255
7084.3354 4121.5527 8.9957771 255 255 255
1103.6871 585.29224 2.8594434 255 255 255
-607.78644 -258.84863 -1.696293 255 255 255
-4001.1042 -1878.0537 -11.690826 255 255 255
5801.9131 3928.0437 7.4593406 255 255 255
-223.43535 -197.18315 -1.2761074 255 255 255
-1256.8931 -911.80933 -2.8180728 255 255 255
1049.7096 1288.1036 2.4766626 255 255 255
-679.11121 -319.65155 -1.752581 255 255 255
5076.9692 5555.8696 8.9472818 255 255 255
-1960.014 -1663.1157 -5.3422036 255 255 255
5798.2402 3915.9277 7.4625611 255 255 255
-247.96904 -212.75613 -1.3825483 255 255 255
-546.57849 -918.10925 -2.4439659 255 255 255
406.03976 262.88644 1.3530301 255 255 255
1737.2808 1873.4652 3.3147616 255 255 255
-606.3183 -295.20392 -1.7033384 255 255 255
-1023.603 -1038.5511 -3.146637 255 255 255
-296.77893 -772.58032 -2.2046418 255 255 255
-2910.5042 -1695.9482 -8.446846 255 255 255
1109.9365 1306.8911 2.2313602 255 255 255
-1276.9619 -1747.6539 -4.2213874 255 255 255
-720.64258 -1087.5886 -2.6887991 255 255 255
-545.65161 -268.625 -1.5678958 255 255 255
-703.80719 -833.45477 -2.3770902 255 255 255
6596.3423 7506.5015 11.896475 255 255 255
-8403.6621 -5255.8506 -22.427971 255 255 255
-1476.9215 -2274.8333 -5.2609758 255 255 255
-849.04358 -834.62805 -2.507339 255 255 255
-1043.723 -1716.9465 -3.7737982 255 255 255
11836.368 5110.7817 14.872308 255 255 255
219.01553 262.14838 0.87116307 255 255 255
-603.69501 -737.33051 -1.9044057 255 255 255
7373.6831 4854.3721 9.6662121 255 255 255
-899.17719 -591.52051 -2.2803948 255 255 255
-1962.6298 -2446.5359 -7.0516839 255 255 255
7983.9995 4348.9912 19.562216 255 255 255
-11991.407 -9263.1768 -22.601871 255 255 255
-599.62689 -359.29794 -1.8467624 255 255 255
-568.72949 -471.2117 -1.7198535 255 255 255
-706.04559 -500.77167 -1.8936154 255 255 255
-606.84039 -570.07812 -2.0482762 255 255 255
39748.434 67072.219 101.36184 255 255 255
5048.8687 3835.5186 6.5620284 255 255 255
-761.78265 -410.58292 -2.1399448 255 255 255
-1648.9271 -1466.6136 -4.0077505 255 255 255
4830.4976 1923.226 8.3759003 255 255 255
-727.7381 -325.58899 -1.9398711 255 255 255
-527.2547 -301.52905 -1.5813475 255 255 255
-1002.2924 -869.83905 -3.1358395 255 255 255
-6978.9253 -5759.2764 -13.371439 255 255 255
-557.65466 -1001.2545 -2.5869818 255 255 255
-8875.4404 -4833.7544 -11.522949 255 255 255
-847.97784 -1024.5156 -2.7775145 255 255 255
-500.43936 -408.06702 -1.6373031 255 255 255
1102.3514 805.17932 2.6471298 255 255 255
1290.2419 766.99231 3.0609069 255 255 255
-595.98352 -339.7789 -1.6256454 255 255 255
-801.64551 -615.68542 -3.2784054 255 255 255
3655.2327 3681.4714 5.6303425 255 255 255
-679.25665 -271.33383 -1.7596732 255 255 255
-2302.8259 -1644.9312 -5.9793439 255 255 255
1599.5105 1563.6156 3.4215763 255 255 255
112.40338 313.06754 0.75705171 255 255 255
-389.1716 -246.42245 -1.4591902 255 255 255
-845.21741 -404.46259 -1.9943686 255 255 255
-1831.8119 -2513.762 -6.251802 255 255 255
-29346.516 -22915.047 -36.487553 255 255 255
-672.02179 -341.96426 -1.7143917 255 255 255
-797.36847 -370.66397 -1.9137999 255 255 255
-796.13745 -291.13107 -1.8001463 255 255 255
-649.76965 -334.83411 -1.70275 255 255 255
-2683.6313 -1956.1072 -7.6489854 255 255 255
-1202.0363 -1429.366 -3.6991992 255 255 255
-895.21173 -724.88989 -2.1012046 255 255 255
16866.52 10320.493 32.731037 255 255 255
9432.4873 4606.5327 11.870827 255 255 255
-654.6814 -880.28882 -2.3868277 255 255 255
9325.9697 4575.6519 11.768464 255 255 255
-781.18604 -413.69781 -1.8653611 255 255 255
-645.8833 -497.19534 -1.9474577 255 255 255
-1161.7307 -1517.9028 -3.9972913 255 255 255
-543.9538 -225.88985 -1.594265 255 255 255
80251.102 164315.5 281.03653 255 255 255
11238.817 4987.5444 14.106513 255 255 255
-682.41479 -540.44031 -1.8850056 255 255 255
-784.94885 -508.48978 -1.9441056 255 255 255
-3678.7424 -1802.2404 -10.201859 255 255 255
-630.22437 -653.93445 -2.5859177 255 255 255
-356.09689 -242.24097 -1.5094311 255 255 255
-2020.167 -1573.2584 -3.9859166 255 255 255
-2604.3433 -1878.099 -7.4996123 255 255 255
-662.83759 -780.78473 -2.2490292 255 255 255
9129.1367 4950.4302 11.710709 255 255 255
11324.084 5969.2148 17.184078 255 255 255
-625.30725 -350.75909 -1.7328366 255 255 255
8201.5381 4352.2456 10.399772 255 255 255
-866.20471 -518.7077 -2.5328534 255 255 255
-288.89468 -427.60529 -1.909416 255 255 255
-920.23523 -955.60577 -2.8193901 255 255 255
-507.41284 -345.59583 -1.6018978 255 255 255
-625.02393 -358.35825 -1.6795293 255 255 255
-1166.731 -1366.4551 -4.1147904 255 255 255
-686.70221 -422.69858 -1.9019976 255 255 255
-1000.2349 -1283.5349 -3.4008267 255 255 255
-5255.8784 -1941.6833 -7.0401525 255 255 255
-624.44702 -323.34857 -1.6905932 255 255 255
35814.395 11565.569 41.711227 255 255 255
7337.5278 6069.7778 10.851808 255 255 255
1199.8727 836.67566 2.820776 255 255 255
-157.79463 -333.03894 -1.5259699 255 255 255
907.28723 808.51221 2.2720022 255 255 255
-329.45691 -267.91724 -1.5029041 255 255 255
34156.086 10058.489 42.59734 255 255 255
-945.00391 -596.40558 -2.3087163 255 255 255
-665.71692 -718.02478 -2.2284002 255 255 255
-815.67078 -821.34558 -2.5422812 255 255 255
-606.11206 -385.82684 -1.6985176 255 255 255
-621.44629 -355.38721 -1.7245628 255 255 255
7859.1924 2329.4431 13.574696 255 255 255
-690.12512 -309.23196 -1.7879879 255 255 255
-584.51666 -311.80212 -1.6196446 255 255 255
-635.34509 -365.21985 -1.7427951 255 255 255
5230.4795 4583.6309 7.803751 255 255 255
7394.1318 6823.2539 12.073248 255 255 255
-593.00269 -294.01898 -1.6086822 255 255 255
-1553.1752 -1558.8719 -3.5452788 255 255 255
-583.84058 -407.02414 -1.7018605 255 255 255
-794.32721 -314.34753 -1.9979033 255 255 255
-493.31387 -746.69226 -2.1585224 255 255 255
2060.4648 1320.5823 4.0581412 255 255 255
-1382.0363 -1261.5663 -4.085815 255 255 255
-1115.5433 -1463.3214 -3.376936 255 255 255
11084.19 6538.7627 12.148931 255 255 255
-1530.2964 -2181.8611 -5.5334015 255 255 255
-714.89716 -320.72552 -1.7873044 255 255 255
24299.059 14063.854 28.545811 255 255 255
1576.139 2975.1199 4.9144082 255 255 255
-587.78882 -393.1105 -1.7258508 255 255 255
-660.85834 -695.34265 -2.6554666 255 255 255
-417.72223 -288.00742 -1.4917419 255 255 255
-659.89948 -806.46326 -2.6132605 255 255 255
-792.60071 -307.2421 -1.9244009 255 255 255
3292.7393 2847.6951 4.9195714 255 255 255
-348384.31 -218425.83 -482.90674 255 255 255
-725.0343 -544.77679 -2.9988346 255 255 255
-825.01227 -585.46277 -1.9697732 255 255 255
-705.53516 -626.81201 -1.8815957 255 255 255
5920.8838 3739.7634 7.5065207 255 255 255
8655.3701 4728.1284 11.06474 255 255 255
-3501.1323 -6024.7627 -14.707799 255 255 255
-1466.6224 -1149.7104 -4.774416 255 255 255
-1248.871 -1483.1198 -4.4915681 255 255 255
-714.8465 -526.74847 -1.92821 255 255 255
-299.24606 -458.6778 -1.8981322 255 255 255
-3946.6355 -1703.2186 -5.9825897 255 255 255
-136.23102 -383.14984 -1.5805581 255 255 255
-487.69266 -328.53821 -1.5648226 255 255 255
6479.4736 4030.7039 8.301342 255 255 255
1282.9895 1533.8263 2.0711591 255 255 255
1319.073 840.60986 3.0534708 255 255 255
-1178.5676 -1214.7454 -2.5627265 255 255 255
1114.2552 970.47705 2.5925963 255 255 255
-651.71136 -934.04321 -2.8107653 255 255 255
-531.08472 -567.40198 -2.5897479 255 255 255
-711.17761 -460.4718 -1.8524467 255 255 255
-861.58301 -794.41742 -2.1200981 255 255 255
-871.54761 -665.42468 -2.254585 255 255 255
-694.15283 -415.242 -1.8377723 255 255 255
-768.93787 -139.32965 -1.9739244 255 255 255
-856.80609 -462.0239 -2.1923172 255 255 255
-583.70917 -433.68646 -1.7586135 255 255 255
10807.344 18817.053 38.578716 255 255 255
1799.6418 1393.5145 3.5606875 255 255 255
-1086.3824 -871.4588 -2.5308883 255 255 255
-1729.8573 -2027.808 -5.568871 255 255 255
5182.0229 2715.4944 7.7518153 255 255 255
-500.59286 -245.92769 -1.5047218 255 255 255
861.93323 958.75659 2.183562 255 255 255
1018.2805 1123.1932 2.4218678 255 255 255
-439.23141 -658.35022 -2.0583227 255 255 255
3126.7632 2183.9194 5.1134176 255 255 255
-181.10841 -225.0663 -1.2614274 255 255 255
-639.89307 -419.13248 -1.7235358 255 255 255
-902.03754 -592.63989 -3.0266514 255 255 255
-2256.8906 -2743.0081 -6.998333 255 255 255
970.39703 1153.5554 2.2783349 255 255 255
22081.068 28599.293 46.024895 255 255 255
19597.518 28858.129 56.734928 255 255 255
1400.8145 2840.7263 3.882334 255 255 255
-975.24225 -553.38611 -2.1412356 255 255 255
3438.0874 2779.4531 5.1299367 255 255 255
3059.5337 1399.9873 5.8474793 255 255 255
-31245.895 -15308.117 -41.638935 255 255 255
4446.7393 4505.3813 12.364861 255 255 255
2154.2915 2136.9138 3.7806592 255 255 255
-709.34674 -599.11176 -2.0795267 255 255 255
7414.6128 3102.8325 10.941286 255 255 255
-298.78296 -252.19609 -1.4605964 255 255 255
18355.475 7399.0337 23.516567 255 255 255
-588.25409 -442.46872 -1.6741432 255 255 255
1084.9637 988.14398 1.4913198 255 255 255
-82.34742 -303.16397 -1.5289862 255 255 255
2064.3604 2329.0063 3.6231444 255 255 255
-474.95514 -204.89319 -1.5241948 255 255 255
-11086.478 -17423.836 -27.130774 255 255 255
1125.7749 1064.2013 2.592397 255 255 255
4229.5093 2346.0291 7.7632012 255 255 255
-8121.5591 -4981.6758 -12.577924 255 255 255
-596.12115 -205.72173 -1.5850424 255 255 255
-76475.086 -34104.762 -101.97871 255 255 255
-104.44122 -150.34192 -1.3105155 255 255 255
-35204.883 -20101.078 -50.482273 255 255 255
-683.91266 -176.48782 -1.7740846 255 255 255
-714.78851 -570.49738 -2.1268559 255 255 255
-252.28619 -552.73859 -2.1400614 255 255 255
-1202.933 -1317.8588 -4.3350835 255 255 255
-811.88287 -597.97168 -2.4289377 255 255 255
12490.732 8829.0732 17.12941 255 255 255
-1973.2671 -2345.7974 -5.9483538 255 255 255
4083.5952 1840.4901 7.1116571 255 255 255
209.50876 253.8698 0.84551525 255 255 255
-832.31006 -455.18939 -1.951481 255 255 255
-816.03308 -437.58142 -2.123683 255 255 255
8415.6172 5050.4912 21.717207 255 255 255
2778.8115 1773.6195 4.9003062 255 255 255
-661.47302 -692.88513 -2.2441905 255 255 255
-307.87918 -443.74026 -1.8269118 255 255 255
-508.6196 -274.53958 -1.5188528 255 255 255
1537.3317 1353.0359 2.2243643 255 255 255
0.79804659 0.60259467 0.0011417855 255 255 255
5809.624 3932.5444 7.4671116 255 255 255
-9449.2666 -4137.4307 -26.359114 255 255 255
-1234.6584 -1359.7981 -3.7502465 255 255 255
11870.01 3519.4187 15.631643 255 255 255
-974.33893 -557.15417 -2.8021297 255 255 255
1033.361 1033.3818 1.4233525 255 255 255
21513.738 6563.4062 28.664511 255 255 255
914.32581 1197.0664 2.2783692 255 255 255
-411.71457 -499.03006 -1.8316134 255 255 255
-735.92834 -507.65869 -1.8906649 255 255 255
-333.10049 -278.18802 -1.4356456 255 255 255
-788.57257 -365.35257 -2.0663064 255 255 255
-601.36688 -450.9978 -1.7041055 255 255 255
-3107.3997 -864.80975 -8.6755981 255 255 255
5520.332 2016.9246 9.5533943 255 255 255
-544.06982 -330.51367 -1.5973648 255 255 255
6085.5981 5506.3105 9.1729221 255 255 255
-583.20624 -602.67413 -2.0149441 255 255 255
30299.898 9183.4912 37.785381 255 255 255
-517.60559 -795.17749 -2.2826595 255 255 255
-1469.8789 -1489.5254 -4.736249 255 255 255
-1097.255 -1685.825 -4.0413485 255 255 255
5197.8804 2722.8958 7.7732124 255 255 255
-322.84613 -505.4433 -1.9620559 255 255 255
41634.602 13127.644 48.484211 255 255 255
-576.42859 -286.06265 -1.6546962 255 255 255
406.82941 263.11499 1.3569705 255 255 255
-507.1264 -240.442 -1.5175742 255 255 255
-453.52902 -284.19073 -1.5158041 255 255 255
-36789.402 -13897.174 -56.567131 255 255 255
-2125.7373 -1927.726 -6.2312765 255 255 255
6705.6099 6195.2231 11.522896 255 255 255
-691.64081 -137.0883 -1.7679586 255 255 255
-520.02814 -494.86639 -1.7710165 255 255 255
-695.10425 -775.1463 -2.5100298 255 255 255
-831.3006 -869.27582 -2.7633293 255 255 255
-8221.2275 -8956.0332 -18.550615 255 255 255
-229.75563 -443.24142 -1.8052139 255 255 255
-1019.7578 -818.08441 -2.9217546 255 255 255
-1013.7214 -741.22931 -3.1975982 255 255 255
-652.12903 -406.7645 -1.7282453 255 255 255
-653.17212 -342.80957 -1.7429818 255 255 255
-708.49341 -188.58524 -1.8015078 255 255 255
2067.3911 2332.457 3.6307907 255 255 255
6516.3457 4029.6262 8.317853 255 255 255
3193.832 1768.5448 5.6081657 255 255 255
-2021.2155 -2488.509 -7.809052 255 255 255
-773.44135 -237.57985 -1.8813587 255 255 255
-618.67505 -292.1785 -1.7287928 255 255 255
75934.242 27077.643 113.34022 255 255 255
-526.47748 -850.47296 -2.3728261 255 255 255
-717.3175 -1070.7831 -2.6435151 255 255 255
372.23428 529.79102 1.3121504 255 255 255
1039.2841 1232.9442 2.4587343 255 255 255
-637.77649 -232.7435 -1.7034398 255 255 255
-746.34161 -786.7016 -2.4331527 255 255 255
-1418.1239 -1518.0868 -3.5413966 255 255 255
-657.16382 -423.82715 -1.7939441 255 255 255
-589.39679 -348.55844 -1.6210935 255 255 255
-976.13904 -814.99774 -3.1123199 255 255 255
-883.00415 -528.26135 -2.2242246 255 255 255
10301.237 4758.3862 12.997556 255 255 255
10297.609 4781.1938 12.942484 255 255 255
-664.7218 -813.68579 -2.6265283 255 255 255
726.11432 583.90179 2.3735852 255 255 255
-602.3609 -776.15564 -2.300442 255 255 255
-87993.391 -19113.352 -102.25087 255 255 255
-51296.102 -10103.514 -59.654602 255 255 255
-691.19861 -351.59924 -1.9914895 255 255 255
-575.50323 -444.88348 -1.7108536 255 255 255
-1778.1337 -1674.5084 -5.2956429 255 255 255
1104.5851 585.57581 2.8619714 255 255 255
-62812.445 -5962.8589 -76.301125 255 255 255
-1329.4396 -1279.6582 -4.6046324 255 255 255
-787.02863 -424.3519 -2.2145281 255 255 255
-220.69247 -177.45987 -1.6564131 255 255 255
660.99634 1375.9116 2.0460944 255 255 255
-3196.7593 -2899.5051 -5.2632909 255 255 255
33393.965 22329.352 39.025787 255 255 255
-1095.1561 -1187.4589 -3.9227369 255 255 255
3735.1028 4918.2769 10.136637 255 255 255
9408.7412 5170.6104 18.199572 255 255 255
-567.9361 -252.53674 -1.6281452 255 255 255
17432.488 8262.6982 22.810612 255 255 255
3936.0596 4380.6851 8.9069519 255 255 255
-612.0694 -302.77512 -1.6847742 255 255 255
15286.499 9519.04 21.234795 255 255 255
4852.522 1929.674 8.4113684 255 255 255
-562.62933 -332.74722 -1.6035903 255 255 255
-526.17615 -295.73859 -1.5845293 255 255 255
5623.9619 2028.2164 9.7388906 255 255 255
2144.4128 4408.2568 7.6839609 255 255 255
1596.2159 1095.6877 2.0519507 255 255 255
-1003.9152 -1119.9409 -3.2070332 255 255 255
-503.86313 -582.5863 -2.5728743 255 255 255
-1145.1506 -1459.5175 -3.5800712 255 255 255
-268.64917 -254.36139 -1.578243 255 255 255
2274.7288 2259.7737 3.8923528 255 255 255
5461.1021 3876.4475 7.0555229 255 255 255
1138.0769 1350.4037 1.8574685 255 255 255
-1040.5615 -909.23938 -3.1301756 255 255 255
-575.29932 -422.08646 -1.7596232 255 255 255
-72858.062 -15520.076 -84.673164 255 255 255
-267.70978 -175.9014 -1.3336326 255 255 255
-965.39355 -1282.6586 -3.001487 255 255 255
-655.30084 -725.85779 -2.2032423 255 255 255
-602.00269 -332.25818 -1.7077148 255 255 255
-668.92462 -403.86191 -2.0107965 255 255 255
4243.6597 2868.7444 6.1722484 255 255 255
-726.0296 -822.13287 -2.4609206 255 255 255
-7599.4995 -5390.7207 -10.909285 255 255 255
-3373.917 -1002.0614 -4.598331 255 255 255
1047.7053 1285.9348 2.4701126 255 255 255
2080.1143 2105.3037 3.7000148 255 255 255
-814.2663 -579.01886 -2.1373761 255 255 255
2146.5754 2127.4094 3.7721338 255 255 255
23818.381 17715.719 27.502344 255 255 255
-1668.8854 -1758.1544 -3.3485503 255 255 255
-729.76978 -200.69153 -1.8896906 255 255 255
-650.15375 -307.82901 -1.7132269 255 255 255
-601.34473 -375.68982 -1.6882573 255 255 255
-668.12897 -268.703 -1.7476268 255 255 255
-902.10114 -1323.181 -3.2989824 255 255 255
25327.695 8286.8721 31.207655 255 255 255
2109.512 2099.2148 3.7338846 255 255 255
2099.2764 2092.0857 3.7263765 255 255 255
2041.703 2060.583 3.6624084 255 255 255
36511.375 11802.927 42.531986 255 255 255
58088.531 15439.997 72.379692 255 255 255
-8792.9941 -4686.8022 -13.504711 255 255 255
-1234.1879 -1454.9496 -4.0665131 255 255 255
65779.625 15616.729 87.466728 255 255 255
-4962.3301 -3335.2236 -8.9093027 255 255 255
-723.31403 -874.06464 -2.5524135 255 255 255
-2188.2898 -2788.2434 -6.9734511 255 255 255
461.87415 545.06879 1.4702961 255 255 255
4226.752 3057.8894 12.985496 255 255 255
-765.39288 -580.97241 -3.2724926 255 255 255
6009.2646 3954.679 7.712234 255 255 255
7866.4951 2331.0803 13.589207 255 255 255
-523.97327 -302.10242 -1.5666611 255 255 255
-4725.7769 -2121.9556 -11.942362 255 255 255
-329.55109 -322.19061 -1.5309321 255 255 255
5219.5879 4199.2427 10.401684 255 255 255
-39799.105 -17214.402 -47.084381 255 255 255
-1187.1245 -1009.8521 -3.6746097 255 255 255
-963.16467 -1412.2936 -3.2905002 255 255 255
-1066.2687 -1266.2579 -3.7882774 255 255 255
-556.75537 -176.48323 -1.6007844 255 255 255
-666.7572 -234.05537 -1.7395937 255 255 255
-930.16437 -1045.2933 -3.0284467 255 255 255
-1805.8324 -1338.5325 -3.6096323 255 255 255
-1545.019 -2208.262 -6.03688 255 255 255
-1098.7283 -891.25677 -3.2513232 255 255 255
-273.34641 -278.45309 -1.4390996 255 255 255
1313.7954 755.51154 3.1282024 255 255 255
-7654.7812 -4424.3896 -10.078649 255 255 255
-1099.8951 -2146.021 -4.2983336 255 255 255
-411.60101 -190.15207 -1.4672209 255 255 255
-670.84497 -377.75687 -1.7911775 255 255 255
-1229.3734 -933.57812 -3.5492013 255 255 255
-715.63477 -348.33313 -1.9380088 255 255 255
-601.40656 -239.545 -1.7763151 255 255 255
-2927.5908 -1773.4121 -5.7726145 255 255 255
-802.20978 -1057.2637 -2.7420113 255 255 255
-1696.1926 -942.28894 -3.0881157 255 255 255
-733.44104 -613.44415 -3.3616765 255 255 255
-788.5274 -878.45477 -2.4939976 255 255 255
-691.93335 -444.72348 -1.8104922 255 255 255
4994.8062 5833.564 8.7280684 255 255 255
-632.00153 -355.61926 -1.6709249 255 255 255
-1258.424 -1967.9929 -4.4407964 255 255 255
4193.6885 2857.9585 6.1116433 255 255 255
2786.6609 2569.406 4.4066896 255 255 255
-770.26544 -463.96274 -2.0146058 255 255 255
-331.22513 -271.56317 -1.4399879 255 255 255
-761.54968 -446.8754 -2.1700046 255 255 255
-794.02478 -401.2475 -2.0790894 255 255 255
-788.6394 -373.99246 -2.2065737 255 255 255
-516.41113 -299.60025 -1.5715284 255 255 255
-2686.155 -1958.8893 -7.6568732 255 255 255
16652.285 10176.079 32.30864 255 255 255
-661.30127 -265.71011 -1.7500582 255 255 255
-756.64453 -1020.7751 -3.0782743 255 255 255
-952.69427 -366.23215 -2.173666 255 255 255
10002.856 4710.3525 12.621948 255 255 255
-619.28198 -373.89771 -1.6988659 255 255 255
2087.51 2123.5061 3.7041836 255 255 255
37501.332 62828.242 95.84935 255 255 255
-2317158.2 -1214384.6 -3143.271 255 255 255
15888.067 6001.1958 19.920515 255 255 255
16915.307 10444.377 32.872581 255 255 255
-1161.9037 -1944.8751 -4.1336741 255 255 255
989.83856 763.17059 2.448235 255 255 255
-830.50726 -306.19412 -2.0585573 255 255 255
-1054.2429 -882.55328 -3.0279307 255 255 255
-1608.3239 -1986.2347 -4.9164028 255 255 255
-432.77731 -347.79724 -1.5420475 255 255 255
-544.89807 -278.12286 -1.6114215 255 255 255
-1346.1832 -1246.6531 -3.4997592 255 255 255
-1114.8513 -938.80762 -3.5446377 255 255 255
8441.7021 4392.2612 10.696562 255 255 255
151.248 889.45367 1.3706845 255 255 255
2456.9385 2937.7507 5.4901767 255 255 255
5394.8564 2419.2944 8.5765123 255 255 255
-116.40515 -221.16597 -1.3511698 255 255 255
2064.2178 1902.5012 2.6961255 255 255 255
-1046.0184 -1129.0524 -2.9669697 255 255 255
-686.47162 -236.60541 -1.7725016 255 255 255
-489.48688 -328.89587 -1.5549362 255 255 255
-1026.0497 -986.64124 -2.6806901 255 255 255
-5691.0054 -4372.6362 -10.755598 255 255 255
1429.8418 1494.2616 2.9735768 255 255 255
-1193.2795 -770.26373 -3.2516134 255 255 255
37592.953 19785.664 50.698402 255 255 255
-639.91235 -758.78796 -2.3225527 255 255 255
-764.92749 -1678.0331 -4.1182818 255 255 255
-803.62433 -377.01132 -2.0937469 255 255 255
2005.624 2160.8833 3.5894051 255 255 255
-659.75256 -857.98651 -2.4370544 255 255 255
-1014.6194 -2218.2581 -4.6288972 255 255 255
-199.98103 -501.60016 -1.7883267 255 255 255
-544.56073 -331.44104 -1.6605343 255 255 255
523.86401 1316.5258 1.8993341 255 255 255
-844.57697 -1328.168 -3.1276069 255 255 255
-2329.48 -1667.7213 -6.9197693 255 255 255
861.29272 958.09906 2.1832588 255 255 255
-233.98624 -357.87061 -1.6224399 255 255 255
-683.25244 -452.36398 -1.798126 255 255 255
-641.6145 -481.58728 -2.1017668 255 255 255
-693.7179 -315.67752 -1.7748049 255 255 255
-598.89783 -819.86353 -2.31984 255 255 255
-669.64417 -637.91602 -1.8712213 255 255 255
-1926.6818 -1971.7997 -5.7674389 255 255 255
-10733.1 -9989.6719 -17.98387 255 255 255
-99685.406 -78166.43 -165.9574 255 255 255
-284.57904 -328.96341 -1.7175797 255 255 255
-19111.105 -12996.544 -26.974445 255 255 255
-759.39679 -1354.2319 -3.4316363 255 255 255
13860.402 4957.8325 18.379129 255 255 255
-353.95569 -186.24957 -1.3956718 255 255 255
-536.44702 -795.89148 -2.3464842 255 255 255
-1002.0634 -862.80548 -2.8985631 255 255 255
-505.35629 -205.12895 -1.4991727 255 255 255
18345.465 8551.6758 24.040579 255 255 255
-1365.2961 -1396.5983 -4.2482576 255 255 255
-811.86261 -391.10358 -2.1837842 255 255 255
-661.48297 -1368.9235 -3.1460452 255 255 255
25511.02 11325.355 33.500637 255 255 255
-632.52551 -446.07938 -1.7887502 255 255 255
-309.58734 -577.30426 -2.2007957 255 255 255
1288.8883 1818.6072 2.7780755 255 255 255
-638.74731 -998.31824 -2.6717548 255 255 255
-565.8559 -143.58604 -1.6296266 255 255 255
-525.31036 -803.38965 -2.3628242 255 255 255
-1106.7887 -1064.0226 -3.2792232 255 255 255
-144.02205 -126.18793 -1.3799199 255 255 255
-660.30304 -430.83258 -1.8820155 255 255 255
-6906.6938 -4631.7778 -19.465256 255 255 255
992.11926 1543.582 2.2786489 255 255 255
-3005.7065 -4517.6035 -10.620515 255 255 255
-698.49542 -862.99469 -2.6627672 255 255 255
967.18469 762.05035 2.4041781 255 255 255
-650.0141 -233.19366 -1.7001123 255 255 255
-263.67825 -262.85574 -1.3466491 255 255 255
-601.172 -455.60883 -1.7842263 255 255 255
-690.63599 -679.03046 -2.1523385 255 255 255
-708.6153 -434.22873 -1.876491 255 255 255
1752.3409 915.95471 2.4006367 255 255 255
-6474.2446 -3286.0493 -10.071328 255 255 255
-485.23172 -278.44284 -1.5253998 255 255 255
1043.0139 802.13214 2.5336368 255 255 255
-478.55728 -317.68027 -1.9306262 255 255 255
2261.7078 2250.1299 3.8797648 255 255 255
-651.06201 -334.2529 -1.7602386 255 255 255
4842.7612 1926.5837 8.3989964 255 255 255
-872.77124 -314.84012 -1.9740772 255 255 255
2153.6165 2204.1501 3.8752549 255 255 255
-966.42841 -980.87012 -3.0105889 255 255 255
-661.35583 -1326.1904 -3.2315836 255 255 255
7863.2607 2400.739 20.667908 255 255 255
-1354.166 -1296.3466 -3.5092208 255 255 255
-3539.4243 -1889.6318 -5.8186717 255 255 255
7941.4854 2356.6006 13.728488 255 255 255
1019.6951 1148.5063 2.4215322 255 255 255
1296.288 1044.4424 2.5706637 255 255 255
-484.74039 -368.55798 -1.5745518 255 255 255
-671.90784 -343.75034 -1.7498556 255 255 255
-605.99036 -282.62338 -1.7063149 255 255 255
-1328.0526 -561.04962 -2.6540389 255 255 255
21906.859 6680.1357 29.142151 255 255 255
-85143.148 -18465.834 -98.953354 255 255 255
-1886.6663 -1510.6156 -5.7995596 255 255 255
-632.41589 -833.98346 -2.4370782 255 255 255
-639.73431 -1156.2318 -2.8169582 255 255 255
-1937.1702 -2716.5706 -6.373064 255 255 255
-1268.024 -1644.1815 -4.3917847 255 255 255
-20602.688 -9726.7783 -28.226959 255 255 255
-625.58752 -267.79944 -1.6432437 255 255 255
-619.51062 -296.17429 -1.7746956 255 255 255
4848.1328 13693.835 19.20137 255 255 255
-262.84674 -247.31221 -1.3399829 255 255 255
-323.43164 -240.76883 -1.4141132 255 255 255
-696.15698 -396.33701 -1.8009768 255 255 255
5652.7998 2036.2994 9.7971277 255 255 255
-1292.6582 -1531.3623 -4.3112364 255 255 255
-680.32196 -731.12396 -2.4743648 255 255 255
-1077.5084 -1226.3535 -3.4575584 255 255 255
1338.0806 775.62744 3.159631 255 255 255
-848.80524 -515.45959 -2.2776124 255 255 255
1001.3365 690.92029 2.508471 255 255 255
2787.5864 2571.3745 4.4103527 255 255 255
2151.3804 2132.1211 3.7833767 255 255 255
-1136.3961 -989.52094 -2.4901495 255 255 255
-152692.56 -18694.721 -191.44931 255 255 255
-977.74408 -815.33087 -3.1142395 255 255 255
-920.77576 -740.80237 -2.8903258 255 255 255
-702.03851 -545.63495 -2.086726 255 255 255
-341.99466 -491.00772 -2.0966785 255 255 255
-1266.4038 -1208.005 -3.8530056 255 255 255
-2083.8013 -2697.8711 -6.9637856 255 255 255
772.39685 361.99277 0.92057383 255 255 255
-841.44781 -474.42346 -2.1707063 255 255 255
4218.0767 2266.6118 6.7624197 255 255 255
1940.1567 2112.2075 3.5225646 255 255 255
-437.89807 -535.65649 -1.9515849 255 255 255
-1096.3737 -1024.4048 -3.3425949 255 255 255
-620.81342 -216.68385 -1.6446348 255 255 255
2777.7012 1771.4227 4.8997464 255 255 255
-1182.3163 -1164.4087 -3.625901 255 255 255
-1998.5464 -3055.2834 -6.7550368 255 255 255
1041.1283 1316.3279 2.4716794 255 255 255
-1726.6447 -1553.9104 -6.4636488 255 255 255
11198.816 4962.2383 14.059573 255 255 255
-338.49155 -306.32974 -1.5212448 255 255 255
65.518639 335.27676 0.74596977 255 255 255
-728.47559 -926.82544 -2.5294087 255 255 255
2847.1809 1709.7725 4.2719679 255 255 255
-564.37396 -212.3804 -1.6402947 255 255 255
-2093.062 -1583.8356 -6.6819124 255 255 255
-1326.5172 -1353.1836 -3.9944413 255 255 255
-583.87506 -713.8371 -2.0616612 255 255 255
-746.27344 -507.18631 -2.0545909 255 255 255
-1063.5201 -918.91266 -3.0084586 255 255 255
-671.10583 -494.82449 -1.7840083 255 255 255
2150.3674 2132.9265 3.7767596 255 255 255
-620.7558 -400.97028 -1.806501 255 255 255
37288.68 12058.208 43.448997 255 255 255
2698.5894 2191.7034 4.4824638 255 255 255
1257.3356 1334.8317 2.7554739 255 255 255
-905.30017 -1149.8887 -2.9903874 255 255 255
-1590.2734 -719.77753 -2.8090994 255 255 255
-582.97479 -484.09189 -1.8650272 255 255 255
-74107.633 -15752.166 -86.131447 255 255 255
12424.791 12311.109 18.05229 255 255 255
-1733.2314 -2071.6748 -5.3968763 255 255 255
-1951.6798 -974.3725 -5.3974485 255 255 255
-2209.4526 -3072.0369 -8.2917356 255 255 255
222964.5 120010.33 290.62292 255 255 255
3965.9189 1826.5127 6.9093804 255 255 255
-1001.7208 -1166.9708 -2.9960871 255 255 255
2067.3105 2331.8792 3.6317832 255 255 255
5527.5308 2022.5305 9.5727453 255 255 255
-2130.8359 -2478.4026 -4.5187321 255 255 255
1870.2222 1088.4637 3.9409373 255 255 255
-604.12207 -197.39417 -1.6530097 255 255 255
4888.5796 3284.0469 5.9693775 255 255 255
-554.11273 -402.43884 -1.706017 255 255 255
-488.61118 -982.2807 -2.9424455 255 255 255
-590.3399 -329.09033 -1.6702347 255 255 255
-723.52209 -482.13519 -1.9638129 255 255 255
-739.49139 -551.94183 -1.8826251 255 255 255
-373.92227 -650.58893 -2.2642164 255 255 255
-267.36136 -456.00275 -1.9066195 255 255 255
-747.27789 -553.98798 -2.0319154 255 255 255
-581.25226 -362.61282 -1.6677471 255 255 255
-236.44901 -471.89429 -1.8569968 255 255 255
-3017.1995 -1163.189 -4.1349287 255 255 255
-905.21692 -370.57462 -3.1947412 255 255 255
-611.40997 -360.3317 -1.7683851 255 255 255
-971.95966 -1017.8005 -2.6723814 255 255 255
-743.87775 -524.67316 -1.865779 255 255 255
1313.7148 755.41412 3.1289334 255 255 255
-214.05206 -156.02351 -1.5388417 255 255 255
-527.77893 -492.41068 -1.7835902 255 255 255
3804.3013 2581.5374 5.7987995 255 255 255
1532.2146 1493.9327 2.0195477 255 255 255
-1751.5706 -2449.5039 -5.8035827 255 255 255
3118.6025 2179.667 5.1028938 255 255 255
-544.25867 -294.49689 -1.5793465 255 255 255
1103.9512 584.31177 2.8621037 255 255 255
-1327.0784 -1245.0616 -3.9094114 255 255 255
-589.15167 -204.79015 -1.6557143 255 255 255
1133.4164 590.77423 2.9156213 255 255 255
1815.8424 862.3302 4.0785279 255 255 255
-607.37244 -335.23303 -1.6972558 255 255 255
-1503.7366 -653.52679 -4.3870988 255 255 255
1096.71 795.90173 2.6452401 255 255 255
2053.1843 2064.4277 3.6756546 255 255 255
2093.3311 3083.0491 5.4997535 255 255 255
-666.30994 -388.38095 -1.7885714 255 255 255
-255.99066 -443.20648 -1.6792282 255 255 255
-651.28101 -345.58636 -1.7646732 255 255 255
-633.15802 -352.14563 -1.6771194 255 255 255
-592.83429 -444.30313 -1.7265716 255 255 255
-604.52185 -852.64313 -2.5328436 255 255 255
-655.77063 -442.92163 -1.793529 255 255 255
4418.7007 4903.2256 7.4642181 255 255 255
20943.717 8770.7783 27.231928 255 255 255
-524.05157 -370.8201 -1.6320003 255 255 255
-2513.5747 -2806.0176 -7.6956677 255 255 255
1039.9012 1233.6956 2.4615417 255 255 255
-806.93127 -474.08365 -1.9133795 255 255 255
-647.56561 -705.49792 -1.9169389 255 255 255
-851.38318 -865.99347 -2.3202844 255 255 255
6009.126 3956.9597 7.7235866 255 255 255
40888.348 12905.952 47.605732 255 255 255
-1907.2423 -1174.2007 -3.1365247 255 255 255
1734.891 1873.3855 3.3137221 255 255 255
4153.314 2858.429 6.054069 255 255 255
-646.67755 -281.65564 -1.6969957 255 255 255
-675.77576 -936.17267 -2.4982476 255 255 255
13737.688 7370.3037 14.801117 255 255 255
4196.4316 2254.7842 6.7393632 255 255 255
5131.9536 2231.2371 8.436264 255 255 255
563.98126 1354.7871 1.9512789 255 255 255
-1436.1682 -1514.9789 -4.4955359 255 255 255
-1093.1958 -1635.604 -4.0897284 255 255 255
266216.09 207718.22 406.92917 255 255 255
-593.19452 -246.60442 -1.6480694 255 255 255
-524.87903 -352.04764 -1.6764938 255 255 255
1033.2734 1587.1948 2.33236 255 255 255
-759.10211 -225.67754 -1.9695759 255 255 255
-1074.3417 -1660.74 -3.6901066 255 255 255
9908.502 4907.4043 13.658437 255 255 255
-96.666603 -222.53809 -1.3476436 255 255 255
-5373.2197 -3592.29 -15.839942 255 255 255
-11131.894 -10780.285 -17.739491 255 255 255
-914.69153 -1258.7079 -3.0804486 255 255 255
-3310.9272 -3662.2871 -9.8412523 255 255 255
-4061.9141 -2938.9624 -10.739767 255 255 255
-807.99084 -596.84937 -2.3866541 255 255 255
-3109.4792 -1958.7888 -8.5747747 255 255 255
-1847.7124 -1527.2262 -4.8559122 255 255 255
-3453.8284 -3431.2888 -10.817832 255 255 255
-29405.529 -42476.168 -67.8825 255 255 255
-1961.3264 -1100.3431 -3.3906918 255 255 255
10681.677 4866.1729 13.428161 255 255 255
2056.6782 2323.5208 3.6211245 255 255 255
523.60583 1316.2993 1.9004201 255 255 255
-677.54132 -590.43439 -1.8760177 255 255 255
1012.9171 1962.3848 3.1948173 255 255 255
1963.3073 2124.301 3.5496085 255 255 255
2012.5027 2052.5398 3.5779612 255 255 255
-4466.958 -2317.1199 -8.4168491 255 255 255
-7151.5249 -3568.7798 -13.450551 255 255 255
-1744.4786 -1267.3446 -4.4486666 255 255 255
2031.9061 1084.119 4.271996 255 255 255
31981.227 22095.166 44.404289 255 255 255
-436.62808 -318.31168 -1.5385557 255 255 255
-1559.1942 -1405.2736 -5.0325875 255 255 255
-820.16534 -668.09692 -2.0720863 255 255 255
-1577.942 -1069.9917 -4.3796692 255 255 255
1044.4042 1324.8451 2.4775319 255 255 255
-289.42148 -154.49924 -1.3262272 255 255 255
2573.531 3067.76 6.9262853 255 255 255
5383.043 2411.1204 8.5572805 255 255 255
-402.93658 -277.35156 -1.4464383 255 255 255
77735.352 23124.227 218.44025 255 255 255
1987.5065 2137.542 3.5665383 255 255 255
1940.2577 2113.6306 3.5203819 255 255 255
4099.0205 1851.5168 7.1470079 255 255 255
5301.0806 3922.0708 7.484561 255 255 255
-692.32397 -351.14212 -1.7977567 255 255 255
-571.29163 -227.57034 -1.6300762 255 255 255
1961.2728 2123.938 3.5450187 255 255 255
-741.2251 -1186.4084 -2.9891002 255 255 255
-974.93188 -1175.3866 -3.2234342 255 255 255
97729.906 21386.857 126.08616 255 255 255
2800.6755 6660.5796 10.359494 255 255 255
951.75232 596.84229 2.471051 255 255 255
2148.8425 2133.1472 3.7767828 255 255 255
-538.79681 -1013.9876 -2.6057374 255 255 255
1817.2146 863.48828 4.08318 255 255 255
8452.9199 3931.8979 11.309563 255 255 255
16700.701 31854.51 53.954578 255 255 255
-1003.6341 -875.25671 -3.2177267 255 255 255
-861.74365 -1201.9927 -3.2783263 255 255 255
-885.11511 -827.67383 -2.9097767 255 255 255
-726.242 -411.26035 -1.7834858 255 255 255
3114.656 2177.0488 5.0865145 255 255 255
-557.52264 -319.75491 -1.607841 255 255 255
-550.10938 -223.99225 -1.6878067 255 255 255
-533.85217 -309.64377 -1.606583 255 255 255
64.548866 333.61685 0.74165529 255 255 255
3736.8025 8925.1416 14.278408 255 255 255
-1290.3951 -741.91583 -2.3832061 255 255 255
-4267.7153 -1704.1079 -6.8115978 255 255 255
-973.72516 -881.466 -2.8882902 255 255 255
10750.866 10593.549 24.016502 255 255 255
-277.70203 -165.67642 -1.3272026 255 255 255
965.86005 761.6405 2.4018574 255 255 255
-956.49811 -875.13013 -2.2957551 255 255 255
3532.1414 2037.4598 5.8781085 255 255 255
-607.8913 -309.36148 -1.6660368 255 255 255
-706.07074 -315.15851 -1.886827 255 255 255
19497.004 12635.775 26.942051 255 255 255
2523.2471 2210.9045 4.251442 255 255 255
-1378.9469 -1229.8773 -4.0218239 255 255 255
1038.2518 1231.928 2.4562922 255 255 255
144036.09 78339.117 187.62222 255 255 255
2101.2109 2093.4404 3.7239265 255 255 255
-652.16705 -871.27722 -2.361037 255 255 255
7531.5972 4094.7651 8.1226826 255 255 255
-809.05682 -683.24963 -2.4747257 255 255 255
996.20978 688.45209 2.4942427 255 255 255
-307.08423 -300.33157 -1.4737453 255 255 255
-433.39258 -503.6232 -2.2263672 255 255 255
-18276.682 -13407.723 -25.165668 255 255 255
24720.25 8090.2856 30.45574 255 255 255
924.00848 940.32745 1.240278 255 255 255
-862.35388 -431.64703 -1.9732693 255 255 255
5606.6074 2035.3748 9.7180233 255 255 255
2041.5195 2059.1509 3.6597443 255 255 255
-649.84656 -848.77728 -2.347168 255 255 255
1459.1508 1106.9958 3.1478362 255 255 255
-688.88635 -458.39282 -2.7805831 255 255 255
31291.613 22800.77 37.820961 255 255 255
-6546.936 -5031.6816 -19.593525 255 255 255
35632.055 11564.178 41.507015 255 255 255
20969.49 6388.478 27.91012 255 255 255
2258.3574 2249.0332 3.8721476 255 255 255
13141.496 4948.2651 17.41996 255 255 255
-457.09827 -373.09305 -1.6510954 255 255 255
5517.2812 2025.4952 9.5579748 255 255 255
-2387.3115 -2281.1584 -5.4627943 255 255 255
1736.2549 846.41357 3.9119165 255 255 255
-557.79822 -400.91452 -1.7879703 255 255 255
-241.67899 -453.2139 -1.828667 255 255 255
2042.0969 2134.5483 3.6567776 255 255 255
-657.17456 -364.2074 -1.7441798 255 255 255
25268.162 8135.5132 31.19582 255 255 255
-1325.73 -1588.0797 -4.4528913 255 255 255
-84176.57 -18284.396 -97.822655 255 255 255
-586.40997 -421.37357 -1.7206829 255 255 255
-1181.1068 -1864.5525 -3.9866855 255 255 255
-699.3045 -1056.1422 -2.8380344 255 255 255
4826.6509 1928.382 8.3731976 255 255 255
-636.97742 -394.1254 -1.7089556 255 255 255
-710.78241 -450.44815 -2.0167234 255 255 255
7222.9014 4954.0928 10.312002 255 255 255
-723.71484 -494.31174 -2.03281 255 255 255
39461.059 10647.75 51.274929 255 255 255
-564.20203 -410.26996 -1.7148839 255 255 255
-985.75378 -1588.3538 -4.3360457 255 255 255
-1001.421 -1607.1721 -3.5630651 255 255 255
-327.22827 -255.99046 -1.4267828 255 255 255
-487.51746 -430.04041 -1.6214271 255 255 255
-1145.9088 -1254.3917 -3.683198 255 255 255
66425.055 15793.833 88.294289 255 255 255
1556.9034 913.59088 3.4727671 255 255 255
-614.88568 -266.89093 -1.6937019 255 255 255
-625.02881 -340.55222 -1.658211 255 255 255
-933.7063 -843.74731 -2.8134601 255 255 255
-11601.105 -5873.0586 -17.767101 255 255 255
1291.7966 754.98553 3.0844295 255 255 255
1975.4821 1863.0045 2.9841313 255 255 255
-754.41321 -1090.0909 -2.8238251 255 255 255
958.25232 600.02039 2.4772139 255 255 255
-9190.6484 -6104.5083 -13.272296 255 255 255
616.7569 1364.4713 2.0022123 255 255 255
-115616.67 -56323.168 -298.57776 255 255 255
-670.28607 -361.5596 -1.7655736 255 255 255
-633.40619 -453.9501 -1.7843351 255 255 255
1044.0049 803.85217 2.5363266 255 255 255
-2001.7174 -1944.5262 -3.7989101 255 255 255
-698.91602 -302.09375 -1.8177488 255 255 255
-263.13995 -627.64386 -2.2257605 255 255 255
-620.62329 -389.44092 -1.6965339 255 255 255
1484.4913 1007.8597 3.2512095 255 255 255
2770.9971 1764.8866 4.8834558 255 255 255
-1053.3458 -806.66187 -3.1901972 255 255 255
-770.22516 -555.05261 -1.9728652 255 255 255
4232.2246 2273.8423 6.7865238 255 255 255
-623.46136 -250.21411 -1.6372271 255 255 255
1150.75 1927.3384 3.4079077 255 255 255
-556.46747 -484.53146 -1.6709133 255 255 255
-934.72034 -636.68872 -2.3416531 255 255 255
-8567.8975 -3947.5396 -11.542834 255 255 255
975.98401 617.40735 2.5140023 255 255 255
1999.9253 2157.7615 3.582159 255 255 255
-861.48346 -1366.2871 -3.6038244 255 255 255
915.85986 594.74927 2.4046884 255 255 255
3870.262 3861.5632 10.297729 255 255 255
-822.69403 -594.40295 -2.6097991 255 255 255
4287.5356 3978.4014 6.2474694 255 255 255
2006.8079 2047.89 3.566165 255 255 255
-1116.4484 -1241.0526 -3.4558001 255 255 255
40366.148 12767.67 47.003521 255 255 255
-216.70358 -204.39371 -1.2903556 255 255 255
3165.3804 1758.1123 5.5616922 255 255 255
-506.47839 -544.00177 -2.4643397 255 255 255
-695.05829 -562.92938 -1.8619373 255 255 255
-1151.4407 -984.85852 -3.2478139 255 255 255
-363.38867 -237.62701 -1.4420909 255 255 255
1314.2812 755.46887 3.1348467 255 255 255
-937.38605 -194.90184 -2.0550892 255 255 255
1004.2681 1209.7163 2.3981464 255 255 255
955.1261 754.58209 2.3801711 255 255 255
-891.78589 -470.62054 -2.0012438 255 255 255
6335.1899 5451.2495 9.3317518 255 255 255
-634.04474 -324.14667 -1.7342925 255 255 255
-900.89453 -849.73505 -2.8584354 255 255 255
-1597.7025 -1121.027 -4.7190466 255 255 255
5514.2144 3419.5637 7.4940925 255 255 255
-548.99927 -450.7988 -1.6796225 255 255 255
