ply
format ascii 1.0
comment PCL generated
element vertex 1084
property float x
property float y
property float z
property uchar red
property uchar green
property uchar blue
element face 0
element camera 0
property float view_px
property float view_py
property float view_pz
property float x_axisx
property float x_axisy
property float x_axisz
property float y_axisx
property float y_axisy
property float y_axisz
property float z_axisx
property float z_axisy
property float z_axisz
property float focal
property float scalex
property float scaley
property float centerx
property float centery
property int viewportx
property int viewporty
property float k1
property float k2
end_header
308.22046 131.04205 -0.31579545 255 255 255
325.83636 294.73117 -0.33264902 255 255 255
625.6958 138.31775 -0.20376383 255 255 255
69.157562 8.1267433 0.051002182 255 255 255
309.52441 252.63235 -0.37518334 255 255 255
529.13397 286.90338 0.0093164677 255 255 255
266.4176 241.78946 -0.30770615 255 255 255
434.74969 157.1747 -0.33443299 255 255 255
303.17575 156.05533 -0.23138574 255 255 255
441.05832 244.53581 -0.16691345 255 255 255
282.54764 80.995064 0.014386624 255 255 255
357.73059 82.590462 -0.054158602 255 255 255
502.5563 136.63531 -0.1323328 255 255 255
254.37544 151.50725 -0.33477363 255 255 255
562.69788 88.398758 -0.50335294 255 255 255
1093.7278 127.40836 0.75143725 255 255 255
394.3591 126.38428 -0.18999875 255 255 255
175.01257 159.85736 -0.36790147 255 255 255
2428.8103 1274.4592 2.7627909 255 255 255
372.17163 95.790848 -0.17879479 255 255 255
313.73853 206.76506 -0.33219019 255 255 255
240.71703 208.82474 -0.39204642 255 255 255
1017.9732 -10.936226 0.03431223 255 255 255
326.44797 32.111378 0.074739546 255 255 255
306.81995 122.47053 -0.052802458 255 255 255
351.88123 201.98232 -0.43440682 255 255 255
335.85931 172.40829 -0.39532262 255 255 255
503.6702 231.70961 0.2430568 255 255 255
598.09552 256.32938 -0.31065333 255 255 255
264.8338 201.56081 -0.42753282 255 255 255
309.66507 194.0481 -0.38123581 255 255 255
737.52533 158.82602 0.05365333 255 255 255
794.58679 33.182446 0.60652429 255 255 255
469.69345 59.145439 0.29657826 255 255 255
344.19754 276.01898 -0.32596672 255 255 255
479.88223 74.608665 0.15524788 255 255 255
667.82996 112.02543 0.14444773 255 255 255
-3785.4724 340.70288 -4.7232676 255 255 255
567.8606 142.62895 -0.12037288 255 255 255
226.37241 137.03036 -0.25741521 255 255 255
504.91782 214.89331 -0.12911387 255 255 255
246.27328 153.54732 -0.30036953 255 255 255
479.44849 104.02945 -0.069523692 255 255 255
213.72105 192.3927 -0.47289959 255 255 255
212.26495 105.29584 -0.098405473 255 255 255
651.11566 -61.152016 0.92056918 255 255 255
403.69479 274.86499 -0.31200352 255 255 255
566.72394 398.63397 0.12676819 255 255 255
413.06622 262.76578 -0.22875203 255 255 255
513.36401 119.51448 -0.032655053 255 255 255
637.80994 176.80125 0.14266561 255 255 255
537.67065 152.22279 -0.49084052 255 255 255
429.50946 62.979935 0.019673081 255 255 255
363.94522 141.58746 -0.25097483 255 255 255
229.70323 106.02789 -0.046409141 255 255 255
380.63553 77.381203 -0.046527773 255 255 255
412.15869 170.78046 -0.058970831 255 255 255
554.03577 224.18561 -0.14436944 255 255 255
464.48795 179.886 -0.1056041 255 255 255
267.21848 153.51085 -0.10614742 255 255 255
699.26074 166.68816 -0.050031792 255 255 255
272.25543 124.8844 -0.33408004 255 255 255
270.68454 144.32599 -0.34449321 255 255 255
262.9053 231.65733 -0.37041581 255 255 255
436.04498 287.95892 -0.28291494 255 255 255
137.48228 196.28754 -0.42949894 255 255 255
278.56042 228.27832 -0.27261367 255 255 255
2328.3352 197.74156 0.87319499 255 255 255
122.96935 31.603771 0.037972186 255 255 255
454.98761 249.05577 -0.021379834 255 255 255
465.81741 170.78479 -0.24989851 255 255 255
142.44876 201.17368 -0.45720789 255 255 255
446.67929 222.39474 -0.24116543 255 255 255
179.50157 188.75728 -0.45462096 255 255 255
386.41437 174.82736 -0.29785508 255 255 255
314.19131 262.75009 -0.37775162 255 255 255
294.77521 202.46436 -0.3164936 255 255 255
356.12601 168.14049 -0.4634634 255 255 255
412.40637 104.909 -0.33747455 255 255 255
385.68958 175.03563 -0.32942715 255 255 255
359.98602 147.54091 -0.18224061 255 255 255
418.13864 101.73391 -0.3247349 255 255 255
290.02612 193.18956 -0.41335326 255 255 255
630.11261 63.715752 -0.18635435 255 255 255
315.31427 177.65662 -0.46714512 255 255 255
968.04852 548.00012 1.0761943 255 255 255
306.74658 191.4469 -0.44432381 255 255 255
322.14902 135.67697 -0.29604423 255 255 255
391.59402 202.74812 -0.33550054 255 255 255
343.32669 131.80539 -0.38923863 255 255 255
452.69745 174.8253 -0.2332419 255 255 255
519.44128 155.44919 -0.18856674 255 255 255
984.91351 72.153175 0.95684493 255 255 255
450.7944 130.4567 -0.022672156 255 255 255
-141.94604 159.63725 -0.66177756 255 255 255
94.633842 69.097626 -0.14588159 255 255 255
500.91006 187.72026 -0.12262525 255 255 255
659.69666 -74.73571 0.72331303 255 255 255
235.55048 141.34377 -0.28616741 255 255 255
1027.9331 6.0510149 0.63910681 255 255 255
504.99957 138.19221 -0.098410621 255 255 255
410.24521 340.40854 -0.078780025 255 255 255
203.04944 131.46967 -0.21500586 255 255 255
445.60092 297.60165 -0.38167787 255 255 255
1921.835 301.30264 0.93210942 255 255 255
232.09952 177.15535 -0.47662437 255 255 255
342.67664 55.766388 -0.024899758 255 255 255
139.57944 165.1638 -0.31218812 255 255 255
292.01346 132.82103 -0.30353627 255 255 255
359.71768 65.130997 -0.005589853 255 255 255
397.02121 87.847954 -0.15066624 255 255 255
2174.8547 1275.8528 4.1822543 255 255 255
434.31305 196.78699 -0.33336705 255 255 255
837.58374 109.13035 0.13634481 255 255 255
562.14661 198.78012 -0.036841463 255 255 255
288.7121 113.31811 -0.2773411 255 255 255
718.99384 186.77 -0.088458478 255 255 255
-478.28632 -228.54022 -1.68259 255 255 255
552.94983 375.01199 0.011173586 255 255 255
485.22131 343.37866 0.16070756 255 255 255
229.93977 181.47212 -0.34340554 255 255 255
170.23793 118.57944 0.035099689 255 255 255
510.63919 128.67175 0.047438785 255 255 255
282.20837 92.636208 -0.053279392 255 255 255
301.95917 254.88728 -0.43850839 255 255 255
428.88507 208.52911 -0.3492046 255 255 255
219.34961 174.20993 -0.39643672 255 255 255
444.40903 193.66731 -0.36863264 255 255 255
785.57941 116.0576 0.1062004 255 255 255
602.01196 127.06715 0.044280723 255 255 255
-2286.3481 -507.57605 -4.739728 255 255 255
167.42101 217.99432 -0.47574002 255 255 255
618.18274 195.70413 -0.22070709 255 255 255
489.51007 216.83174 -0.33628494 255 255 255
270.3945 194.41521 -0.23882087 255 255 255
399.49887 373.20782 -0.058054049 255 255 255
124.77081 171.16467 -0.31966087 255 255 255
344.52872 197.34029 -0.34952292 255 255 255
289.49838 145.35054 -0.37973094 255 255 255
424.263 209.15184 -0.29496327 255 255 255
469.18134 127.05511 -0.19570845 255 255 255
368.19464 275.01608 -0.2533507 255 255 255
271.3634 232.01483 -0.27066064 255 255 255
733.95923 139.76605 0.34539273 255 255 255
1738.4531 1491.5308 3.0936079 255 255 255
169.19966 181.68713 -0.40935168 255 255 255
226.43652 162.33116 0.015121762 255 255 255
357.16779 69.818077 0.04669413 255 255 255
298.74493 229.10631 -0.3248626 255 255 255
218.14787 93.394806 -0.17830761 255 255 255
354.06012 137.38692 -0.28819421 255 255 255
401.06058 123.15896 -0.16722257 255 255 255
342.815 173.00378 -0.17481424 255 255 255
425.38113 77.732864 -0.0725336 255 255 255
181.51309 165.87901 -0.40436471 255 255 255
295.83176 120.71884 -0.23177771 255 255 255
833.14832 25.559412 0.74069011 255 255 255
482.40616 26.483269 0.18201394 255 255 255
101.09779 47.684025 -0.1105293 255 255 255
610.13593 225.71609 -0.11105846 255 255 255
298.34787 137.46074 -0.34312612 255 255 255
287.29822 173.75775 -0.40083426 255 255 255
255.21239 134.98479 -0.2585527 255 255 255
476.26971 192.12631 -0.45724142 255 255 255
660.14368 131.7148 0.0022099449 255 255 255
473.12268 128.2393 0.098284043 255 255 255
259.97168 178.57329 -0.48821718 255 255 255
743.75732 204.13333 0.16728938 255 255 255
225.74773 177.70917 -0.46981555 255 255 255
348.91443 141.04453 -0.23493987 255 255 255
1102.2065 119.60648 0.44446748 255 255 255
699.27399 158.15321 0.097110085 255 255 255
336.2829 195.7076 -0.1424818 255 255 255
295.00787 323.15179 -0.43966094 255 255 255
452.34238 253.48637 -0.10321473 255 255 255
459.9072 127.98863 -0.085075393 255 255 255
222.89955 25.785055 0.16474308 255 255 255
306.9061 202.1644 -0.45648432 255 255 255
480.01031 118.05222 0.062206451 255 255 255
261.76505 212.95451 -0.48026618 255 255 255
623.6969 196.04848 -0.18550637 255 255 255
328.39493 232.2708 -0.27193785 255 255 255
524.9361 156.98586 -0.036300052 255 255 255
303.07742 120.50057 -0.23922485 255 255 255
382.8833 170.56984 -0.2504966 255 255 255
311.2937 292.56354 -0.25376293 255 255 255
355.547 212.68422 -0.3203865 255 255 255
551.89288 61.901642 -0.41134295 255 255 255
230.59953 128.61534 -0.095403403 255 255 255
328.99695 198.7785 -0.3708047 255 255 255
287.40268 140.61304 -0.37292293 255 255 255
354.82132 201.69025 -0.3159894 255 255 255
392.38913 121.88114 0.22389871 255 255 255
339.62296 145.93954 -0.4282634 255 255 255
345.15659 224.71086 -0.2325726 255 255 255
267.1879 178.36331 -0.39523166 255 255 255
372.72903 120.90939 -0.24073899 255 255 255
450.09827 84.208038 -0.06559138 255 255 255
418.17584 -23.970713 0.43681461 255 255 255
387.67502 208.8606 -0.21037799 255 255 255
378.87109 218.86493 -0.25597259 255 255 255
932.24182 42.435265 0.74560952 255 255 255
404.58514 109.04226 -0.35350621 255 255 255
4850.6738 -127.08417 3.9053247 255 255 255
375.06244 228.65198 -0.35591212 255 255 255
272.88947 285.56192 -0.36469033 255 255 255
391.24844 133.9032 -0.17451261 255 255 255
196.42674 185.10655 -0.29407257 255 255 255
630.92542 167.47525 -0.054530453 255 255 255
376.22308 169.52194 -0.30095881 255 255 255
309.78741 217.83315 -0.50305772 255 255 255
257.20871 145.25262 -0.37089399 255 255 255
277.97522 218.86505 -0.55501938 255 255 255
491.37759 174.08104 -0.18008724 255 255 255
150.80429 154.3996 -0.34162766 255 255 255
339.14365 104.21918 -0.26244467 255 255 255
143.23997 183.7305 -0.38545135 255 255 255
1002.2791 46.490108 0.47765547 255 255 255
289.11829 90.399216 -0.11849237 255 255 255
624.20081 110.45165 0.094095558 255 255 255
658.03442 639.04205 0.62177914 255 255 255
519.06116 161.85419 -0.39884797 255 255 255
253.18497 207.15002 -0.37809485 255 255 255
127.59219 198.87712 -0.4265106 255 255 255
523.1853 75.159554 0.12755723 255 255 255
580.93213 80.628502 0.024527073 255 255 255
244.46167 234.27235 -0.18277323 255 255 255
423.00916 204.81099 -0.20098384 255 255 255
245.77516 249.66771 -0.533898 255 255 255
421.30289 201.93024 -0.5360654 255 255 255
-208.42607 13.756589 -1.4431516 255 255 255
-36.956406 61.892014 -0.27331996 255 255 255
464.79633 226.56131 0.32500306 255 255 255
393.10822 142.31973 -0.24684213 255 255 255
608.39764 65.372963 0.18439689 255 255 255
820.2066 125.61197 0.27964726 255 255 255
444.54581 39.715679 0.16029888 255 255 255
131.06267 193.19266 -0.40843976 255 255 255
393.90845 83.492439 0.11022107 255 255 255
305.92206 230.13954 -0.34396118 255 255 255
496.32941 158.97362 -0.011976448 255 255 255
310.11655 157.17369 -0.35104635 255 255 255
147.91078 200.87073 -0.4640196 255 255 255
721.53369 144.38287 0.18108584 255 255 255
265.40961 216.54121 -0.2402066 255 255 255
423.96463 210.45889 -0.09969683 255 255 255
-375.21469 -228.07173 -2.5048003 255 255 255
284.49963 89.213379 -0.034613829 255 255 255
380.40082 149.97649 -0.24675938 255 255 255
534.3205 10.527357 0.25267032 255 255 255
424.34583 158.2724 -0.25636032 255 255 255
461.68887 264.59097 -0.14168516 255 255 255
219.15991 205.23901 -0.44664833 255 255 255
1198.6022 98.056709 0.026554151 255 255 255
221.17833 188.95978 -0.4498508 255 255 255
263.39331 232.51675 -0.37859544 255 255 255
1294.3621 121.97752 0.34521186 255 255 255
881.50793 184.49347 -0.087839901 255 255 255
656.03699 209.31268 0.0011157917 255 255 255
384.36481 203.82256 -0.16800618 255 255 255
337.84387 106.83015 -0.31838968 255 255 255
794.77612 390.10553 0.77833092 255 255 255
568.67004 109.28201 0.14213336 255 255 255
427.92319 79.721634 -0.15060332 255 255 255
289.42749 145.42688 -0.38030574 255 255 255
330.41595 192.47072 -0.26969266 255 255 255
232.21028 176.9314 -0.47541377 255 255 255
223.56627 170.49374 -0.43658701 255 255 255
399.84863 111.63604 -0.36384046 255 255 255
240.95195 130.72432 -0.23585808 255 255 255
135.1143 197.4525 -0.43098742 255 255 255
317.24622 196.70412 -0.34128228 255 255 255
422.02365 213.21095 -0.31783524 255 255 255
404.66522 179.51085 -0.43579707 255 255 255
124.42796 167.65523 -0.307354 255 255 255
380.65601 192.5078 -0.20977655 255 255 255
332.0011 130.26852 -0.18617195 255 255 255
319.57889 20.231709 0.13850793 255 255 255
347.15015 74.964798 0.17015138 255 255 255
274.98541 91.380234 -0.042605184 255 255 255
317.88013 44.828762 0.04382129 255 255 255
178.0303 189.65071 -0.45658439 255 255 255
275.98718 169.75441 -0.24075586 255 255 255
315.35901 283.34821 -0.20496516 255 255 255
201.13783 180.33926 -0.2926136 255 255 255
552.90118 65.575684 0.10953218 255 255 255
251.16756 183.25327 -0.42859426 255 255 255
276.68005 139.24115 -0.35615915 255 255 255
317.33331 148.96317 -0.34219244 255 255 255
351.99979 200.78726 -0.36205035 255 255 255
248.77336 130.12051 -0.37078395 255 255 255
408.57187 106.92894 -0.34531942 255 255 255
356.12274 86.165619 -0.076622121 255 255 255
231.27574 143.20728 -0.18826145 255 255 255
307.33191 204.76788 -0.37001646 255 255 255
326.4303 226.92876 -0.38006148 255 255 255
350.01331 157.37149 -0.17035905 255 255 255
508.74759 262.91199 -0.47549212 255 255 255
408.50647 209.49477 -0.29845828 255 255 255
187.3333 117.38522 -0.17255041 255 255 255
275.06528 208.15372 -0.38945946 255 255 255
232.42218 155.64471 -0.35488304 255 255 255
479.87305 47.768242 0.023686437 255 255 255
319.80951 211.53796 -0.38633218 255 255 255
389.32184 159.31644 -0.28946328 255 255 255
400.95471 136.24744 -0.28475592 255 255 255
130.56235 193.43098 -0.40889508 255 255 255
320.95001 277.15747 -0.38517752 255 255 255
942.07861 120.01334 0.78610623 255 255 255
364.00824 68.291252 -0.1360407 255 255 255
355.70258 225.78317 -0.38985589 255 255 255
366.22931 257.7056 -0.25344884 255 255 255
169.35759 181.88109 -0.41040656 255 255 255
305.87073 227.20032 -0.35079569 255 255 255
315.31018 196.45676 -0.31006598 255 255 255
270.905 167.53366 -0.34170246 255 255 255
248.9312 220.4026 -0.53133821 255 255 255
312.87 77.047462 0.025490124 255 255 255
441.00845 179.63414 -0.10096959 255 255 255
164.03648 191.2659 -0.44423133 255 255 255
459.20859 181.13069 -0.090943612 255 255 255
731.53259 93.329575 0.24521306 255 255 255
186.17961 189.27072 -0.5135237 255 255 255
364.9567 178.8248 -0.19653776 255 255 255
429.53552 215.75456 -0.08857993 255 255 255
345.74609 180.93958 -0.38036251 255 255 255
305.05066 103.88506 -0.26958677 255 255 255
364.4552 185.32443 -0.38993835 255 255 255
480.57315 30.886797 0.17413142 255 255 255
390.11066 184.10132 -0.3955254 255 255 255
470.8649 132.06384 -0.18837129 255 255 255
364.79037 183.09081 -0.22538434 255 255 255
224.25662 189.78314 -0.36443374 255 255 255
784.50073 108.91777 0.28835285 255 255 255
537.90472 360.74121 0.10841607 255 255 255
386.38293 108.96157 -0.23481961 255 255 255
301.21075 80.799316 -0.13098282 255 255 255
187.17091 197.08699 -0.37905505 255 255 255
336.76889 102.3901 -0.20375711 255 255 255
599.13214 140.76653 -0.041877989 255 255 255
375.39279 224.51207 -0.29911086 255 255 255
213.69302 229.77554 -0.38712412 255 255 255
407.33099 162.34528 -0.40441838 255 255 255
388.99118 196.14822 -0.16334471 255 255 255
273.31714 299.22083 -0.37371337 255 255 255
455.5986 155.48752 -0.21193379 255 255 255
210.43381 125.5173 -0.19150105 255 255 255
1699.4093 227.77454 1.1197324 255 255 255
194.41534 146.48302 -0.49140054 255 255 255
274.64526 254.67397 -0.32382178 255 255 255
463.35971 262.15964 -0.21887952 255 255 255
847.99927 164.14136 0.54276085 255 255 255
441.29279 170.85915 -0.33309314 255 255 255
537.13196 80.936844 0.21418995 255 255 255
733.06366 209.99263 -0.063666999 255 255 255
270.20624 213.25548 -0.34975237 255 255 255
377.64056 151.10359 -0.35563144 255 255 255
366.45862 223.80597 -0.51242942 255 255 255
316.33005 203.62479 -0.53086615 255 255 255
422.04755 108.18012 -0.11095861 255 255 255
474.55103 88.550194 -0.38903517 255 255 255
233.65794 347.12177 -0.28195268 255 255 255
362.47205 89.32151 -0.10736864 255 255 255
411.07669 190.44843 -0.12347644 255 255 255
390.33099 148.62833 -0.076372921 255 255 255
-410.44611 164.56897 -0.95660555 255 255 255
432.37933 113.43209 -0.013734891 255 255 255
724.89008 168.06769 0.29112306 255 255 255
338.33643 256.10037 -0.18046001 255 255 255
-258.56842 158.66064 -0.91301566 255 255 255
518.64728 202.73059 -0.26908013 255 255 255
530.92059 206.71764 -0.29373309 255 255 255
467.02368 184.42416 -0.33385 255 255 255
837.29919 379.10037 -0.15339582 255 255 255
475.9631 87.920944 -0.38776636 255 255 255
840.71124 204.9091 0.055537678 255 255 255
311.90326 212.7117 -0.28153443 255 255 255
501.96561 121.46732 -0.125801 255 255 255
154.51057 115.06621 -0.188875 255 255 255
334.69366 165.18225 -0.37730378 255 255 255
95.952721 186.24118 -0.34137735 255 255 255
368.02481 163.90376 -0.20800841 255 255 255
1168.2067 1360.8096 2.0812521 255 255 255
549.63385 114.08645 0.015602645 255 255 255
378.24982 80.155167 -0.063986532 255 255 255
490.91177 35.861164 0.27218875 255 255 255
312.63486 319.40628 -0.20615061 255 255 255
469.48276 395.42505 -0.036919773 255 255 255
1170.699 166.07077 0.33862844 255 255 255
750.70276 130.56223 0.040805779 255 255 255
763.62732 159.69675 0.062598839 255 255 255
285.50467 220.34973 0.018254645 255 255 255
277.07156 195.00792 -0.40548635 255 255 255
330.66852 100.46185 -0.19940954 255 255 255
214.67996 198.05516 -0.45439738 255 255 255
681.47412 194.0137 -0.16903242 255 255 255
350.74661 106.26759 -0.071254529 255 255 255
494.59134 213.76497 -0.1229319 255 255 255
406.39395 147.89699 -0.37835139 255 255 255
428.06445 339.52859 -0.36809376 255 255 255
381.72906 208.98199 -0.28082201 255 255 255
333.99506 76.020859 -0.019791592 255 255 255
537.25562 162.03174 -0.15396383 255 255 255
-104.314 168.48679 -0.77504689 255 255 255
1403.9542 127.39789 0.45812967 255 255 255
375.18506 161.02171 -0.28720599 255 255 255
634.12982 187.11626 -0.20692252 255 255 255
284.44238 148.56026 -0.38222861 255 255 255
195.21338 139.30734 -0.36800581 255 255 255
536.61755 146.35809 -0.019485716 255 255 255
94.459885 117.6138 -0.27836305 255 255 255
318.58664 215.70276 -0.39631417 255 255 255
453.19315 226.68217 -0.23311833 255 255 255
459.39038 242.9229 -0.25813904 255 255 255
288.6011 223.36592 -0.3244184 255 255 255
392.99414 273.02658 -0.023160402 255 255 255
442.39444 86.166557 0.20729996 255 255 255
260.79526 83.798424 -0.14824486 255 255 255
1287.3613 184.25027 0.37083197 255 255 255
540.07031 212.74957 0.06423945 255 255 255
341.29492 93.692551 -0.11008798 255 255 255
504.14307 86.599838 -0.13968945 255 255 255
609.5321 101.23129 -0.0067011579 255 255 255
471.40088 166.33632 -0.24841845 255 255 255
261.14764 252.60886 -0.39826578 255 255 255
284.06589 196.45078 -0.44145986 255 255 255
375.52414 123.44786 -0.40212533 255 255 255
356.00995 139.41722 -0.29204506 255 255 255
464.1008 208.99538 -0.29395777 255 255 255
277.22913 100.56794 -0.37966835 255 255 255
300.62784 48.519707 0.06972526 255 255 255
328.2182 120.5231 0.2583341 255 255 255
276.07175 181.27214 -0.33556935 255 255 255
465.75565 64.438324 -0.10399793 255 255 255
337.47662 89.505699 -0.078862883 255 255 255
509.31302 112.05878 -0.045928493 255 255 255
308.2099 218.17667 -0.44266918 255 255 255
534.59387 107.22044 -0.016483286 255 255 255
914.34973 0.34016901 0.77792031 255 255 255
180.17706 166.28958 -0.2913883 255 255 255
651.98883 163.95444 -0.23264043 255 255 255
304.48587 121.34592 -0.2470109 255 255 255
227.11189 189.83995 -0.39829975 255 255 255
348.08704 186.59802 -0.2446354 255 255 255
3776.6394 3086.8347 7.50107 255 255 255
944.02905 70.064774 0.67993128 255 255 255
350.47281 96.319397 -0.1896254 255 255 255
462.23068 147.04405 -0.17334032 255 255 255
1104.4396 -194.26422 0.44131464 255 255 255
454.80215 185.20197 -0.038992845 255 255 255
365.07111 173.44629 -0.31506333 255 255 255
405.51804 216.76881 -0.32160327 255 255 255
664.53168 306.73621 -0.22872089 255 255 255
606.5 146.07138 0.062612191 255 255 255
355.785 137.60744 -0.23529005 255 255 255
317.70694 202.59909 -0.47181019 255 255 255
729.3064 201.57668 -0.072195396 255 255 255
518.2572 353.2724 0.16783918 255 255 255
389.81488 120.97481 -0.15697367 255 255 255
243.61917 148.80171 -0.17940167 255 255 255
240.01265 84.987015 -0.21957645 255 255 255
706.79645 66.348907 0.15928327 255 255 255
361.32849 198.27817 -0.24441853 255 255 255
-50.481403 165.42439 -0.73637646 255 255 255
1153.6272 264.08029 0.33499944 255 255 255
-62.517296 169.3681 -0.73802191 255 255 255
205.72624 51.346561 -0.13250506 255 255 255
520.10388 403.63333 0.52385634 255 255 255
232.22618 176.88478 -0.47522268 255 255 255
248.9989 193.98497 -0.27931625 255 255 255
17926.85 -1438.9863 12.303793 255 255 255
340.20551 197.65053 -0.40110031 255 255 255
316.32892 292.40793 -0.37701285 255 255 255
422.85657 239.11005 0.15127285 255 255 255
396.90765 216.10664 -0.15038691 255 255 255
130.97025 193.18489 -0.40846145 255 255 255
-82.806702 154.39078 -0.69562936 255 255 255
305.98438 288.68872 -0.1754297 255 255 255
222.90883 190.37761 -0.40893388 255 255 255
453.32965 146.32504 -0.17483209 255 255 255
530.1499 67.499847 0.11852221 255 255 255
298.34531 128.10121 -0.28105807 255 255 255
558.25592 206.57057 -0.16851796 255 255 255
451.19498 129.45706 -0.16328602 255 255 255
274.10657 177.811 -0.52143204 255 255 255
308.13245 259.82031 -0.37628382 255 255 255
292.03726 132.8118 -0.3036885 255 255 255
153.89098 184.90565 -0.26457545 255 255 255
271.72168 93.361 -0.052392498 255 255 255
831.00159 92.375389 0.40107855 255 255 255
311.99817 167.37683 -0.25632468 255 255 255
297.87604 212.78143 -0.36797231 255 255 255
606.72119 57.335625 0.25780478 255 255 255
235.72934 131.6312 -0.30747259 255 255 255
309.08279 130.99791 -0.31738198 255 255 255
207.91855 210.78391 -0.11346954 255 255 255
545.85095 112.52131 -0.1110791 255 255 255
371.923 84.87455 -0.24141635 255 255 255
273.2746 194.5822 -0.34971476 255 255 255
98.058632 6.9282479 0.018743642 255 255 255
436.9841 167.18942 0.026103245 255 255 255
731.74677 228.43671 -0.28337991 255 255 255
1003.8054 973.57825 1.779934 255 255 255
300.29562 154.42719 -0.26491806 255 255 255
146.85344 181.77232 -0.38238922 255 255 255
-33.666706 60.116661 -0.29019189 255 255 255
-10288.175 846.66351 -10.789974 255 255 255
267.46545 233.12048 -0.28480265 255 255 255
243.13797 175.28429 -0.42050791 255 255 255
144.38213 170.68523 -0.31575894 255 255 255
429.96082 56.77729 0.039155666 255 255 255
226.84465 181.99092 -0.45217335 255 255 255
276.09552 128.85527 -0.17838785 255 255 255
919.42975 49.154156 0.95054644 255 255 255
280.82101 125.43419 -0.33026907 255 255 255
466.89206 183.75175 -0.3810797 255 255 255
159.45285 182.40564 -0.39998537 255 255 255
1579.0146 182.36768 2.1390834 255 255 255
363.16962 199.77135 -0.26717365 255 255 255
215.08928 196.93822 -0.4547058 255 255 255
216.38341 131.57253 -0.16785526 255 255 255
636.20001 176.00473 -0.15854496 255 255 255
909.53967 201.2253 0.14723183 255 255 255
419.09952 195.75331 -0.047339872 255 255 255
373.97488 191.23845 0.035179552 255 255 255
-90.525002 169.72911 -0.73765486 255 255 255
390.0799 140.51877 -0.33839145 255 255 255
648.48438 177.43132 -0.26331139 255 255 255
284.6236 155.56535 -0.39135516 255 255 255
426.25726 153.33502 -0.24967347 255 255 255
762.97479 176.89384 0.17803459 255 255 255
551.74518 175.70958 0.091821909 255 255 255
309.56235 82.060226 -0.044902436 255 255 255
397.35547 108.17307 0.016313506 255 255 255
70.423676 14.674232 -0.015189402 255 255 255
443.8443 386.18866 0.038773768 255 255 255
289.15039 180.62466 -0.24318308 255 255 255
430.5932 381.12781 0.71655828 255 255 255
567.62671 116.55515 0.12963186 255 255 255
448.84985 129.36423 -0.12169003 255 255 255
-41.809696 156.9549 -0.70827788 255 255 255
1095.8147 -190.42039 0.4298954 255 255 255
560.69861 185.15211 -0.19636101 255 255 255
483.57877 116.84624 0.077886239 255 255 255
228.92757 190.29382 -0.48580241 255 255 255
1549.8436 155.49455 0.36901462 255 255 255
484.89362 184.07799 -0.13872948 255 255 255
288.72745 78.941559 0.025235254 255 255 255
486.39856 30.008148 0.17113888 255 255 255
421.04224 62.130669 0.091546625 255 255 255
146.07254 156.79906 -0.28673312 255 255 255
137.48228 196.28754 -0.42949897 255 255 255
206.8297 126.70364 -0.19473016 255 255 255
591.62024 133.1507 -0.27535298 255 255 255
380.79813 207.72093 -0.20825729 255 255 255
350.83215 88.37661 -0.082231276 255 255 255
162.88246 186.60768 -0.42239329 255 255 255
-72.616791 169.68968 -0.72735214 255 255 255
470.83749 190.82387 -0.20819597 255 255 255
239.80414 147.45975 -0.32171586 255 255 255
274.21524 87.865555 -0.022509241 255 255 255
353.88351 196.53 -0.23267816 255 255 255
540.18872 23.849735 0.13847771 255 255 255
388.66544 93.13118 -0.17799059 255 255 255
179.82611 189.72012 -0.45928773 255 255 255
314.25006 160.61391 -0.41006702 255 255 255
333.90918 229.34999 -0.20459385 255 255 255
387.48364 256.80603 -0.3259564 255 255 255
463.15079 202.28212 -0.14648189 255 255 255
359.92322 251.38338 -0.50671136 255 255 255
478.75528 47.976101 0.023796789 255 255 255
148.26584 106.82056 -0.28420687 255 255 255
248.96887 131.39433 -0.25378448 255 255 255
284.32098 88.865067 -0.032173224 255 255 255
255.78088 228.48274 -0.3722167 255 255 255
1104.6621 171.4729 0.55877995 255 255 255
336.64346 194.70143 -0.44932872 255 255 255
128.41736 171.59015 -0.32519886 255 255 255
475.74753 140.26091 -0.16399893 255 255 255
520.72247 28.836035 0.10839498 255 255 255
355.78058 167.18243 -0.26583976 255 255 255
136.68304 171.61145 -0.33249161 255 255 255
464.71866 64.818222 -0.10473037 255 255 255
308.09619 131.03424 -0.31571972 255 255 255
1444.9968 22.813883 1.9139628 255 255 255
237.37611 151.63762 -0.26996839 255 255 255
437.81583 176.01155 -0.26308075 255 255 255
299.27731 211.85399 -0.35862166 255 255 255
543.91058 137.44666 -0.051189933 255 255 255
792.76074 -47.591217 -0.14086686 255 255 255
1162.4248 71.017014 0.22984773 255 255 255
142.53897 168.49942 -0.32659608 255 255 255
337.67773 211.9133 -0.29682636 255 255 255
536.82208 91.410332 -0.010197434 255 255 255
181.45012 199.0309 -0.44026899 255 255 255
262.88528 210.8492 -0.44322059 255 255 255
291.27448 147.14415 -0.37077332 255 255 255
329.11084 141.49895 -0.036369976 255 255 255
253.97069 111.88406 -0.14808695 255 255 255
288.37988 247.3826 -0.45780852 255 255 255
283.8663 186.14468 -0.46163857 255 255 255
904.18213 110.89193 0.42389914 255 255 255
180.23175 189.62425 -0.45961922 255 255 255
683.35272 156.2 -0.016174072 255 255 255
373.43329 369.40479 -0.11583094 255 255 255
269.54639 92.169731 -0.04484171 255 255 255
235.85149 111.17834 -0.13326046 255 255 255
322.02158 194.88683 -0.36673954 255 255 255
339.77618 254.79834 -0.21399528 255 255 255
628.98303 47.892616 -0.39512637 255 255 255
257.56723 91.374962 -0.036868583 255 255 255
635.98138 -1.3220478 0.59907377 255 255 255
398.93652 162.18726 -0.067652807 255 255 255
399.86261 111.60934 -0.36372682 255 255 255
272.20166 133.55344 -0.28148478 255 255 255
303.8967 277.03043 -0.29379547 255 255 255
294.62967 253.95592 -0.30358055 255 255 255
236.9034 126.75174 -0.44295594 255 255 255
768.7132 93.092514 0.13387504 255 255 255
382.06293 118.53273 -0.22367918 255 255 255
295.38773 138.77795 -0.34671354 255 255 255
179.40746 -27.48295 0.24510156 255 255 255
165.0396 116.93285 -0.17301504 255 255 255
69.825569 153.92409 -0.22257043 255 255 255
441.99838 135.94386 0.03175151 255 255 255
256.08957 134.4431 -0.16899285 255 255 255
446.48975 363.62335 -0.4657889 255 255 255
396.77939 87.845711 -0.15101212 255 255 255
111.9435 55.317986 -0.013370996 255 255 255
267.07565 93.897591 -0.053585816 255 255 255
224.93646 189.96638 -0.42088139 255 255 255
283.16565 92.280647 -0.051694065 255 255 255
416.12018 96.647003 0.072434612 255 255 255
408.49423 106.95229 -0.34530914 255 255 255
311.58926 100.3849 -0.20080715 255 255 255
307.01782 179.74928 -0.34435439 255 255 255
-3376.374 106.35976 -4.263885 255 255 255
395.96277 393.6355 -0.078585833 255 255 255
318.44327 183.16629 -0.32268509 255 255 255
68.455879 85.704903 -0.11606724 255 255 255
336.77347 130.79573 -0.22726792 255 255 255
169.14174 181.66507 -0.4093332 255 255 255
285.03116 84.871101 -0.0094770119 255 255 255
1576.396 891.89075 1.6209018 255 255 255
418.00931 124.63197 -0.18253121 255 255 255
896.61084 184.76076 0.17428154 255 255 255
531.80316 75.453201 -0.2392675 255 255 255
427.01865 182.80533 -0.46342334 255 255 255
288.47922 342.91891 -0.2548742 255 255 255
199.68214 130.81639 -0.21067834 255 255 255
930.71008 -40.131069 1.2084152 255 255 255
-76.499535 138.26404 -0.64573884 255 255 255
-40.865593 140.12758 -0.63629031 255 255 255
450.03461 56.296551 -0.088029772 255 255 255
312.29779 161.35526 -0.17167786 255 255 255
443.26657 168.01651 -0.24091935 255 255 255
387.04013 86.628609 -0.17337529 255 255 255
798.41418 35.826168 0.77279115 255 255 255
317.00269 367.28793 0.50532359 255 255 255
350.28845 86.323608 -0.072411209 255 255 255
256.77313 178.18295 -0.46965104 255 255 255
311.31509 191.45433 -0.38737276 255 255 255
441.5441 153.27921 -0.17844622 255 255 255
237.27574 195.09166 -0.43629229 255 255 255
1779.4366 1680.9382 2.1868944 255 255 255
423.33383 49.001019 0.14137205 255 255 255
288.31323 257.9447 -0.29810014 255 255 255
573.0072 170.46069 -0.17837131 255 255 255
312.88782 215.19641 -0.4540419 255 255 255
334.85291 223.58121 -0.3524169 255 255 255
506.51456 67.952133 0.33226573 255 255 255
760.40344 127.60291 0.13271528 255 255 255
331.1987 379.04721 -0.25011307 255 255 255
203.15472 151.25313 -0.17110147 255 255 255
122.69664 173.99757 -0.32848787 255 255 255
263.86615 159.57166 -0.4098438 255 255 255
931.52417 404.20627 -0.063320808 255 255 255
-444.41949 -272.66174 -1.8314606 255 255 255
718.44086 10.092082 0.86873728 255 255 255
206.05258 204.32999 -0.52515066 255 255 255
1599.0443 613.34033 1.6101499 255 255 255
611.81329 151.95992 0.062555343 255 255 255
788.54791 141.38179 0.14078097 255 255 255
180.09415 126.93773 -0.34857631 255 255 255
415.02856 170.86736 -0.32500964 255 255 255
225.75249 177.65813 -0.46986923 255 255 255
253.43663 96.860779 -0.065453514 255 255 255
334.59879 104.57791 -0.070087567 255 255 255
444.90829 39.551167 0.16109565 255 255 255
790.85181 94.421371 0.37884182 255 255 255
1349.6379 617.06317 1.4444977 255 255 255
582.28241 291.28537 -0.36638424 255 255 255
405.23572 179.74074 -0.34233633 255 255 255
674.17383 200.92453 -0.25737667 255 255 255
310.02536 124.54996 -0.27692744 255 255 255
762.56628 264.71005 0.3844364 255 255 255
-78.639023 164.51364 -0.67939383 255 255 255
655.66266 161.99545 -0.11257067 255 255 255
212.48991 85.913895 -0.14291701 255 255 255
593.74658 100.1795 0.010605052 255 255 255
390.85248 210.42331 -0.26795834 255 255 255
471.94647 198.91608 -0.12587193 255 255 255
202.33881 259.4357 -0.51231569 255 255 255
357.71967 169.19025 -0.31296057 255 255 255
433.95044 151.63548 -0.19348679 255 255 255
169.03964 200.92616 -0.39777881 255 255 255
115.15927 -16.54567 0.13143772 255 255 255
327.93466 126.62768 -0.3181178 255 255 255
239.65273 175.46121 -0.28913209 255 255 255
128.35443 38.646191 -0.03727432 255 255 255
515.77722 114.66392 -0.038381308 255 255 255
337.46768 144.64177 -0.28215313 255 255 255
1743.3375 706.8114 2.1524136 255 255 255
579.15857 40.982021 -0.25924268 255 255 255
289.36099 146.68938 -0.38874197 255 255 255
403.54462 246.5663 -0.34410968 255 255 255
1099.95 95.561684 0.65323353 255 255 255
630.57782 210.87872 0.018632377 255 255 255
-140.13812 182.41173 -0.69274324 255 255 255
375.86346 184.12866 -0.38815555 255 255 255
457.0564 34.125309 0.18854147 255 255 255
993.07196 200.63914 0.23461409 255 255 255
852.70361 271.60443 0.057806764 255 255 255
404.49054 109.06848 -0.3535189 255 255 255
627.63593 192.48093 -0.16237955 255 255 255
-1498.2633 -352.20724 -2.8957336 255 255 255
1034.647 183.0627 0.57944232 255 255 255
-47.747372 161.18924 -0.80306119 255 255 255
284.4118 89.255974 -0.034942687 255 255 255
597.05035 165.19777 -0.13981736 255 255 255
386.1532 222.29839 -0.27510098 255 255 255
486.52914 168.40558 -0.18162301 255 255 255
309.60034 116.13808 -0.22133432 255 255 255
551.13336 164.58995 0.093392976 255 255 255
547.6239 77.204514 0.13953064 255 255 255
429.90564 157.55113 -0.081526741 255 255 255
408.99915 168.77571 -0.31347495 255 255 255
137.54024 195.64914 -0.42689633 255 255 255
735.7608 209.7944 0.068995714 255 255 255
358.66879 192.25969 -0.38988331 255 255 255
-3663.6631 516.40442 -6.7199783 255 255 255
431.09933 111.67717 0.01979983 255 255 255
246.76883 114.83057 -0.12056392 255 255 255
219.27939 184.00372 -0.48155791 255 255 255
130.51112 193.45627 -0.40893787 255 255 255
555.49286 214.69907 -0.35858366 255 255 255
545.2298 125.5912 -0.048577558 255 255 255
599.51813 151.75238 -0.010024359 255 255 255
449.44675 69.89679 -0.1138165 255 255 255
-140.98393 167.28987 -0.7862308 255 255 255
340.88824 181.3454 -0.31475005 255 255 255
277.59949 229.22092 -0.39521474 255 255 255
233.36172 117.18839 -0.18839622 255 255 255
395.48291 230.07155 -0.43833411 255 255 255
281.03625 131.86255 -0.28160942 255 255 255
384.80038 170.97073 -0.342309 255 255 255
477.9538 238.8054 -0.37129253 255 255 255
-67.989456 170.11118 -0.79016346 255 255 255
452.87421 313.24658 0.031335555 255 255 255
397.7829 196.70494 -0.39866126 255 255 255
363.34769 81.117508 -0.048983525 255 255 255
758.11304 167.15768 0.22384843 255 255 255
448.66068 165.8327 -0.28387177 255 255 255
634.48352 -48.768059 0.72426409 255 255 255
-105.43064 185.06816 -0.75345141 255 255 255
397.80984 216.03906 -0.21746466 255 255 255
385.32025 171.05078 -0.21633348 255 255 255
319.19391 331.04803 -0.20930269 255 255 255
485.08694 97.228851 0.044667445 255 255 255
389.87582 131.30911 -0.30019578 255 255 255
457.93677 131.86833 -0.15418382 255 255 255
232.40977 131.26797 -0.33919492 255 255 255
378.31778 80.179291 -0.064149544 255 255 255
320.4075 187.36214 -0.52527416 255 255 255
385.90302 188.05612 -0.3079018 255 255 255
309.27322 181.76031 -0.40563428 255 255 255
396.64465 184.92593 -0.32459143 255 255 255
447.03857 90.170296 -0.045625474 255 255 255
360.41452 167.25581 -0.31679595 255 255 255
409.5885 215.11407 -0.095029645 255 255 255
336.46301 236.03075 -0.35194945 255 255 255
486.75674 187.84248 -0.3192924 255 255 255
239.77444 185.16292 -0.41792881 255 255 255
532.7735 87.409523 -0.0038611763 255 255 255
334.03564 160.59999 -0.36735719 255 255 255
477.73456 262.7211 -0.16742541 255 255 255
472.32285 136.50885 -0.22403939 255 255 255
445.61972 226.79999 -0.19517116 255 255 255
453.55209 181.12553 -0.15255757 255 255 255
580.86774 -3.2548196 0.39375648 255 255 255
274.69824 198.43146 -0.10782439 255 255 255
-49543.195 -415.46069 -51.124142 255 255 255
885.61829 222.60422 -0.033972502 255 255 255
329.62289 148.60472 -0.22214578 255 255 255
274.51959 143.10413 -0.38207412 255 255 255
324.63159 122.90446 -0.28520089 255 255 255
414.83575 53.629627 -0.027136849 255 255 255
211.66895 212.0856 -0.47189677 255 255 255
-185.85245 154.20137 -0.83661008 255 255 255
288.2272 218.10144 -0.20647214 255 255 255
429.63104 174.24603 0.064632438 255 255 255
1479.7197 310.96289 0.57874912 255 255 255
7513.729 5151.4126 27.892056 255 255 255
419.46719 302.51559 -0.011177912 255 255 255
288.91699 98.031784 -0.21940701 255 255 255
285.27988 150.67154 -0.29073638 255 255 255
288.09042 239.57982 -0.43814352 255 255 255
388.7905 112.96797 -0.13731481 255 255 255
628.84717 46.895248 0.34196809 255 255 255
522.13373 141.00502 -0.07007812 255 255 255
174.15219 203.59677 -0.46622068 255 255 255
469.24771 45.730663 0.087982275 255 255 255
665.74896 80.024277 0.1757945 255 255 255
309.83649 128.75233 -0.27307418 255 255 255
-67.091919 165.23514 -0.72902101 255 255 255
219.13408 138.1067 -0.24176416 255 255 255
397.6774 202.43117 -0.34307775 255 255 255
689.41486 363.8511 0.33188152 255 255 255
280.49268 115.84978 -0.1412356 255 255 255
2043.0188 92.77282 1.0951488 255 255 255
161.60123 102.45155 -0.23699293 255 255 255
325.97855 261.0817 -0.35879317 255 255 255
511.0896 103.77346 0.08196225 255 255 255
468.34564 177.88737 0.074197255 255 255 255
147.83475 200.9003 -0.4641076 255 255 255
423.99222 97.144173 -0.058267444 255 255 255
510.33017 214.58946 -0.32144749 255 255 255
308.69336 179.93857 -0.31603295 255 255 255
52116.066 10081.364 96.269218 255 255 255
140.61646 186.37334 -0.39309654 255 255 255
379.35889 293.32788 -0.23838897 255 255 255
182.08029 235.01999 -0.36305085 255 255 255
1327.4312 81.71508 0.35714701 255 255 255
274.95264 91.430779 -0.042645644 255 255 255
435.94467 258.34085 0.73094714 255 255 255
318.36179 108.3477 -0.47323379 255 255 255
325.01413 112.90746 -0.21982522 255 255 255
496.58829 64.013863 0.069489285 255 255 255
692.58185 173.23329 -0.036330491 255 255 255
389.56146 191.62267 -0.28605977 255 255 255
394.01297 138.34946 -0.28248882 255 255 255
292.37518 141.48564 -0.26063022 255 255 255
452.86755 170.56345 -0.12819037 255 255 255
249.69592 196.79041 -0.43986544 255 255 255
399.15112 185.52226 -0.35899791 255 255 255
248.39888 111.93945 -0.075412296 255 255 255
605.67181 194.29974 -0.16465525 255 255 255
265.56985 228.70744 -0.41710275 255 255 255
2869.0984 961.99103 3.2177131 255 255 255
323.82913 172.72054 -0.37897289 255 255 255
365.51993 176.49884 -0.24631256 255 255 255
484.77917 322.32532 0.027268229 255 255 255
340.17706 224.0266 -0.20165481 255 255 255
742.86743 11.194567 0.48385262 255 255 255
857.48358 252.56184 -0.093697391 255 255 255
215.99306 4.7267084 0.25886735 255 255 255
212.45792 183.67969 -0.26906526 255 255 255
286.03671 148.18573 -0.39247751 255 255 255
483.58481 129.95964 -0.064660266 255 255 255
215.67737 339.01901 -0.22483793 255 255 255
271.76981 241.03397 -0.42228317 255 255 255
253.9599 175.18593 -0.46793121 255 255 255
531.50171 156.27048 -0.31782725 255 255 255
180.25172 258.89459 -0.39269164 255 255 255
275.00427 238.81816 -0.4124065 255 255 255
-397.21173 -244.70583 -2.1539671 255 255 255
372.82886 111.93152 -0.29780501 255 255 255
278.13345 236.01654 -0.26994348 255 255 255
314.57339 166.86848 0.20447686 255 255 255
457.5159 139.75493 0.016251512 255 255 255
246.0145 146.24146 -0.35065132 255 255 255
274.5788 134.56117 -0.12930514 255 255 255
322.20465 175.35947 -0.28678331 255 255 255
464.43219 232.20598 -0.45529759 255 255 255
495.66504 19.59841 0.25279754 255 255 255
269.12033 212.65971 -0.5660091 255 255 255
297.41522 147.70116 -0.40893313 255 255 255
308.47339 125.59331 -0.28177339 255 255 255
409.20142 91.220428 -0.20811103 255 255 255
483.625 163.65746 0.10668489 255 255 255
285.50171 141.27705 -0.22419061 255 255 255
585.42291 259.94901 -0.17052867 255 255 255
285.46902 73.937897 -0.077301264 255 255 255
3551.3665 -97.776985 3.3221991 255 255 255
403.64465 303.95514 -0.046269488 255 255 255
331.66751 116.30922 -0.44120428 255 255 255
465.74878 64.416481 -0.103894 255 255 255
784.44666 280.89978 -0.12464038 255 255 255
485.99957 277.16278 -0.27549288 255 255 255
267.60242 204.9968 -0.41300583 255 255 255
261.29572 184.60551 -0.32665673 255 255 255
614.51697 221.19592 -0.19038348 255 255 255
348.39569 164.60054 -0.30187151 255 255 255
521.0675 141.92255 -0.17479289 255 255 255
343.26825 197.17458 -0.35574961 255 255 255
381.99649 154.68005 -0.32340807 255 255 255
398.58871 65.828926 0.016853742 255 255 255
231.27403 179.6326 -0.22662975 255 255 255
300.21274 170.03653 -0.4390634 255 255 255
978.78619 356.18805 0.23454365 255 255 255
459.30786 68.535767 0.22802426 255 255 255
298.78122 207.05827 -0.38029715 255 255 255
375.43686 123.51356 -0.40235248 255 255 255
451.25406 176.84317 -0.15037115 255 255 255
350.78894 195.84494 -0.13283834 255 255 255
315.08252 288.02319 -0.16617194 255 255 255
308.68192 347.00214 -0.28120202 255 255 255
292.44983 55.837555 -0.020247234 255 255 255
291.75696 258.39301 -0.32834619 255 255 255
605.87781 71.14901 0.019844599 255 255 255
439.58237 130.61852 -0.12769076 255 255 255
234.00061 239.03925 -0.40637577 255 255 255
221.01436 80.810303 -0.16883908 255 255 255
330.7756 240.77972 -0.55703187 255 255 255
-81.962662 163.85646 -0.67082655 255 255 255
455.45319 187.90344 -0.29209107 255 255 255
498.93689 165.48843 -0.066630282 255 255 255
371.12241 204.52856 -0.26853353 255 255 255
369.06482 200.62177 -0.1347755 255 255 255
487.22263 200.31909 -0.35473657 255 255 255
297.75208 236.19476 -0.32075256 255 255 255
515.10211 197.96481 -0.1211182 255 255 255
376.36749 121.19786 -0.14561786 255 255 255
234.02556 195.91733 -0.13048939 255 255 255
448.2153 203.14871 -0.12443234 255 255 255
-156.30345 212.8127 -0.81083661 255 255 255
252.55753 226.22763 -0.34782264 255 255 255
907.61432 240.52875 0.13594355 255 255 255
278.94662 158.37349 -0.29613611 255 255 255
1063.5623 21.583323 0.52105838 255 255 255
212.84879 213.86688 -0.42789823 255 255 255
337.55554 204.7435 -0.21675292 255 255 255
368.85074 73.277939 -0.19173594 255 255 255
558.60004 11.022126 0.19315535 255 255 255
416.89127 102.28403 -0.32629681 255 255 255
142.34464 187.28087 -0.39880073 255 255 255
358.38019 155.40022 -0.29503709 255 255 255
674.11774 486.75671 0.93202478 255 255 255
68.916924 4.0415654 0.018522963 255 255 255
-2874.7942 66.172058 -3.9006567 255 255 255
146.44516 -1.4499048 0.09397421 255 255 255
170.07896 178.3027 -0.39507031 255 255 255
427.20889 128.69531 -0.15067881 255 255 255
226.56586 178.18787 -0.47337848 255 255 255
689.98816 123.98449 0.14030544 255 255 255
1147.3318 1079.1838 1.4735652 255 255 255
329.64728 102.97182 -0.46112901 255 255 255
1127.3077 40.350956 0.38240471 255 255 255
280.48853 95.346809 -0.15144752 255 255 255
179.37784 188.83214 -0.45466667 255 255 255
483.88657 169.79158 -0.13329896 255 255 255
194.84105 206.05302 -0.45727807 255 255 255
479.57538 47.813293 0.024042213 255 255 255
352.34286 188.0461 -0.4821755 255 255 255
355.78928 111.98569 -0.16640989 255 255 255
308.09891 130.87518 -0.31508654 255 255 255
456.26242 52.806004 0.17736928 255 255 255
633.14276 157.07692 0.10642367 255 255 255
-506.64319 -511.90305 -2.2643619 255 255 255
339.5397 308.40494 -0.17837562 255 255 255
453.44357 195.14655 -0.10177697 255 255 255
292.10406 153.43475 -0.1563589 255 255 255
524.8584 26.176157 0.12542771 255 255 255
319.0332 207.98483 -0.34156486 255 255 255
399.19769 191.13176 -0.03940225 255 255 255
935.97229 235.26239 0.18062063 255 255 255
425.92825 272.02106 -0.22032939 255 255 255
287.48883 104.27351 -0.22062974 255 255 255
276.27353 207.18683 -0.3913998 255 255 255
568.39813 153.2699 -0.38260081 255 255 255
312.00314 240.70522 -0.3579151 255 255 255
416.60724 154.91251 -0.20719717 255 255 255
289.96844 224.28273 -0.28767824 255 255 255
471.81921 243.85085 -0.10403471 255 255 255
114.66535 193.4856 -0.3890973 255 255 255
307.74023 136.42433 -0.17389725 255 255 255
285.86435 167.87309 -0.43890649 255 255 255
228.44145 10.198623 0.055667087 255 255 255
353.27243 34.163853 0.14479105 255 255 255
536.065 143.08195 -0.074146494 255 255 255
516.56927 275.34811 0.039719943 255 255 255
168.46822 152.65599 -0.23862572 255 255 255
320.33087 237.51297 -0.33595097 255 255 255
199.69289 130.86563 -0.21043685 255 255 255
369.7283 151.70746 -0.18143885 255 255 255
272.88583 268.55737 -0.35645875 255 255 255
146.76604 133.25101 -0.31244513 255 255 255
292.03561 284.33014 -0.24143754 255 255 255
294.29791 161.16292 -0.38575789 255 255 255
463.63474 128.44366 0.011987299 255 255 255
575.94122 319.55313 0.27735326 255 255 255
379.30374 74.161377 -0.020664578 255 255 255
123.14848 198.50954 -0.41929775 255 255 255
124.67887 171.20126 -0.31963941 255 255 255
371.20248 141.07535 -0.38108498 255 255 255
131.5486 193.0661 -0.40857011 255 255 255
145.0522 201.42502 -0.46173587 255 255 255
510.82626 148.18367 -0.13999864 255 255 255
345.45938 408.00623 -0.12565032 255 255 255
206.74503 126.64869 -0.19466846 255 255 255
1610.347 66.50148 0.26711231 255 255 255
442.61646 161.06308 -0.001044097 255 255 255
585.94989 187.42039 -0.23810561 255 255 255
-59.403721 -29.316444 -1.2260029 255 255 255
578.3175 169.87378 0.020871729 255 255 255
545.25623 237.67862 -0.027400155 255 255 255
282.59793 81.12413 0.0140562 255 255 255
251.675 164.13708 -0.45426226 255 255 255
225.69112 177.67412 -0.46968511 255 255 255
407.38867 121.06558 -0.085338689 255 255 255
296.14822 283.20312 -0.38630304 255 255 255
803.42633 255.55392 -0.15374205 255 255 255
295.36459 138.85893 -0.34685349 255 255 255
495.62875 -0.97052938 0.18719471 255 255 255
479.07153 212.45555 -0.28971842 255 255 255
404.74561 109.00472 -0.35331172 255 255 255
342.19177 119.47727 -0.18883474 255 255 255
332.47894 109.06397 0.0032652912 255 255 255
1995.0059 285.82895 0.7697733 255 255 255
416.0921 141.02708 -0.074349642 255 255 255
272.04431 133.61307 -0.28164923 255 255 255
263.58405 160.21126 -0.29116711 255 255 255
473.56592 -7.2162805 0.33820853 255 255 255
605.01996 106.91762 0.14431509 255 255 255
293.60788 163.47737 -0.41314232 255 255 255
389.38528 139.28261 -0.27944925 255 255 255
859.23749 -64.260811 0.72866344 255 255 255
333.37494 138.29344 -0.41664466 255 255 255
400.19797 218.7952 -0.18118083 255 255 255
985.99628 254.87016 0.31821704 255 255 255
286.90161 95.750854 -0.075289398 255 255 255
468.85934 147.81764 -0.2199581 255 255 255
1367.4893 140.47729 0.21506311 255 255 255
127.49465 198.8531 -0.42612743 255 255 255
113.7072 197.1497 -0.4013961 255 255 255
280.91309 131.85168 -0.28186083 255 255 255
688.87781 90.92424 0.26470628 255 255 255
528.87689 121.01547 -0.028373478 255 255 255
199.43593 174.57736 -0.39065865 255 255 255
368.2041 160.17973 -0.26356053 255 255 255
1025.7505 34.760658 0.51059908 255 255 255
512.15002 145.34433 -0.18335134 255 255 255
355.02325 210.99742 -0.28184462 255 255 255
130.89062 193.26289 -0.40856761 255 255 255
208.82797 176.46782 -0.36873659 255 255 255
247.62682 195.38255 -0.52872813 255 255 255
-129.67743 157.80624 -0.62382323 255 255 255
241.32797 284.7453 -0.3071948 255 255 255
475.00101 88.43119 -0.38924059 255 255 255
538.96082 359.5545 -0.20985965 255 255 255
178.16183 189.64449 -0.45654693 255 255 255
402.30786 134.95357 -0.23126768 255 255 255
1096.4192 -190.62459 0.43055457 255 255 255
169.42909 181.84251 -0.41033 255 255 255
-121.82488 204.03261 -0.7600472 255 255 255
137.50302 196.25031 -0.42949682 255 255 255
371.98145 191.54546 -0.18812422 255 255 255
126.02734 200.13498 -0.42915422 255 255 255
500.15768 59.434586 -0.15342385 255 255 255
225.45634 148.68884 -0.3230792 255 255 255
373.43301 45.922646 0.19747464 255 255 255
298.23001 128.08301 -0.28160053 255 255 255
532.07294 248.89017 -0.11722342 255 255 255
127.73797 207.57431 -0.40289384 255 255 255
433.50238 228.94371 -0.34440476 255 255 255
449.61783 69.863052 -0.11327934 255 255 255
226.02037 210.00824 -0.14581627 255 255 255
426.89078 210.31676 -0.36131692 255 255 255
137.57452 195.5518 -0.42665502 255 255 255
1201.1108 74.878777 0.77760512 255 255 255
179.64325 190.27094 -0.46199816 255 255 255
159.52173 187.83577 -0.45810094 255 255 255
134.85757 166.56319 -0.32702738 255 255 255
739.17694 571.29053 1.6544602 255 255 255
293.98285 409.4426 -0.35820508 255 255 255
356.87695 202.41864 -0.30015075 255 255 255
162.1877 190.22356 -0.4373475 255 255 255
178.17937 189.63486 -0.45686337 255 255 255
219.64655 209.58865 -0.41616672 255 255 255
435.46057 15.810754 0.21407326 255 255 255
232.20892 152.84848 -0.34297052 255 255 255
297.96631 111.10851 -0.13615206 255 255 255
823.01831 161.20482 0.22579095 255 255 255
916.01044 -10.368322 0.35075071 255 255 255
