ply
format ascii 1.0
comment PCL generated
element vertex 1113
property float x
property float y
property float z
property uchar red
property uchar green
property uchar blue
element face 0
element camera 0
property float view_px
property float view_py
property float view_pz
property float x_axisx
property float x_axisy
property float x_axisz
property float y_axisx
property float y_axisy
property float y_axisz
property float z_axisx
property float z_axisy
property float z_axisz
property float focal
property float scalex
property float scaley
property float centerx
property float centery
property int viewportx
property int viewporty
property float k1
property float k2
end_header
410.31522 1606.8407 3.2609148 255 255 255
-928.41437 -774.76453 -2.4864671 255 255 255
52.915359 99.072601 0.41401476 255 255 255
-371.18512 -483.84152 -1.826704 255 255 255
80.19278 69.871597 0.14764337 255 255 255
2533.332 1486.9086 3.6901314 255 255 255
3358.7258 850.26465 5.7103705 255 255 255
58.566372 110.60033 0.22249061 255 255 255
-1579.4866 -1900.5138 -3.2950971 255 255 255
4863.7515 1658.6774 5.2501059 255 255 255
1952.2155 1516.321 3.1370873 255 255 255
143.56227 327.17145 0.72439677 255 255 255
1823.6729 1029.8303 3.2897823 255 255 255
-355.09064 -370.20328 -1.5207839 255 255 255
-111.59595 -888.54431 -2.5694511 255 255 255
-1226.3188 -1942.8601 -5.1186066 255 255 255
-367.40402 -263.31668 -2.5940373 255 255 255
1808.6644 1040.9769 3.2597523 255 255 255
250.688 569.99103 1.2047321 255 255 255
18764.016 1259.2157 24.443344 255 255 255
1207.7217 773.58862 2.5986333 255 255 255
38723.141 100527.44 178.37038 255 255 255
-1614.4938 -2092.251 -6.4490976 255 255 255
-386.03427 -186.79774 -1.4207344 255 255 255
-61.229984 -105.33344 -1.3647226 255 255 255
-392.48087 -485.59995 -2.2123623 255 255 255
-496.08221 -1783.8745 -8.0002375 255 255 255
-9469.9199 -3755.325 -11.119829 255 255 255
-103.98348 -829.64014 -2.9100049 255 255 255
6661.145 1047.2295 7.2482657 255 255 255
549.26532 1437.4098 2.0452664 255 255 255
1004.0695 1309.4023 2.2856629 255 255 255
44.259781 266.42834 0.41783014 255 255 255
858.39697 955.96375 2.0718296 255 255 255
2196.6746 1852.214 3.229039 255 255 255
968.14636 948.19202 2.1991537 255 255 255
1671.0952 1454.0343 2.8932588 255 255 255
890.40765 981.44659 2.1059818 255 255 255
1737.3235 1177.7814 4.1303864 255 255 255
3265.0754 1414.9153 4.4862661 255 255 255
255.12138 622.39423 1.2594885 255 255 255
269.8212 664.11932 1.3079042 255 255 255
-455.92117 -319.90829 -1.6170038 255 255 255
2841.1953 4149.6455 9.4432907 255 255 255
483.85239 979.37555 3.1803827 255 255 255
4512.3872 1373.4735 5.6004987 255 255 255
-789.83942 -426.18918 -1.8780686 255 255 255
371.01923 519.75458 1.0248334 255 255 255
4769.8145 1297.5438 5.9363575 255 255 255
-4479.9473 -4221.3228 -12.847151 255 255 255
382.75494 2635.5522 4.9482694 255 255 255
376.47751 1241.0731 1.8482589 255 255 255
2107.8455 1289.1763 3.4191794 255 255 255
2177.9868 1399.9838 3.4167893 255 255 255
1239.281 754.04095 2.661814 255 255 255
2013.5262 1118.3309 3.4530296 255 255 255
-6022.0571 -4706.9565 -16.505455 255 255 255
30.292364 64.420624 0.20587164 255 255 255
1774.0137 1020.3604 3.2339156 255 255 255
4302.6953 1562.3955 5.1120462 255 255 255
-838.685 -393.92401 -2.884568 255 255 255
2196.3569 1844.9946 3.229372 255 255 255
-3084.4199 -5097.9331 -15.874166 255 255 255
-373.89703 -226.10481 -1.4476625 255 255 255
1121.9642 624.21814 1.5235277 255 255 255
84.218384 379.84784 0.82113653 255 255 255
3387.9436 1556.3193 4.4142852 255 255 255
-4254.5664 -2272.8638 -5.802166 255 255 255
2222.7864 871.34772 4.057023 255 255 255
6279.4448 942.95526 7.7080116 255 255 255
225.90866 627.2417 1.2421571 255 255 255
264.57434 623.71155 1.0430999 255 255 255
-2596.4277 -809.11096 -4.1545839 255 255 255
2124.8904 1284.088 3.1289091 255 255 255
136.51935 124.56013 0.25448638 255 255 255
978.33429 943.77002 2.2108612 255 255 255
-3202.0413 -7747.917 -16.737259 255 255 255
559.16742 1446.1663 2.0542946 255 255 255
4963.6294 2221.5769 4.6342893 255 255 255
3781.5073 1560.6377 4.7285419 255 255 255
-34530.547 -2326.1636 -40.719913 255 255 255
978.23181 922.52673 2.2176828 255 255 255
917.98041 894.81909 2.1368556 255 255 255
283.27475 586.22113 1.2522298 255 255 255
1279.6659 758.45526 2.7230046 255 255 255
1803.4366 1035.4323 3.2539544 255 255 255
6049.3257 1212.5898 6.5374241 255 255 255
3201.2732 1244.0568 4.6663575 255 255 255
127.40012 191.02846 0.42710295 255 255 255
3975.2881 2081.304 4.3026843 255 255 255
4886.2319 1393.4314 6.1238127 255 255 255
3809.1567 1509.5612 4.8222814 255 255 255
1173.7589 2420.5457 6.1096048 255 255 255
-6347.4634 -1756.3057 -8.390028 255 255 255
476.35077 532.633 0.67502141 255 255 255
4843.5605 1288.7523 5.988636 255 255 255
454.87427 520.63788 0.58793926 255 255 255
37.481586 267.32907 0.63398653 255 255 255
289.57202 1005.4816 2.8652158 255 255 255
141.98233 229.10451 0.73567295 255 255 255
855.85461 1482.6675 4.0531344 255 255 255
1356.1331 718.56763 2.8830953 255 255 255
1897.1974 988.414 3.4320014 255 255 255
1255.7875 782.92291 2.6633112 255 255 255
1118.0247 392.24744 1.3380115 255 255 255
3227.8682 1222.1937 4.7278681 255 255 255
-837.25586 -1301.6461 -4.2942624 255 255 255
-215.93953 -135.40245 -1.2978194 255 255 255
2325.8301 967.70966 8.6875229 255 255 255
-2781.8335 -1518.7231 -4.8071899 255 255 255
5321.8262 1191.5764 6.5336399 255 255 255
3445.0498 1086.745 5.2226553 255 255 255
26206.541 11036.83 28.887457 255 255 255
66.356148 275.75064 0.69719881 255 255 255
-396.82043 -752.14203 -1.9119167 255 255 255
4141.123 2306.5938 4.2386813 255 255 255
534.03406 331.53717 0.9158293 255 255 255
484.21765 901.35974 2.113698 255 255 255
907.52643 1681.1875 2.3388193 255 255 255
93.861504 567.78326 1.8105769 255 255 255
-365.96576 -1057.4253 -4.3680401 255 255 255
148.75609 176.81218 0.48417526 255 255 255
4612.936 1800.042 4.9298916 255 255 255
-223.93282 -368.78381 -2.4000854 255 255 255
517.40448 913.34985 1.5021387 255 255 255
3646.4094 1536.3883 4.6487651 255 255 255
-1188.3046 -1082.887 -3.3561909 255 255 255
927.47455 948.28705 2.1527884 255 255 255
1651.5953 1474.3147 2.152406 255 255 255
203.77124 395.94138 1.0334291 255 255 255
2994.1641 1359.9877 4.2896528 255 255 255
2934.1423 1346.657 4.2456012 255 255 255
4807.1582 1280.795 5.9935865 255 255 255
401.29163 589.52979 1.4504949 255 255 255
-1128.412 -748.6944 -2.5070028 255 255 255
488.9523 843.85278 1.9113417 255 255 255
245.59966 769.12476 1.2941728 255 255 255
60.948372 94.876236 0.21106349 255 255 255
-729.77808 -390.76007 -1.8977895 255 255 255
3155.9004 1392.9468 4.4058633 255 255 255
4068.6228 2223.3013 4.2607164 255 255 255
486.73596 329.20801 1.218981 255 255 255
163.49112 324.43863 0.66893488 255 255 255
-481.8624 -763.77222 -2.017724 255 255 255
275.45273 577.86108 1.2367297 255 255 255
227.07104 214.23801 0.26450729 255 255 255
5881.8862 1317.7677 6.3245263 255 255 255
-703.97034 -486.87946 -2.8166807 255 255 255
2086.2393 1325.7949 3.3726773 255 255 255
-1151.4185 -892.159 -3.2659659 255 255 255
-4060.2317 -7171.5396 -25.733616 255 255 255
-6988.627 -1628.3478 -9.1920738 255 255 255
3889.8958 1946.653 4.3694797 255 255 255
183975.97 110473.43 240.63907 255 255 255
-644.901 -589.18896 -2.4508855 255 255 255
-110460.73 -52468.891 -385.36221 255 255 255
52802.113 26973.293 69.033607 255 255 255
1394.2118 1375.4463 2.6438377 255 255 255
39.605946 132.07887 0.25346306 255 255 255
155235.23 65775.062 186.1151 255 255 255
-1046.6746 -479.35196 -2.4500277 255 255 255
4621.793 1738.1862 5.0051675 255 255 255
214.02496 260.85025 0.96990389 255 255 255
51.443584 128.52222 0.30995208 255 255 255
1814.3007 1030.9731 3.2767687 255 255 255
674.0769 179.02859 0.80782378 255 255 255
-298.2421 -328.2785 -1.3823423 255 255 255
252.23373 588.06415 1.2248712 255 255 255
11339.937 583.26361 13.288916 255 255 255
-1573.684 -1010.6316 -6.6526756 255 255 255
242.50342 568.18628 1.0973594 255 255 255
26.509205 168.73073 0.36980191 255 255 255
1117.4783 1293.6321 1.3731321 255 255 255
-968.78845 -236.22746 -2.5165637 255 255 255
4827.3228 1101.6613 6.4858246 255 255 255
942.13794 967.78888 2.1653824 255 255 255
16481.576 18669.453 46.008312 255 255 255
-620.7442 -250.37755 -1.8927857 255 255 255
1312.4608 758.08691 2.7734108 255 255 255
687.18524 274.46051 0.74938983 255 255 255
155.12067 255.08881 0.38160437 255 255 255
-1449.717 -7367.0249 -14.918457 255 255 255
1341.4995 656.02185 2.8383186 255 255 255
-1844.7399 -998.50256 -3.5296316 255 255 255
-3087.012 -1416.1453 -4.9597092 255 255 255
4089.3796 1384.3602 5.2547727 255 255 255
4035.7749 1606.6855 4.8533111 255 255 255
4770.3208 2138.9106 12.028924 255 255 255
2024.5856 1310.3158 3.3138807 255 255 255
253.50606 607.10345 1.2390656 255 255 255
1689.1499 2096.9023 8.5184603 255 255 255
-1612.0641 -676.15662 -2.6219687 255 255 255
-1303.5936 -581.27979 -3.2560561 255 255 255
738668 481271.25 1534.0192 255 255 255
1988.3556 656.65161 2.2304111 255 255 255
2991.1138 1179.9515 4.5469899 255 255 255
1610.4758 3233.4109 8.8343925 255 255 255
-341.48471 -363.33286 -2.5929239 255 255 255
1797.1761 1604.9946 2.9723649 255 255 255
4824.833 1296.5684 5.9612861 255 255 255
-3125.9399 -1295.3146 -5.1042509 255 255 255
1891.7511 453.28668 2.0584664 255 255 255
5173.4087 1251.4562 6.2832456 255 255 255
964.07562 567.07849 0.98007405 255 255 255
6459.5649 3407.1443 6.1067915 255 255 255
4007.8562 1167.6333 5.6159911 255 255 255
-2286.6855 -938.56287 -3.8090525 255 255 255
1473.9203 1395.8949 2.7156529 255 255 255
4047.2292 1600.2183 4.8684921 255 255 255
915.73309 647.90033 2.1847205 255 255 255
77.514206 331.0015 0.60930192 255 255 255
12943.967 8001.209 15.307364 255 255 255
242.17278 375.6355 1.0151025 255 255 255
-4381.2964 -2476.6707 -6.0798459 255 255 255
779.95361 737.40778 1.9491245 255 255 255
114.43208 105.68517 0.22180726 255 255 255
126.29652 136.03391 0.16822073 255 255 255
1905.2225 980.16895 3.446929 255 255 255
1390.8525 2302.2751 5.6849012 255 255 255
-441.8277 -134.13023 -1.6032735 255 255 255
5430.7144 1791.0887 5.2876229 255 255 255
-2579.5469 -1049.4856 -4.264636 255 255 255
4605.3647 1954.2977 5.1386433 255 255 255
928.37097 946.53064 2.1534128 255 255 255
-542.92719 -748.81885 -2.0280962 255 255 255
-791.65894 -982.88672 -2.7269411 255 255 255
3940.5938 1158.2537 5.5715747 255 255 255
-456.92041 -647.13196 -2.4441493 255 255 255
-7365.2593 -2890.7678 -8.7138414 255 255 255
658.76544 1084.8875 2.0787625 255 255 255
5040.8228 1531.3317 5.559813 255 255 255
1088.5868 904.46643 2.3568277 255 255 255
-30084.631 -17917.041 -41.499371 255 255 255
-7809.9023 -1731.6873 -10.259113 255 255 255
405.18411 789.52411 2.0290864 255 255 255
1619.1781 1087.8794 2.979373 255 255 255
176.2009 950.07153 1.9498107 255 255 255
85.379089 41.259605 0.29137611 255 255 255
5342.0068 1185.243 6.5603552 255 255 255
1784.1476 1462.8813 2.9986401 255 255 255
176.48317 517.11969 0.93976271 255 255 255
3474.1958 1521.0975 5.1552496 255 255 255
-1206.937 -1264.4896 -4.5952215 255 255 255
-380.87088 -720.71997 -1.9463084 255 255 255
126.21465 169.54568 0.17336199 255 255 255
4740.6436 149.96297 5.4534473 255 255 255
13266.613 9476.1631 23.632504 255 255 255
-623.06573 -431.35013 -1.7416476 255 255 255
760.34241 386.61581 0.9939878 255 255 255
799.28424 737.29407 1.9771602 255 255 255
3971.7791 1651.3518 4.7529278 255 255 255
-3042.9719 -3667.0642 -7.3893847 255 255 255
3436.8325 1086.2764 5.2056394 255 255 255
361.29187 638.65948 1.5081049 255 255 255
5820.5415 1627.1625 5.6931877 255 255 255
5741.6509 1330.6951 6.239522 255 255 255
4669.1772 1793.1904 4.9685545 255 255 255
2444.3118 2154.1975 3.2722661 255 255 255
2182.623 1027.5428 3.7683733 255 255 255
1128.2589 861.81873 2.4244435 255 255 255
1225.2357 763.52643 2.6323335 255 255 255
166.6627 379.18097 0.83580226 255 255 255
905.47675 597.0799 2.1941199 255 255 255
142.91348 1433.3296 2.2344756 255 255 255
-20992.895 -5043.8843 -22.935715 255 255 255
264.79999 283.47159 0.36240032 255 255 255
4865.7373 1651.5554 5.2639089 255 255 255
1834.0439 1462.9082 3.0422971 255 255 255
1915.0969 979.66931 3.4607091 255 255 255
869.9679 956.06152 2.0857632 255 255 255
3229.3884 1460.4506 4.3918419 255 255 255
-650.20422 -1251.8464 -3.1202552 255 255 255
1514.3114 1076.6913 2.8537478 255 255 255
164.27208 286.26474 0.71985143 255 255 255
-472.79471 -739.03369 -2.3347611 255 255 255
1986.4301 816.46338 3.7854338 255 255 255
13662.547 11120.319 24.917709 255 255 255
1030.1655 1393.9242 3.343796 255 255 255
-6234.2349 -9383.8945 -15.712798 255 255 255
360.97598 1694.048 3.3772817 255 255 255
24.282829 49.736053 0.17691883 255 255 255
1956.2667 605.73767 2.1466508 255 255 255
2144.0083 1271.8993 3.4743526 255 255 255
-690.07776 -445.52286 -1.8040792 255 255 255
1934.4905 1541.5342 3.1110852 255 255 255
2249.2327 1696.479 2.8524086 255 255 255
1618.3143 1127.6182 1.8379521 255 255 255
824.28741 1240.894 3.7037179 255 255 255
5793.8506 1775.2697 5.4290328 255 255 255
-1074.017 -1754.5122 -3.2109077 255 255 255
4792.561 2249.6982 4.5511322 255 255 255
1827.0089 1512.2482 3.0220413 255 255 255
4257.644 1407.8809 5.346961 255 255 255
2852.7729 1178.3555 4.3886209 255 255 255
1953.5557 999.13 3.4969058 255 255 255
-7232.7773 -1275.1173 -10.825946 255 255 255
326.67279 496.55533 1.1131551 255 255 255
253.79648 591.85376 1.2286901 255 255 255
-742.00903 -3811.8787 -7.9535685 255 255 255
56.814583 124.9288 0.410788 255 255 255
4528.0322 2757.9636 17.058516 255 255 255
412.15799 650.78406 1.6245904 255 255 255
1276.4293 732.55737 2.740128 255 255 255
4549.1416 1773.5697 4.9266934 255 255 255
594.16864 1009.813 1.8276587 255 255 255
4019.8354 2134.8218 4.2865753 255 255 255
276.9682 294.27139 1.1126136 255 255 255
9538.8467 5137.564 12.409265 255 255 255
894.5426 979.83026 2.1102474 255 255 255
2547.2781 1502.3478 3.6937265 255 255 255
456.70959 422.87857 1.3940082 255 255 255
271.42422 539.17322 1.1948367 255 255 255
-1015.0449 -1346.828 -2.4363537 255 255 255
4280.0068 904.45306 6.6212392 255 255 255
997.07825 916.63629 2.2415521 255 255 255
1229.7646 756.87878 2.6464779 255 255 255
127.21592 604.3902 1.5570649 255 255 255
4832.4502 1656.1565 5.2463002 255 255 255
4599.5234 1801.9061 4.9130311 255 255 255
1260.8967 746.31769 2.7102034 255 255 255
1363.0125 3086.5024 6.9616761 255 255 255
1046.4246 4682.1426 7.6069689 255 255 255
263.88547 672.79724 1.3881397 255 255 255
-4063.2053 -6886.1118 -14.726173 255 255 255
3944.1663 1785.2139 4.56427 255 255 255
1497.4427 1718.5024 6.8918409 255 255 255
560.625 793.6864 2.9152839 255 255 255
-249.43436 -506.36383 -1.7034204 255 255 255
72.407509 91.326378 0.16111635 255 255 255
343.62924 1126.4957 2.6537304 255 255 255
112.91553 189.17053 0.16543548 255 255 255
103.34153 316.5174 0.46311483 255 255 255
515.2868 1055.5945 1.7899922 255 255 255
-526.28802 -2206.0796 -7.1389699 255 255 255
863.09137 957.43793 2.0786569 255 255 255
516.51373 1053.0326 1.7898401 255 255 255
71.242401 396.15179 0.94180036 255 255 255
1500.4929 1328.9808 3.8316162 255 255 255
5313.7329 13277.606 31.118057 255 255 255
-360.38666 -304.46234 -2.1249561 255 255 255
1496.5149 758.60223 3.3031478 255 255 255
1674.8818 1043.6486 3.9054692 255 255 255
1201.5272 781.13788 2.5821517 255 255 255
1662.8717 4150.6011 10.775017 255 255 255
795.75531 744.37408 1.9731535 255 255 255
-5806.5718 -9233.9746 -29.647326 255 255 255
196.43555 207.5833 0.7173304 255 255 255
-859.05542 -631.32587 -2.1301899 255 255 255
85.053238 253.65967 0.66070086 255 255 255
938.00867 943.11963 2.1682696 255 255 255
879.48431 5727.0293 13.63608 255 255 255
387.90259 939.09644 1.6264654 255 255 255
792.16663 739.414 1.968236 255 255 255
-422.55356 -297.05383 -1.572891 255 255 255
-49082.605 -13173.11 -77.367294 255 255 255
99.258186 85.136223 0.42823073 255 255 255
3989.2644 2107.512 4.2893257 255 255 255
3996.7202 2109.0837 4.2927737 255 255 255
858.83832 956.48364 2.0725205 255 255 255
1247.7908 749.99243 2.6800392 255 255 255
5463.8721 1455.8042 5.8986492 255 255 255
-1302.2811 -6743.5537 -13.310577 255 255 255
90.272545 613.20477 1.498522 255 255 255
59.781181 865.19446 3.1156335 255 255 255
981.38647 642.43909 1.4770021 255 255 255
1293.5424 2084.5762 3.5795395 255 255 255
24.193213 171.82764 0.40839821 255 255 255
-436.57498 -133.98499 -1.5165274 255 255 255
-346.68192 -279.63849 -1.5629029 255 255 255
1257.946 610.51239 2.7779498 255 255 255
1235.0519 757.04333 2.6546736 255 255 255
-258.27789 -2007.1497 -8.8830166 255 255 255
36.140583 146.3513 0.37682027 255 255 255
-1179.8545 -802.44824 -4.4191608 255 255 255
27360.592 19939.182 49.661804 255 255 255
-2915.3145 -1001.3266 -4.6469793 255 255 255
38.333439 36.306767 0.16229886 255 255 255
387.02673 933.71033 1.6218312 255 255 255
7078.8032 6164.2495 27.458254 255 255 255
-735.47156 -1257.3712 -4.1449642 255 255 255
3228.2732 1667.1997 3.4070454 255 255 255
-476.53378 -657.6546 -2.8339775 255 255 255
261.19366 578.5545 1.2204888 255 255 255
660.53149 894.94324 2.5806899 255 255 255
669.10657 1191.281 3.2076132 255 255 255
6276.0034 6181.2661 10.997014 255 255 255
2556.8669 1498.937 3.7073548 255 255 255
35.062023 160.59253 0.27953875 255 255 255
1312.1991 717.5144 2.8158991 255 255 255
100.84866 94.59388 0.41662788 255 255 255
97.581947 580.77606 1.2913656 255 255 255
1179.6433 1724.7307 2.988663 255 255 255
700.76398 1673.0258 3.577316 255 255 255
1471.4324 659.36096 3.1677763 255 255 255
1271.5527 733.46326 2.7336206 255 255 255
392.84253 945.87329 1.6338772 255 255 255
-4278.1567 -5458.4131 -13.207911 255 255 255
74.961777 168.13509 0.26547402 255 255 255
-381.11972 -172.64218 -1.4232005 255 255 255
1016.7416 686.45203 1.4539255 255 255 255
4597.8931 1761.1375 4.9636283 255 255 255
1004.3697 1309.3154 2.2852323 255 255 255
2012.9084 1572.6633 3.1681509 255 255 255
201.63869 895.61108 1.4909068 255 255 255
1836.2556 1464.0997 3.0456874 255 255 255
99.928635 168.0295 0.47548836 255 255 255
3390.0679 1557.6683 4.4190984 255 255 255
4115.5713 1214.8552 5.6140432 255 255 255
-821.52856 -915.08313 -2.3609567 255 255 255
-415.10828 -6892.8794 -16.690651 255 255 255
4144.771 2309.0005 4.2434664 255 255 255
34.921078 176.48004 0.28719392 255 255 255
-126.56665 -84.573494 -1.37322 255 255 255
63.789463 119.71625 0.31433526 255 255 255
63.374077 131.07617 0.27936247 255 255 255
-728.83612 -744.17737 -1.9488293 255 255 255
-115.44315 -268.22339 -1.6240219 255 255 255
194.43437 733.63501 1.3306514 255 255 255
246.74106 615.05902 1.2463841 255 255 255
-47664.738 -95702.367 -372.70197 255 255 255
96.940788 65.501518 0.39561617 255 255 255
1916.9021 826.39929 1.9640896 255 255 255
2987.5466 1177.5426 4.5405235 255 255 255
400.29547 370.63489 1.5215291 255 255 255
1332.4547 2438.3157 5.2347646 255 255 255
198.5643 552.80841 1.1454129 255 255 255
3521.9119 3045.2815 10.200296 255 255 255
3053.4106 1190.642 4.5956631 255 255 255
-830.23883 -347.36612 -2.0251431 255 255 255
4051.8313 3707.322 19.928873 255 255 255
533.94037 1048.031 1.8024704 255 255 255
1320.0671 709.81482 2.8299115 255 255 255
1812.9841 1029.7864 3.2744074 255 255 255
3977.1914 1536.2633 4.9199071 255 255 255
-960.5639 -1322.1897 -4.2694345 255 255 255
14504.06 1675.0841 17.068298 255 255 255
3923.0276 1528.6351 4.8932199 255 255 255
1798.2384 1430.6321 4.5055485 255 255 255
-1089.5708 -1122.5868 -2.7054288 255 255 255
825.94183 3603.7495 6.7192931 255 255 255
-1352.6868 -3616.5229 -6.5474176 255 255 255
4301.7061 1562.0382 5.1113243 255 255 255
86.531082 55.208797 0.20934314 255 255 255
-349.77222 -622.68665 -3.6673658 255 255 255
2279.8943 884.38861 4.116416 255 255 255
4539.9819 1358.6267 5.6437459 255 255 255
1718.1311 909.56561 3.2569857 255 255 255
-10299.918 -7784.7036 -21.224239 255 255 255
283.10632 585.06567 1.2500708 255 255 255
1770.949 1019.0217 3.2282162 255 255 255
350.64835 3134.2949 6.9344306 255 255 255
287.19644 1999.7517 6.5828567 255 255 255
2409.3586 1083.7195 3.997118 255 255 255
56.617458 354.40747 0.89351809 255 255 255
4602.8188 1813.8114 4.9180508 255 255 255
12074.039 4176.6655 12.191812 255 255 255
-715.28979 -358.98132 -2.2762702 255 255 255
-580.08984 -1390.7513 -4.7903533 255 255 255
1988.5801 817.26282 3.7891827 255 255 255
-1073.8145 -935.18243 -2.3354192 255 255 255
4580.1211 1231.339 5.9576626 255 255 255
-348.96671 -521.45905 -2.0511158 255 255 255
3229.2085 1221.5458 4.7300935 255 255 255
869.55414 880.90509 3.3920391 255 255 255
284.33704 634.06763 1.5776343 255 255 255
1513.0187 1075.7576 2.8507104 255 255 255
-500.25595 -593.34308 -2.3868544 255 255 255
1852.3187 1045.222 3.3088086 255 255 255
-2327.5049 -6995.1099 -14.597154 255 255 255
211.7256 643.66241 1.2525147 255 255 255
1562.2467 763.37256 1.7459396 255 255 255
1208.7289 773.95563 2.601459 255 255 255
382.43292 940.31244 1.6239499 255 255 255
2165.606 857.6969 4.0001316 255 255 255
88.431114 326.51462 0.6655165 255 255 255
680.20209 1207.9528 3.1706643 255 255 255
-629.1264 -964.7356 -2.3115051 255 255 255
-510.07147 -309.20007 -1.5790623 255 255 255
1140.0583 1133.4882 2.8931251 255 255 255
1933.1635 1547.7056 3.1097043 255 255 255
-1023.0612 -2404.2439 -5.5619168 255 255 255
1765.0717 1021.7979 3.2160211 255 255 255
1969.6575 1546.142 3.1405191 255 255 255
3952.6609 1778.6677 4.5659189 255 255 255
1365.0608 707.70172 2.911788 255 255 255
4981.6577 1262.6984 6.1528764 255 255 255
47.189701 239.50578 0.62717021 255 255 255
4633.4873 1779.861 4.9647641 255 255 255
618.89465 313.88568 1.8295972 255 255 255
467.25098 1263.33 2.9123216 255 255 255
42.019024 166.7394 0.22697298 255 255 255
-2021.3605 -817.60156 -3.4426103 255 255 255
111.06895 910.13007 1.487882 255 255 255
960.76917 399.57501 1.5715258 255 255 255
275.17816 576.85614 1.2347978 255 255 255
549.19458 1436.9813 2.0444465 255 255 255
-609.32471 -376.64194 -2.0943642 255 255 255
1482.6604 797.66284 1.9970365 255 255 255
1728.8188 1495.9613 3.2853341 255 255 255
541.84186 870.83307 1.3458447 255 255 255
1288.2118 724.99695 2.7647943 255 255 255
2015.5654 1119.1436 3.4564569 255 255 255
-601.12177 -358.03125 -2.3701954 255 255 255
-862.15448 -634.92175 -2.1379869 255 255 255
4539.9668 1361.5425 5.6356549 255 255 255
2016.2739 1569.1831 3.1743097 255 255 255
1850.087 1437.2726 4.6205816 255 255 255
22.07303 143.05038 0.20617037 255 255 255
-5341.1543 -2487.9956 -8.9554777 255 255 255
1916.1473 980.27783 3.4628646 255 255 255
6434.6572 3461.5703 6.1444716 255 255 255
150.55292 152.63518 0.18591961 255 255 255
155.25661 169.3903 0.18711834 255 255 255
3804.0798 1507.3433 4.8166409 255 255 255
-23.160591 -156.3121 -1.7918564 255 255 255
-537.63684 -473.46417 -1.6707029 255 255 255
263.37323 697.2923 1.3320479 255 255 255
645.21497 685.67224 1.1465833 255 255 255
371.84857 1389.2827 2.0359175 255 255 255
2045.254 1578.2737 3.197284 255 255 255
852.29022 965.67877 1.2827668 255 255 255
85.447372 253.90421 1.0023396 255 255 255
4252.9858 1406.203 5.3400393 255 255 255
67.431496 238.50468 0.38972616 255 255 255
667.36768 887.68866 2.0932651 255 255 255
1822.6007 1029.819 3.2868035 255 255 255
424.90521 944.91998 1.4653603 255 255 255
8643.7139 5752.5996 23.456306 255 255 255
148.42296 136.22026 0.19296485 255 255 255
4685.3833 1764.4199 5.0023456 255 255 255
122.43952 750.2182 1.3242739 255 255 255
4586.5928 1368.3159 5.6536536 255 255 255
3816.1472 1142.5947 5.4880962 255 255 255
385.61081 289.3237 0.44476065 255 255 255
2180.4016 1026.767 3.7636142 255 255 255
-809.01196 -3171.7729 -9.9646664 255 255 255
170.27568 1087.4253 1.6500022 255 255 255
140.76999 519.39227 1.0230289 255 255 255
1375.866 1253.9603 3.4890411 255 255 255
4970.23 1939.7649 4.9266205 255 255 255
3944.1755 1159.3474 5.5770187 255 255 255
-692.09808 -900.38611 -2.4914162 255 255 255
55.001503 354.95651 0.80813468 255 255 255
-131.82146 -165.37053 -1.6510946 255 255 255
-1775.7539 -10855.582 -29.769161 255 255 255
16365.273 15996.977 69.850609 255 255 255
-25798.857 -4185.8135 -27.606007 255 255 255
26.519026 462.04288 1.1895039 255 255 255
2325.6245 1828.7339 3.2693779 255 255 255
2194.2339 1850.3016 3.2258594 255 255 255
3352.2673 1242.8265 4.8271322 255 255 255
2842.3562 4152.3857 9.4517117 255 255 255
-318.50586 -465.90283 -2.2018437 255 255 255
207.4147 637.46411 1.2438792 255 255 255
4775.3013 1298.0696 5.9421635 255 255 255
2085.1787 1325.2969 3.3718312 255 255 255
8326.3848 5566.5483 22.58782 255 255 255
874.74231 955.35712 2.0909038 255 255 255
1949.0255 1513.2294 3.1313362 255 255 255
-337.52536 -462.7121 -1.8822453 255 255 255
-5394.1577 -2086.447 -6.9017591 255 255 255
19.303869 268.69302 0.58320272 255 255 255
2533.2788 1486.7174 3.6899304 255 255 255
-2168.6123 -930.69824 -3.4627478 255 255 255
4523.5239 1491.9904 5.3704038 255 255 255
4503.8325 1220.9744 5.9087157 255 255 255
582.69763 1012.1378 1.8172399 255 255 255
210.45409 638.69336 1.2467335 255 255 255
1517.5043 1075.7648 2.8583479 255 255 255
-55287.828 -28368.045 -67.234978 255 255 255
-3707.3223 -1199.5765 -4.8239937 255 255 255
2544.0173 1483.6307 3.706172 255 255 255
2984.4214 2121.6494 3.6673288 255 255 255
3097.1196 1379.9188 4.3630528 255 255 255
1907.8804 980.89801 3.4511168 255 255 255
119.95335 489.76675 1.8457462 255 255 255
2108.5151 1288.5704 3.4209046 255 255 255
4569.9595 1374.67 5.6313429 255 255 255
222.92072 201.90297 0.25688258 255 255 255
-374.93655 -188.38461 -1.425805 255 255 255
284.4668 219.94344 1.18533 255 255 255
247.17238 610.07074 1.2408772 255 255 255
857.98273 958.39264 2.0733471 255 255 255
396.60364 341.81381 0.51612961 255 255 255
99.045341 175.29797 0.29581255 255 255 255
1129.321 860.91034 2.4282658 255 255 255
5316.7236 1189.9193 6.527379 255 255 255
-11117.804 -3709.7451 -12.854445 255 255 255
-17940.732 -20186.281 -49.933208 255 255 255
48.094063 291.43765 0.50618488 255 255 255
4294.3994 1380.1854 5.4168773 255 255 255
391.20554 665.84991 1.828746 255 255 255
-589.15649 -305.56058 -1.6756777 255 255 255
1114.8511 1632.9019 3.8139541 255 255 255
787.45361 738.41888 1.9616226 255 255 255
-1188.7985 -824.82477 -2.5284657 255 255 255
615.37878 246.2494 0.99896145 255 255 255
2207.6545 1287.2136 3.5336349 255 255 255
4049.3936 1601.2092 4.8716769 255 255 255
-1372.1636 -1574.9749 -3.3335769 255 255 255
104.42764 32.898941 0.11880754 255 255 255
1896.3348 988.34705 3.4310248 255 255 255
943.12341 864.6366 1.1463871 255 255 255
3895.781 1935.2509 4.3723369 255 255 255
1783.1281 1462.1599 2.9975626 255 255 255
304.08347 492.21786 1.491845 255 255 255
-6460.5181 -8949.3828 -20.804148 255 255 255
-8056.7827 -4167.187 -11.088538 255 255 255
453.86429 697.0249 0.62460816 255 255 255
1509.7246 1019.8579 2.4108179 255 255 255
98.594246 125.74384 0.32699382 255 255 255
234.17905 519.37909 1.1388445 255 255 255
3224.7917 1458.9087 4.3864594 255 255 255
231.56612 609.67389 1.2310251 255 255 255
4039.0618 1607.0292 4.8579836 255 255 255
2698.1675 1558.219 3.8056414 255 255 255
362.81055 457.31085 1.7313292 255 255 255
1852.6422 972.22321 3.3848264 255 255 255
-1419.9922 -1916.6875 -4.6918669 255 255 255
117.1131 273.86844 0.60824054 255 255 255
799.24182 737.79413 1.9778658 255 255 255
-400.86249 -131.26689 -1.4641386 255 255 255
-807.97107 -441.49234 -2.1473253 255 255 255
-3868.0334 -994.59784 -5.0918565 255 255 255
418.01477 537.06226 0.57037425 255 255 255
48.618145 243.08916 0.63420349 255 255 255
33.130802 128.98962 0.31154031 255 255 255
-646.31219 -425.08209 -1.747746 255 255 255
3094.7087 1431.7261 4.2947674 255 255 255
2349.3845 1069.3737 3.9361866 255 255 255
2309.592 1248.922 2.4704766 255 255 255
-4771.8335 -2997.7974 -6.6630511 255 255 255
1171.337 800.67969 2.5230999 255 255 255
-2597.3323 -813.37537 -4.1516728 255 255 255
4495.9521 1375.3899 5.584197 255 255 255
928.26996 590.82269 1.126897 255 255 255
4991.5835 4159.1152 10.978414 255 255 255
629.7356 897.99146 2.1485476 255 255 255
-359.67593 -223.47035 -1.4294962 255 255 255
-627.23663 -869.40515 -2.565146 255 255 255
64.225578 139.02504 0.4286119 255 255 255
4731.0522 1287.7771 5.9347658 255 255 255
584.07153 530.42566 0.65114748 255 255 255
5336.873 1183.5868 6.5540547 255 255 255
3027.1992 1212.272 4.5310707 255 255 255
54.746098 209.66875 0.41749731 255 255 255
1033.8019 706.68372 2.2694533 255 255 255
-1649.9165 -1399.1064 -7.4800673 255 255 255
-314.92477 -145.69604 -1.3393543 255 255 255
611.43176 3081.0869 6.9359264 255 255 255
297.15997 598.09943 1.2735577 255 255 255
-261.52069 -1005.9257 -2.8376617 255 255 255
199.90038 243.14694 1.0501319 255 255 255
5743.709 1276.5663 6.3905802 255 255 255
-936.8609 -623.33508 -2.2034466 255 255 255
1300.2943 721.30902 2.7891712 255 255 255
246.96063 705.30298 1.3330973 255 255 255
454.41891 253.72076 0.56810778 255 255 255
-1629.3234 -2108.812 -3.7451856 255 255 255
2494.364 2693.6133 7.4373226 255 255 255
1703.8905 885.21558 3.2621708 255 255 255
-619.76392 -623.61694 -2.030757 255 255 255
1543.199 1522.3634 2.7657938 255 255 255
2766.4609 1675.8816 2.9953635 255 255 255
6814.5801 1172.5497 6.7932901 255 255 255
1826.9944 1507.0496 3.0237243 255 255 255
2387.6067 2010.385 8.2293463 255 255 255
-334.81937 -597.13977 -2.2623043 255 255 255
407.37631 280.21973 0.47638819 255 255 255
42.651562 467.74982 0.88402367 255 255 255
1054.6788 1311.6436 2.3280387 255 255 255
178.92897 1002.8571 1.5757344 255 255 255
1323.5287 477.56897 2.5751319 255 255 255
1643.6885 1453.7914 2.8698318 255 255 255
2874.4253 1155.9631 4.4461055 255 255 255
3410.3545 1251.769 4.8653746 255 255 255
608.22552 343.02667 0.6456359 255 255 255
4874.2319 1406.7367 5.7256346 255 255 255
5715.2612 1294.5853 6.3293257 255 255 255
2039.5631 1351.3911 3.3055649 255 255 255
4327.0479 2505.1785 4.2061086 255 255 255
324.72379 1008.7601 2.5179381 255 255 255
1059.8217 1319.6881 2.3355787 255 255 255
2040.7804 1305.2802 3.3367741 255 255 255
5434.2461 1439.6095 5.90166 255 255 255
3359.4443 849.54456 5.712204 255 255 255
-2669.1902 -1011.6956 -4.3126678 255 255 255
4805.5918 1280.925 5.9909077 255 255 255
4678.3203 2834.5605 6.7716241 255 255 255
2883.0737 1068.1337 4.6065965 255 255 255
1431.411 1337.5974 2.6849644 255 255 255
-44.701176 -147.52702 -1.627563 255 255 255
30.874105 89.010971 0.35465285 255 255 255
683.30078 643.41058 1.1183172 255 255 255
-610.41785 -1011.3762 -2.3130527 255 255 255
373.06915 244.48929 0.41446102 255 255 255
-537.65918 -1757.0574 -4.3878412 255 255 255
4086.8276 1385.537 5.2542791 255 255 255
1805.1108 1036.8555 3.2588367 255 255 255
237.57484 886.24835 2.0367386 255 255 255
-1050.2494 -878.08569 -2.6759276 255 255 255
191.25584 734.87769 1.3288301 255 255 255
401.6705 485.81644 1.2569649 255 255 255
408.25998 1303.3795 3.4374757 255 255 255
6657.4307 1045.4028 7.2441497 255 255 255
4825.0728 1101.1556 6.4847107 255 255 255
4806.998 1100.6586 6.4745808 255 255 255
4754.8027 1669.5424 5.1745253 255 255 255
3735.9507 1334.7571 5.0410433 255 255 255
-549.46924 -352.31943 -2.1479788 255 255 255
-169.44112 -875.05316 -3.1386974 255 255 255
1144.2797 1211.1893 1.5840752 255 255 255
6069.1411 3255.6658 5.8173385 255 255 255
-7503.6216 -1929.976 -8.4880085 255 255 255
4819.8604 1669.8635 5.2083988 255 255 255
4802.7119 1285.0601 5.9815564 255 255 255
443.02454 376.45068 1.2587364 255 255 255
1932.9221 1540.3912 3.1083114 255 255 255
-2108.249 -1445.2554 -3.8378847 255 255 255
329.79535 215.48949 0.38239324 255 255 255
220.41943 330.00577 0.33552611 255 255 255
1826.9235 1238.6443 3.1397421 255 255 255
-1392.9323 -1390.6191 -6.3551817 255 255 255
2940.2134 1349.4448 4.2545938 255 255 255
1569.4033 1425.0946 2.8030789 255 255 255
142.06297 630.245 1.2016788 255 255 255
3780.4958 1560.9049 4.7276087 255 255 255
2671.5356 2013.3197 3.5108709 255 255 255
61.337349 282.63 0.86172467 255 255 255
2680.3064 1340.9786 3.9921489 255 255 255
1641.325 1445.9325 2.8662007 255 255 255
-1832.8263 -2252.8005 -4.896687 255 255 255
-367.9794 -321.34335 -1.7325547 255 255 255
294.27499 398.54584 0.62676084 255 255 255
4521.4697 1491.0361 5.3674836 255 255 255
4698.8525 1242.9333 6.020328 255 255 255
4748.7529 1244.1476 6.0313148 255 255 255
1257.6683 742.77771 2.7010145 255 255 255
-935.8266 -486.39642 -2.0752513 255 255 255
49.577148 292.37592 0.59236246 255 255 255
-471.2674 -285.81403 -1.5425297 255 255 255
3151.3997 1047.0538 4.9640517 255 255 255
772.93988 1019.0594 3.4196098 255 255 255
2559.6902 1489.2349 3.7165964 255 255 255
414.1994 686.39856 1.4551808 255 255 255
2816.1077 1377.5474 4.0898633 255 255 255
1289.2214 725.57501 2.7666328 255 255 255
-647.80151 -1381.392 -4.5912118 255 255 255
-710.35425 -721.60345 -3.0533137 255 255 255
514.31964 1421.687 4.1002116 255 255 255
-799.41742 -984.47913 -3.9931147 255 255 255
-442.43588 -735.25726 -1.9654161 255 255 255
1435.4165 1295.9268 5.7732739 255 255 255
-415.25351 -1514.3262 -6.2558374 255 255 255
386.98071 932.49518 1.6204114 255 255 255
-3194.02 -1073.4635 -5.0792737 255 255 255
24.187082 150.58011 0.34264526 255 255 255
909.58228 590.7583 2.2089469 255 255 255
3032.6948 1213.6805 4.5373545 255 255 255
1735.6898 1477.0654 2.9476118 255 255 255
218.63266 691.45294 1.3038764 255 255 255
3294.9421 1741.46 3.9845936 255 255 255
1796.1788 1603.0437 2.9706089 255 255 255
27.324562 44.369892 0.12371619 255 255 255
573.92761 500.47818 1.6141269 255 255 255
2195.1006 1850.8457 3.2273698 255 255 255
2984.5276 1175.78 4.5341172 255 255 255
2938.6099 1347.2963 4.2513967 255 255 255
2142.3042 1316.6881 3.4417214 255 255 255
4805.0581 1281.3563 5.9920206 255 255 255
2565.1758 1507.8632 3.7082338 255 255 255
2544.1274 1499.5239 3.6875284 255 255 255
523.09521 1047.6899 1.7907645 255 255 255
2991.7976 1357.4884 4.2868924 255 255 255
1543.881 1183.4369 1.7929534 255 255 255
3421.3813 1564.3181 4.4396539 255 255 255
4978.2866 1263.5259 6.1629081 255 255 255
1853.2838 1045.723 3.3123968 255 255 255
1245.5856 748.46155 2.6747754 255 255 255
4981.4604 1261.3445 6.1523724 255 255 255
-2719.9941 -3031.8926 -5.3361902 255 255 255
2036.0724 3432.2373 5.9571638 255 255 255
831.16791 2383.9954 4.7406344 255 255 255
1271.8816 1386.9537 5.3328457 255 255 255
387.30844 938.95984 1.6251643 255 255 255
207.35944 371.61334 0.96568078 255 255 255
-53.490345 -86.972336 -1.1133425 255 255 255
124.01498 235.20476 0.91985995 255 255 255
60.960846 118.11145 0.39244545 255 255 255
1905.954 979.40918 3.4479945 255 255 255
-2100.4824 -2846.9663 -9.6671343 255 255 255
270.8183 360.92264 0.68932235 255 255 255
13509.414 5294.2207 15.881895 255 255 255
1270.0287 732.18652 2.7296381 255 255 255
1835.9347 1463.5393 3.044121 255 255 255
-608.17883 -480.30038 -1.7447679 255 255 255
42.172138 312.1647 0.49085763 255 255 255
3945.7888 1159.5444 5.5789995 255 255 255
86.781593 390.77338 0.8186152 255 255 255
10781.508 5976.1147 16.606762 255 255 255
971.84271 1029.866 1.3036547 255 255 255
194.14284 732.80713 1.3300002 255 255 255
3817.8953 1142.0005 5.4925303 255 255 255
1642.1213 1451.366 2.8668091 255 255 255
414.66571 878.58533 1.6010524 255 255 255
195.44637 187.1364 0.63340157 255 255 255
894.79572 979.97198 2.1111629 255 255 255
1782.926 1460.7708 2.9959502 255 255 255
382.07266 939.97339 1.623541 255 255 255
-927.59894 -304.65826 -3.1048748 255 255 255
1034.1023 931.17621 4.1188459 255 255 255
1895.9706 1747.512 3.0182061 255 255 255
4552.5542 1364.2886 5.6533213 255 255 255
1531.3805 1068.2594 2.880074 255 255 255
2349.3992 1069.3546 3.9344747 255 255 255
-124.15638 -715.22998 -2.2796695 255 255 255
4109.2236 1212.1259 5.6036754 255 255 255
2836.7507 1326.792 4.1753287 255 255 255
387.55423 205.13994 0.44343874 255 255 255
284.60315 423.55887 1.2931887 255 255 255
3650.167 1539.585 4.6536264 255 255 255
1918.1606 981.60211 3.4646707 255 255 255
-367.52457 -428.39249 -2.0905175 255 255 255
231.25041 608.79712 1.2292358 255 255 255
1411.4784 676.52661 3.0325696 255 255 255
4621.4526 1773.0225 4.9639139 255 255 255
263.82532 699.58044 1.3360975 255 255 255
983.77985 920.24036 2.2235134 255 255 255
-1318.9789 -1463.1949 -5.9112496 255 255 255
-334.76767 -381.01562 -1.4245191 255 255 255
107.7024 51.814632 0.36906162 255 255 255
908.35339 1682.4556 2.3415885 255 255 255
4596.0439 1759.7546 4.9609504 255 255 255
1430.21 1106.3829 2.6453283 255 255 255
-4855.5615 -1578.1047 -6.3399158 255 255 255
4044.3145 1609.9592 4.8657489 255 255 255
-435.84372 -470.74292 -1.6138248 255 255 255
3967.3711 1649.103 4.7481236 255 255 255
-1250.6002 -943.82117 -2.8282468 255 255 255
173.82939 852.14917 3.195574 255 255 255
-1961.3031 -843.78906 -3.2696509 255 255 255
1809.2106 1040.5094 3.2600434 255 255 255
6205.7837 1136.1063 6.8945808 255 255 255
1886.2958 1497.2363 6.9262948 255 255 255
247.70476 282.27826 1.1867747 255 255 255
42.151642 186.38385 0.36494878 255 255 255
73.191643 138.35332 0.49332672 255 255 255
876.21216 957.04468 2.0947301 255 255 255
1643.1339 1217.1317 2.9456775 255 255 255
341.78674 1147.0537 3.0064723 255 255 255
-448.19043 -271.87424 -1.6107614 255 255 255
113.28161 127.8279 0.48976353 255 255 255
1189.729 948.83411 2.3180768 255 255 255
2544.0981 1502.7361 3.6939611 255 255 255
581.961 496.89291 2.4835234 255 255 255
547.56372 1039.708 1.8060147 255 255 255
4028.5996 2145.6626 4.2852454 255 255 255
445.54193 755.22552 2.6803005 255 255 255
88.20047 222.4395 0.89453328 255 255 255
-3268.1917 -3067.6064 -10.108342 255 255 255
-374.87128 -738.68915 -1.9740891 255 255 255
2294.1746 1242.6654 3.6680605 255 255 255
6650.166 1017.2237 7.3711662 255 255 255
776.92358 738.10492 1.9460753 255 255 255
1386.7681 1087.7668 2.6008518 255 255 255
1553.4279 1620.0138 4.3837719 255 255 255
863.26556 957.26019 2.0790679 255 255 255
548.51776 531.1485 1.5803872 255 255 255
631.73157 574.77606 1.1795498 255 255 255
120.43758 62.603905 0.34369722 255 255 255
215.30122 1179.9365 1.5782261 255 255 255
-420.00574 -898.73145 -2.1777537 255 255 255
1336.7935 907.24927 2.9965441 255 255 255
-3286.7166 -962.8493 -5.2322655 255 255 255
2682.5918 1342.7415 3.9950471 255 255 255
47.869843 52.594738 0.090477102 255 255 255
1929.8333 1538.6744 3.1029756 255 255 255
1262.6058 741.4671 2.7099724 255 255 255
2166.4495 1161.4583 3.6042342 255 255 255
-675.27466 -727.8399 -2.0538733 255 255 255
1288.4448 723.37646 2.7673564 255 255 255
927.87976 948.92566 2.1539965 255 255 255
1691.6493 1984.613 2.8583126 255 255 255
1895.3478 988.00287 3.4277992 255 255 255
3642.1348 1544.379 4.6427398 255 255 255
170.41684 1088.5515 1.6523527 255 255 255
50.675667 41.070103 0.15107171 255 255 255
4054.6804 1604.1406 4.8794904 255 255 255
-12287.501 -5696.6885 -48.048985 255 255 255
2162.2588 2429.4885 9.9337158 255 255 255
-2567.4849 -1377.5713 -4.3270321 255 255 255
346.58911 564.24341 1.8173895 255 255 255
-350.03632 -1555.1217 -3.9208291 255 255 255
1899.0131 991.33093 3.4295435 255 255 255
-2428.1262 -2212.5276 -4.7885404 255 255 255
-556.90613 -661.29358 -2.3736601 255 255 255
199.88297 634.98853 1.2335638 255 255 255
-470.59332 -183.25912 -1.6038841 255 255 255
200.32686 343.67026 0.98829001 255 255 255
5192.5288 1250.7302 6.2707543 255 255 255
4579.7886 1366.4387 5.6438503 255 255 255
2015.0195 1118.5511 3.454536 255 255 255
276.81754 284.45584 0.34352583 255 255 255
470.16818 519.94629 1.9659588 255 255 255
7053.3643 2479.759 17.771799 255 255 255
187.34796 181.01338 0.90835196 255 255 255
81.351936 636.78583 1.5080302 255 255 255
2399.5002 1079.8591 3.9775441 255 255 255
928.90472 956.71448 2.146826 255 255 255
112.30402 326.75461 0.67374253 255 255 255
-175.55168 -640.20587 -2.1786151 255 255 255
-642.29364 -1129.7866 -2.9119072 255 255 255
173.57938 490.72128 1.0617802 255 255 255
1479.3394 658.21387 3.1854205 255 255 255
3327.3081 1427.4427 4.5321593 255 255 255
2823.5303 4114.2856 9.3742094 255 255 255
152.18535 391.15884 0.93025273 255 255 255
-745.09381 -775.59698 -1.9330707 255 255 255
-402.34406 -189.30618 -1.4761964 255 255 255
4361.9683 2725.5188 11.147151 255 255 255
3842.9912 4547.9365 11.960043 255 255 255
935.49323 1252.6283 2.2105479 255 255 255
5446.3643 1443.0997 5.9149404 255 255 255
234.96318 538.70758 1.1610297 255 255 255
928.76697 945.7688 2.1536725 255 255 255
213.15634 356.96713 1.3634094 255 255 255
3194.2585 1241.1185 4.6544442 255 255 255
800.13129 738.54895 1.9797487 255 255 255
1239.6021 758.26044 2.6656694 255 255 255
126.02811 101.4256 0.37033775 255 255 255
140.03596 256.71838 0.74642497 255 255 255
57.080723 79.774521 0.28897858 255 255 255
-833.2804 -823.21368 -2.027982 255 255 255
188.92111 898.72235 1.4901383 255 255 255
-772.54163 -488.33902 -2.0554283 255 255 255
406.19794 562.47223 1.3697957 255 255 255
-9007.7578 -1315.9587 -11.460861 255 255 255
97775.938 158756.47 503.66928 255 255 255
2552.1511 1493.5132 3.7069533 255 255 255
1345.3718 1296.7922 1.5545182 255 255 255
-585.11652 -2568.4944 -6.0753489 255 255 255
1055.7896 1313.4192 2.330766 255 255 255
2187.1382 2108.4004 3.1624901 255 255 255
3416.6187 1087.4165 5.1895685 255 255 255
4510.0889 1378.9297 5.6024857 255 255 255
4607.8765 3358.0239 5.6664286 255 255 255
3092.8899 1431.1732 4.2911177 255 255 255
4828.626 1653.0398 5.2406921 255 255 255
617.3764 313.31061 1.8255254 255 255 255
47.09399 239.01422 0.62556064 255 255 255
952.4054 362.47739 1.1192043 255 255 255
-1283.674 -986.08295 -3.5223072 255 255 255
176.26385 516.52637 0.93856359 255 255 255
1131.0927 862.68518 2.4316947 255 255 255
-409.20642 -352.96475 -1.5069495 255 255 255
4315.0479 1565.0839 5.1270523 255 255 255
-581.02582 -456.96008 -1.7058297 255 255 255
-516.9715 -569.1933 -2.42448 255 255 255
20.573605 159.64294 0.39225325 255 255 255
46.398121 49.454079 0.21481968 255 255 255
28.229345 154.37379 0.43196115 255 255 255
-363.41919 -192.13649 -1.4050865 255 255 255
513.46027 364.24347 0.61510998 255 255 255
-759.47742 -797.09705 -2.0063798 255 255 255
4631.2188 1805.0089 4.949326 255 255 255
635.38715 486.08932 1.9027243 255 255 255
27.599842 113.96456 0.21492428 255 255 255
-5571.1265 -1833.8993 -7.388731 255 255 255
650.11365 202.32343 0.70682728 255 255 255
113.01257 363.87717 1.2864949 255 255 255
60.208763 148.16132 0.32455289 255 255 255
1808.0485 1039.0892 3.26437 255 255 255
8472.6396 1758.2544 9.6041679 255 255 255
450.7702 720.67529 1.2838579 255 255 255
2166.031 856.51141 4.0019083 255 255 255
1363.2902 706.38208 2.9072285 255 255 255
4568.5918 1373.3827 5.629179 255 255 255
-3112.4216 -2775.9585 -5.5532241 255 255 255
1338.0906 1338.6937 3.5920112 255 255 255
879.98053 1105.3801 1.2799599 255 255 255
727.15863 646.65149 1.8692073 255 255 255
1642.6414 1446.848 2.8677597 255 255 255
1623.2966 1090.7521 2.9869292 255 255 255
510.48553 1146.7915 3.5965137 255 255 255
6464.7402 6306.0864 17.566526 255 255 255
89.991119 328.9848 0.86682767 255 255 255
732.16394 264.46487 0.81344062 255 255 255
-1718.1202 -1619.3788 -3.1793156 255 255 255
5327.8525 1193.743 6.542737 255 255 255
-3141.7744 -2805.3267 -5.5965939 255 255 255
-3296.0227 -1074.9218 -4.3781276 255 255 255
-98.944588 -414.89575 -1.8278029 255 255 255
1407.2789 2075.2312 3.7736576 255 255 255
3348.2124 1241.7708 4.8213997 255 255 255
281.81491 581.3739 1.2454364 255 255 255
6428.1167 3388.3979 6.0832348 255 255 255
92.821754 306.72491 0.79849488 255 255 255
502.56546 392.64191 0.90945971 255 255 255
392.53479 946.24213 1.6346272 255 255 255
617.60724 2966.5784 5.8608284 255 255 255
1968.0602 1544.3093 3.1382456 255 255 255
1774.6207 1021.0888 3.234834 255 255 255
3954.2368 1755.7551 4.5926175 255 255 255
1227.6688 764.82593 2.6397986 255 255 255
2395.1655 1116.7091 2.4356968 255 255 255
1518.3676 1076.6108 2.860764 255 255 255
6328.5854 1440.5552 15.691425 255 255 255
4833.6787 1297.9696 5.9739704 255 255 255
4815.1768 1102.3003 6.484426 255 255 255
-621.64716 -536.92017 -1.9098206 255 255 255
3231.9534 1222.0619 4.7336102 255 255 255
-334.71625 -357.42871 -2.505023 255 255 255
1821.7521 1236.3362 3.1321609 255 255 255
426.32263 602.34546 2.1800025 255 255 255
5459.1025 1454.3127 5.891541 255 255 255
92.672676 121.42786 0.43372214 255 255 255
3726.1033 6321.3228 20.016188 255 255 255
3931.3418 1778.2953 4.5470448 255 255 255
-3273.1497 -3771.1484 -5.8738236 255 255 255
620.4043 667.8114 1.6667333 255 255 255
1855.2966 972.69183 3.3895955 255 255 255
1857.8809 968.37677 3.3937087 255 255 255
55.673756 456.09424 1.1038114 255 255 255
-77.179169 -1032.5022 -3.2779994 255 255 255
1428.62 1334.3002 2.6787305 255 255 255
4459.7534 1357.6641 5.5757298 255 255 255
2513.8618 1106.609 4.0894003 255 255 255
2015.9895 1574.6357 3.1730342 255 255 255
1231.1232 760.25885 2.6509192 255 255 255
127.92859 770.91669 1.3477859 255 255 255
23936.707 10104.391 24.455149 255 255 255
1058.2271 1317.3994 2.3315113 255 255 255
790.75854 738.13477 1.9650055 255 255 255
-820.99432 -635.5896 -2.2142863 255 255 255
4975.2192 1940.788 4.9322147 255 255 255
1311.5798 717.67291 2.8149045 255 255 255
1986.8308 816.68604 3.7850356 255 255 255
-156.44717 -2340.6707 -5.1026602 255 255 255
62.259258 71.829552 0.28669637 255 255 255
577.75073 756.69873 1.1845163 255 255 255
3756.6975 1499.5278 4.7964993 255 255 255
608.42236 1524.2836 2.5743089 255 255 255
-783.862 -571.00989 -3.4020696 255 255 255
-273.11075 -825.07281 -2.6911874 255 255 255
-735.37341 -1479.4244 -3.8703599 255 255 255
211.3055 289.02161 0.29288107 255 255 255
4587.4067 1808.691 4.8977919 255 255 255
-663.21301 -401.23056 -1.9016036 255 255 255
1509.0861 1018.9202 2.4095182 255 255 255
2549.3618 1486.6791 3.7136822 255 255 255
90.484406 172.7545 0.44484863 255 255 255
2557.4331 1500.105 3.7079277 255 255 255
1429.4821 955.56085 2.3529899 255 255 255
903.49127 1673.5208 2.3331268 255 255 255
-589.21985 -706.56738 -1.805119 255 255 255
406.48151 391.99805 1.2964691 255 255 255
1816.6 1031.4622 3.2812831 255 255 255
-1982.4109 -1378.0114 -6.0103006 255 255 255
-252.96802 -896.51282 -2.7294133 255 255 255
1283.3026 679.32593 2.7125103 255 255 255
230.81235 367.27966 0.99003148 255 255 255
5197.1226 1248.6826 6.277885 255 255 255
271.36462 538.25641 1.193252 255 255 255
4535.9536 1356.3685 5.6388741 255 255 255
4286.6108 904.40625 6.6306815 255 255 255
2813.9612 4118.1328 9.3558035 255 255 255
216.06773 508.30521 1.1104923 255 255 255
972.24774 925.97925 2.2096598 255 255 255
-402.95914 -169.58875 -1.4429379 255 255 255
227.08646 952.75629 1.5501697 255 255 255
7212.4492 2599.7124 18.204769 255 255 255
36690.793 6979.5537 43.511574 255 255 255
233.31165 803.48572 1.321931 255 255 255
-539.99182 -718.35236 -2.4142103 255 255 255
-844.19885 -883.26294 -2.2541435 255 255 255
2121.2507 1294.5935 3.4322767 255 255 255
-313.15738 -613.83344 -1.7236167 255 255 255
797.7854 745.4989 1.9766046 255 255 255
107.71055 433.27747 1.4570065 255 255 255
72.720818 53.88998 0.17971824 255 255 255
629.41754 881.3551 3.2572677 255 255 255
-87.224297 -129.98285 -1.4616231 255 255 255
1606.1132 4696.2773 15.592072 255 255 255
1932.8058 1547.7267 3.1097779 255 255 255
2697.5701 1557.6138 3.8039453 255 255 255
1318.8594 1357.3286 2.5736191 255 255 255
2197.5439 1845.8162 3.2310057 255 255 255
1821.5505 1029.4746 3.2844076 255 255 255
3737.5583 1131.9071 5.428566 255 255 255
1795.4764 1598.8114 2.9717991 255 255 255
383.05319 195.98445 0.43837062 255 255 255
1949.6456 1513.7173 3.1326327 255 255 255
-3146.8838 -449.11151 -4.5041704 255 255 255
-713.55322 -1411.392 -6.7256355 255 255 255
2189.8708 1351.5505 3.4635999 255 255 255
2362.1997 1045.7506 3.9787476 255 255 255
-223.46123 -238.161 -1.2978393 255 255 255
4809.73 1285.4513 5.9884887 255 255 255
-687.85712 -384.0029 -2.6416738 255 255 255
539.72223 1040.4752 1.7984622 255 255 255
1562.1935 716.53461 3.664613 255 255 255
2025.9492 1311.126 3.3158538 255 255 255
-443.35379 -121.06464 -1.5186293 255 255 255
794.18414 574.62927 1.504369 255 255 255
3264.6394 1412.9187 4.4851918 255 255 255
-2477.7476 -1453.7096 -4.2853289 255 255 255
-259.54041 -1021.2235 -4.7240791 255 255 255
322.04852 243.01422 0.38224646 255 255 255
1391.8104 1373.7834 2.6396599 255 255 255
1571.4563 1427.1576 2.8078494 255 255 255
1393.8173 1378.3842 2.6406474 255 255 255
1284.5455 2073.6104 3.5378573 255 255 255
68.0606 95.771896 0.18979399 255 255 255
