ply
format ascii 1.0
comment PCL generated
element vertex 1068
property float x
property float y
property float z
property uchar red
property uchar green
property uchar blue
element face 0
element camera 0
property float view_px
property float view_py
property float view_pz
property float x_axisx
property float x_axisy
property float x_axisz
property float y_axisx
property float y_axisy
property float y_axisz
property float z_axisx
property float z_axisy
property float z_axisz
property float focal
property float scalex
property float scaley
property float centerx
property float centery
property int viewportx
property int viewporty
property float k1
property float k2
end_header
-365.93326 -172.54285 -1.6472811 255 255 255
-7.7148004 -67.017204 -1.0998722 255 255 255
8.0198345 -65.635979 -1.0645145 255 255 255
-3.7412682 -68.42971 -1.1198792 255 255 255
418.1853 10.229018 -0.56248492 255 255 255
0.38232654 -69.144257 -1.1310095 255 255 255
-5.7515125 -68.745537 -1.1142997 255 255 255
296.73206 -4.5015779 -0.63077623 255 255 255
-16.970453 -67.467133 -1.0997587 255 255 255
-2.5944431 -68.32019 -1.1148694 255 255 255
-2.2593019 -69.249741 -1.1264194 255 255 255
119.08393 -38.440563 -0.822478 255 255 255
-11.45868 -64.235458 -1.0826067 255 255 255
-10.4801 -67.046089 -1.083289 255 255 255
-0.39911592 -66.398834 -1.0819274 255 255 255
5.1144423 -65.396942 -1.0937855 255 255 255
380.17975 46.019344 -0.40735081 255 255 255
-0.44820458 -69.547989 -1.1336846 255 255 255
6.3738027 -66.633446 -1.0918324 255 255 255
8.1384621 -70.134872 -1.1621203 255 255 255
32.689449 -66.059319 -1.0848777 255 255 255
-8.7161884 -69.865936 -1.1418698 255 255 255
4.8904157 -68.13858 -1.0988779 255 255 255
131.86841 -29.82445 -0.72706515 255 255 255
759.90204 80.622398 0.032700296 255 255 255
6322.896 1552.0723 9.719348 255 255 255
13.484797 -64.725883 -1.1020117 255 255 255
949.28314 180.92111 0.27217579 255 255 255
141.36638 -28.899649 -0.73455137 255 255 255
0.48791474 -65.984215 -1.0832467 255 255 255
241.26572 -13.36297 -0.79520869 255 255 255
9.7292147 -67.728096 -1.1095083 255 255 255
2.2925515 -66.402176 -1.1075704 255 255 255
179.79425 -19.101622 -0.71354175 255 255 255
172.18369 -28.285246 -0.74305427 255 255 255
14.855548 -64.419983 -1.0683309 255 255 255
2.3543999 -66.215836 -1.0802274 255 255 255
128.20114 -38.561302 -0.82239294 255 255 255
168.11227 -29.854719 -0.75177985 255 255 255
-1.5160903 -66.889908 -1.0847505 255 255 255
-5.210423 -66.55191 -1.0848746 255 255 255
-4.7158818 -66.683937 -1.0940492 255 255 255
72.240753 -48.644077 -0.9065814 255 255 255
-15.02719 -69.307434 -1.1299431 255 255 255
7.0482473 -65.597115 -1.0964025 255 255 255
-13.495462 -67.951584 -1.1191851 255 255 255
-0.40979496 -71.088905 -1.1750304 255 255 255
9.3016376 -67.994652 -1.1021321 255 255 255
-8.8505297 -67.01416 -1.0866997 255 255 255
400.5257 16.878218 -0.52849072 255 255 255
2.3622947 -69.022888 -1.1315553 255 255 255
10.758855 -58.876907 -1.0575305 255 255 255
1.2588717 -65.851044 -1.0878161 255 255 255
146.29475 -28.700457 -0.73719031 255 255 255
256.26324 0.90593421 -0.61397779 255 255 255
12.895103 -67.182663 -1.1136464 255 255 255
-20.69153 -68.988937 -1.1103519 255 255 255
12.115358 -64.898209 -1.0696604 255 255 255
-2.0880351 -65.569519 -1.1190897 255 255 255
1.8459959 -66.540573 -1.1027297 255 255 255
138.02246 -28.900616 -0.73654968 255 255 255
-4.897171 -64.034935 -1.0528274 255 255 255
10.479563 -64.052742 -1.0552164 255 255 255
-17.644623 -69.31076 -1.1350704 255 255 255
2.6586668 -70.863609 -1.1847786 255 255 255
138.85529 -32.102451 -0.75843501 255 255 255
-0.83026838 -65.492722 -1.0532696 255 255 255
-8.3607454 -65.673447 -1.0817938 255 255 255
-5.1279593 -66.528786 -1.0893193 255 255 255
212.6132 3.194809 -0.68446803 255 255 255
23.641329 -64.698997 -1.089215 255 255 255
137.18639 -23.938574 -0.71205837 255 255 255
90.28804 -46.538483 -0.88426721 255 255 255
124.05869 -38.408558 -0.80817419 255 255 255
-0.39902303 -69.263641 -1.1272439 255 255 255
5496.8545 1189.4869 7.3210082 255 255 255
159.98035 -28.441971 -0.73928332 255 255 255
138.10486 -31.46874 -0.77158833 255 255 255
11.824473 -58.107658 -1.0676619 255 255 255
67.102631 -55.32806 -1.0051907 255 255 255
2.6445444 -65.812401 -1.0777056 255 255 255
-7.7178731 -67.521309 -1.0994545 255 255 255
2.6200988 -66.114662 -1.0843799 255 255 255
147.27184 -31.694967 -0.7591325 255 255 255
181.2953 -29.5583 -0.7564944 255 255 255
-0.99491638 -67.741852 -1.1122352 255 255 255
489.87 23.465313 -0.56112736 255 255 255
11.535657 -66.252228 -1.0866172 255 255 255
174.10486 -28.229778 -0.74423647 255 255 255
-6.236351 -69.553146 -1.1344819 255 255 255
310.99451 -8.7916508 -0.72746277 255 255 255
438.16885 36.666374 -0.38834485 255 255 255
158.23604 -30.856245 -0.75654078 255 255 255
-27.104815 -68.225143 -1.0899007 255 255 255
-22.834227 -67.838753 -1.1053634 255 255 255
113.88399 -42.566372 -0.8609426 255 255 255
7.5419555 -67.875862 -1.1015284 255 255 255
4.3743296 -70.415886 -1.1535772 255 255 255
-19.791677 -64.446869 -1.0429167 255 255 255
184.5954 -29.496225 -0.75768155 255 255 255
-174.11743 -126.25825 -1.4041165 255 255 255
-14.003756 -68.862671 -1.1211544 255 255 255
-13.812678 -67.320396 -1.0959458 255 255 255
16.455524 -67.602699 -1.1068149 255 255 255
7.4243689 -66.629875 -1.0940017 255 255 255
560.27301 89.609901 -0.099724226 255 255 255
181.00748 -31.155657 -0.77330905 255 255 255
9.7607317 -66.174149 -1.0767862 255 255 255
269.77884 -1.1396302 -0.56172585 255 255 255
-15.087197 -70.363548 -1.1595978 255 255 255
-14.019377 -67.636909 -1.0994699 255 255 255
-1581.6479 -430.45834 -3.1028357 255 255 255
-18.342157 -68.871536 -1.1207449 255 255 255
295.66208 3.0904515 -0.51310551 255 255 255
-6.1932631 -70.278107 -1.145505 255 255 255
456.20877 18.630722 -0.55864447 255 255 255
14.52193 -65.383392 -1.06197 255 255 255
-17.947805 -70.047012 -1.1377134 255 255 255
-15.876788 -70.793701 -1.1376343 255 255 255
-2.1718335 -65.43055 -1.0783975 255 255 255
5.5838728 -65.964539 -1.076983 255 255 255
19.428518 -65.58699 -1.0713785 255 255 255
47.849834 -58.671291 -1.0231777 255 255 255
-16.461636 -67.411438 -1.093456 255 255 255
182.62578 -29.774675 -0.75945002 255 255 255
221.73737 -15.433693 -0.68101686 255 255 255
1.1855642 -65.573212 -1.0742991 255 255 255
20.86561 -65.003578 -1.0642272 255 255 255
-3.6383803 -69.765778 -1.1505207 255 255 255
19.520247 -65.791748 -1.0748146 255 255 255
-11.701324 -67.029015 -1.092114 255 255 255
889.03229 130.39503 0.011535577 255 255 255
-1.1271838 -67.179955 -1.0916208 255 255 255
301.99915 -8.8493786 -0.63685185 255 255 255
-17.197363 -68.459328 -1.098943 255 255 255
260.36935 16.342981 -0.47698799 255 255 255
-6.782733 -69.12471 -1.1238527 255 255 255
-22.443861 -68.975227 -1.1153727 255 255 255
3009.5117 673.7428 2.2699096 255 255 255
19.71784 -67.577919 -1.1035894 255 255 255
321.64639 8.3795643 -0.56745714 255 255 255
248.29674 -5.6805892 -0.67483044 255 255 255
10.313273 -66.37558 -1.0912373 255 255 255
161.32317 -28.795696 -0.73893839 255 255 255
142.3898 -31.625113 -0.78251851 255 255 255
14.345782 -64.695251 -1.0665927 255 255 255
161.42499 -28.411222 -0.74205595 255 255 255
-11.718591 -65.864113 -1.0700212 255 255 255
189.42233 -12.826922 -0.52437389 255 255 255
-9.8303757 -69.497543 -1.1222732 255 255 255
-0.84242308 -70.166328 -1.1562288 255 255 255
9.3667459 -66.668533 -1.0810632 255 255 255
-33.812 -67.367767 -1.0944755 255 255 255
338.07684 17.166723 -0.47833464 255 255 255
230.2641 9.7197247 -0.49796194 255 255 255
2.9126706 -63.570274 -1.1177901 255 255 255
194.73276 -29.015558 -0.75818944 255 255 255
-19.257164 -70.37632 -1.1514392 255 255 255
20.336958 -56.571697 -1.0740919 255 255 255
0.76318896 -65.77829 -1.0670942 255 255 255
-5.8652468 -69.216248 -1.1193395 255 255 255
-1355.0031 -657.15979 -3.3959706 255 255 255
178.49785 -19.054615 -0.71360064 255 255 255
-12.413341 -69.002945 -1.1331643 255 255 255
-11.453764 -69.51519 -1.1291438 255 255 255
-14.936736 -64.188934 -1.0837976 255 255 255
-3.719403 -69.580757 -1.1400279 255 255 255
-14.264627 -67.863716 -1.0988069 255 255 255
230.08659 -12.627771 -0.64124554 255 255 255
-18.511263 -68.12606 -1.0967302 255 255 255
-10.872038 -68.771446 -1.1167927 255 255 255
154.21838 -29.685272 -0.78937358 255 255 255
-16.491011 -66.910728 -1.0995812 255 255 255
238.01555 -24.366163 -0.72755301 255 255 255
10.352455 -69.327454 -1.1383131 255 255 255
139.09918 -28.960562 -0.73381126 255 255 255
89.412666 -47.231773 -0.91257781 255 255 255
158.32953 -28.584551 -0.75063664 255 255 255
182.98778 -27.906414 -0.74926573 255 255 255
-5.8219528 -68.832886 -1.1328176 255 255 255
1041.0065 186.31342 0.39326742 255 255 255
-15.890621 -66.817001 -1.0985401 255 255 255
-28.137493 -67.598915 -1.0957732 255 255 255
129.6096 -31.168797 -0.74053264 255 255 255
-2.4028056 -67.097656 -1.0898074 255 255 255
-13.554049 -67.258163 -1.1298397 255 255 255
173.72055 -29.535446 -0.75178665 255 255 255
14.945857 -64.105659 -1.0634425 255 255 255
19.332445 -66.810066 -1.0915434 255 255 255
-2.8169661 -66.85614 -1.0847381 255 255 255
-3.703022 -66.527969 -1.0871788 255 255 255
178.92755 -27.552998 -0.74590337 255 255 255
197.90433 -28.846981 -0.75825244 255 255 255
-7.1259828 -69.076035 -1.1159654 255 255 255
-11.110457 -65.059685 -1.0965385 255 255 255
10.846655 -67.218765 -1.091787 255 255 255
151.20845 -32.850693 -0.83666986 255 255 255
-24.22604 -66.778038 -1.0925604 255 255 255
168.23677 -26.325144 -0.68428969 255 255 255
14.814221 -64.695984 -1.0824749 255 255 255
-2.2583947 -66.806396 -1.1033044 255 255 255
-13.121882 -65.090851 -1.0727267 255 255 255
26.068844 -64.39402 -1.080314 255 255 255
175.31007 -20.664881 -0.73844695 255 255 255
16.542088 -64.152901 -1.0742921 255 255 255
3.7798674 -62.721066 -1.0718937 255 255 255
-4.5045204 -67.666222 -1.1162925 255 255 255
5.750896 -67.310806 -1.0961772 255 255 255
279.73056 -9.265996 -0.70116925 255 255 255
13.699616 -66.669037 -1.096119 255 255 255
170.67006 -29.318216 -0.74185544 255 255 255
3.7028484 -69.889427 -1.1471634 255 255 255
128.48833 -37.343773 -0.79414815 255 255 255
9.3518782 -69.872559 -1.1388661 255 255 255
160.04266 -28.706623 -0.73825848 255 255 255
2.3828137 -66.010368 -1.0806806 255 255 255
-6.4267387 -67.802879 -1.0898257 255 255 255
121.59766 -40.025944 -0.84308529 255 255 255
-9.6387997 -66.175293 -1.0899749 255 255 255
-10.860817 -64.52063 -1.0937622 255 255 255
163.10545 -17.618586 -0.69055986 255 255 255
184.04245 -26.989948 -0.73485231 255 255 255
551.7179 56.937931 -0.15785165 255 255 255
0.85343868 -66.502945 -1.0785013 255 255 255
-14.417326 -71.365181 -1.1501598 255 255 255
178.78658 -30.41898 -0.76417691 255 255 255
2.7415652 -65.627785 -1.0706326 255 255 255
132.80586 -32.565243 -0.72862196 255 255 255
-10.93322 -65.507027 -1.085651 255 255 255
-17.39382 -64.347466 -1.0883117 255 255 255
379.72269 19.167919 -0.39869589 255 255 255
11.846922 -65.07972 -1.0763853 255 255 255
1.0050263 -66.840446 -1.0885185 255 255 255
-0.83904576 -68.164635 -1.115399 255 255 255
-13.185656 -69.276382 -1.1447555 255 255 255
7.6723118 -65.589325 -1.0676419 255 255 255
-6.2336082 -66.535316 -1.0839055 255 255 255
2.35884 -67.287666 -1.0903151 255 255 255
89.799164 -45.43718 -0.86726797 255 255 255
5.7274895 -65.995842 -1.0869867 255 255 255
33.166451 -60.741089 -1.0795546 255 255 255
579.73901 129.12219 0.08561866 255 255 255
15.579136 -65.763138 -1.077704 255 255 255
118.52847 -50.935104 -0.98776263 255 255 255
26.892179 -63.386368 -1.0806986 255 255 255
12.275921 -66.799553 -1.1061678 255 255 255
138.26497 -37.234554 -0.81577635 255 255 255
22.168549 -62.721413 -1.0607022 255 255 255
1189.4556 202.05139 0.038374726 255 255 255
-2.6983187 -70.127907 -1.1604043 255 255 255
315.60046 6.1331315 -0.48496696 255 255 255
183.57022 -31.118757 -0.7740922 255 255 255
9.9124737 -68.357162 -1.0992656 255 255 255
1.9969387 -65.639404 -1.0698625 255 255 255
159.05022 -28.476891 -0.73826289 255 255 255
-1.6470982 -65.723923 -1.0911021 255 255 255
9.0593777 -67.86496 -1.1290135 255 255 255
133.2679 -29.110537 -0.73354095 255 255 255
-1.8421632 -69.457306 -1.1450032 255 255 255
-8.2798567 -64.183685 -1.0616844 255 255 255
0.38863793 -64.214249 -1.0709891 255 255 255
14.802631 -66.162987 -1.0907207 255 255 255
7.5957313 -66.474861 -1.0778248 255 255 255
259.94867 -8.0820246 -0.62620962 255 255 255
-3.2479584 -67.897202 -1.1059856 255 255 255
95.032646 -32.199093 -0.81011903 255 255 255
15.323294 -67.096275 -1.1003681 255 255 255
-0.058965228 -66.745277 -1.0772356 255 255 255
695.75336 85.440765 0.055131681 255 255 255
-0.40418276 -60.967945 -1.0717008 255 255 255
7639.3901 1631.6162 7.6556892 255 255 255
670.09271 83.770134 -0.18232442 255 255 255
2048.8813 514.49103 2.3481815 255 255 255
0.37512028 -67.446831 -1.1154214 255 255 255
-5.6826301 -66.739067 -1.0939997 255 255 255
-4.3222566 -64.363541 -1.0949204 255 255 255
-2.5552354 -67.405403 -1.1170696 255 255 255
157.37181 -28.512825 -0.74084198 255 255 255
16.195429 -63.152412 -1.069231 255 255 255
1.0590059 -64.243362 -1.0704781 255 255 255
-17.541973 -66.123177 -1.093506 255 255 255
87.299088 -44.766743 -0.8464545 255 255 255
105.76539 -37.385956 -0.81215191 255 255 255
-28.365192 -66.284416 -1.0809765 255 255 255
1.4123443 -67.304428 -1.089203 255 255 255
18.249918 -63.800972 -1.0883555 255 255 255
-15.549768 -67.037643 -1.0780216 255 255 255
161.98007 -29.108755 -0.74109703 255 255 255
-0.42718178 -67.380028 -1.1135104 255 255 255
-28.235106 -62.949402 -1.05126 255 255 255
-8.6154947 -68.833611 -1.1189108 255 255 255
6.3488078 -64.579132 -1.0913091 255 255 255
11.712688 -66.802963 -1.1075506 255 255 255
0.13208053 -66.533104 -1.0865042 255 255 255
184.92159 -30.657396 -0.76989436 255 255 255
12.74272 -66.356308 -1.0869944 255 255 255
2.21452 -67.417709 -1.1269078 255 255 255
-15.966194 -70.485832 -1.1462519 255 255 255
-7.7255406 -67.266518 -1.0943681 255 255 255
2.1666327 -63.838345 -1.0756826 255 255 255
106.22536 -44.888462 -0.95380253 255 255 255
-13.016971 -65.74894 -1.1035254 255 255 255
-19.193483 -66.826187 -1.0834397 255 255 255
161.35388 -28.424595 -0.74024498 255 255 255
6.89713 -66.152252 -1.0745991 255 255 255
-7.7236843 -65.223541 -1.0795959 255 255 255
-9.9524279 -67.891113 -1.112861 255 255 255
23.337421 -58.741257 -1.06229 255 255 255
0.34422848 -65.570366 -1.0890337 255 255 255
-8.6482363 -66.873787 -1.09021 255 255 255
229.97983 -16.457304 -0.84139347 255 255 255
-13.399553 -65.90593 -1.1151177 255 255 255
-4.9145041 -68.842918 -1.1053983 255 255 255
-20.705276 -68.530396 -1.1083081 255 255 255
158.3849 -26.041861 -0.78110409 255 255 255
134.78314 -29.056051 -0.73871815 255 255 255
-21.004713 -68.939568 -1.1189629 255 255 255
12.116366 -60.745968 -1.0774424 255 255 255
-9.4348326 -67.448952 -1.0890188 255 255 255
126.96484 -38.538677 -0.82741416 255 255 255
-7.6995087 -67.52581 -1.0922034 255 255 255
-4.9681792 -69.187126 -1.131182 255 255 255
162.64725 -28.400105 -0.74314779 255 255 255
-2299.0554 -721.09686 -4.5824475 255 255 255
19.466595 -64.251137 -1.0809853 255 255 255
243.17369 -3.751684 -0.52095962 255 255 255
-15.557413 -67.015732 -1.0987319 255 255 255
10.004331 -69.051994 -1.1413226 255 255 255
171.45123 -27.066948 -0.76050037 255 255 255
-7.7699866 -70.872231 -1.171837 255 255 255
-2.114002 -69.496513 -1.120458 255 255 255
20.51107 -64.570656 -1.0832218 255 255 255
-0.10273526 -66.663208 -1.1025447 255 255 255
5.8559389 -61.698322 -1.0867388 255 255 255
-1.8281686 -66.819267 -1.0856068 255 255 255
-5.1113644 -69.551735 -1.1507821 255 255 255
-2.0213969 -67.231628 -1.0951518 255 255 255
-4.8239455 -64.892471 -1.047045 255 255 255
145.96056 -29.52112 -0.71417272 255 255 255
862.87683 122.67385 0.058023885 255 255 255
17.061869 -66.319672 -1.1004272 255 255 255
9.4385262 -66.839882 -1.0989523 255 255 255
-8.4135437 -68.649223 -1.1164107 255 255 255
-14.896545 -66.446381 -1.0990436 255 255 255
-8.6286545 -66.782608 -1.1053761 255 255 255
3.4141018 -67.127335 -1.0801702 255 255 255
136.69328 -37.426815 -0.81575763 255 255 255
-20.718058 -69.136314 -1.1111803 255 255 255
-12.592571 -70.734535 -1.1527381 255 255 255
0.51662588 -67.32885 -1.1109825 255 255 255
157.52032 -28.467089 -0.73929077 255 255 255
12.384541 -64.659119 -1.0707272 255 255 255
510.5882 43.066868 -0.19476983 255 255 255
158.5694 -28.605034 -0.75086421 255 255 255
191.85492 -22.468803 -0.6631915 255 255 255
-29.215427 -68.398415 -1.1055514 255 255 255
14.864463 -65.747932 -1.0878831 255 255 255
184.72527 -30.479286 -0.76792729 255 255 255
-3.8159788 -68.501762 -1.11928 255 255 255
-4.6754813 -67.73819 -1.1064095 255 255 255
14.516866 -64.444923 -1.0653818 255 255 255
175.2504 -29.113394 -0.74862617 255 255 255
-3.1656978 -66.058456 -1.0874254 255 255 255
163.95807 -32.091362 -0.77391899 255 255 255
7.4071617 -66.369453 -1.0910615 255 255 255
589.30481 53.136063 -0.31223327 255 255 255
0.53371757 -68.589355 -1.1148086 255 255 255
84.749161 -39.85659 -0.92279917 255 255 255
6.9386454 -65.781021 -1.0966238 255 255 255
282.66003 -4.5837622 -0.65854323 255 255 255
17.01746 -65.296013 -1.0842906 255 255 255
-15.408503 -65.291 -1.085173 255 255 255
902.10852 133.13382 0.024509976 255 255 255
2.8705561 -62.640865 -1.0916841 255 255 255
-4.9407372 -68.502121 -1.1053194 255 255 255
158.33606 -33.464523 -0.78275216 255 255 255
12.317142 -65.606369 -1.0865841 255 255 255
257.93179 -0.59155029 -0.50596076 255 255 255
399.75156 10.353919 -0.60741371 255 255 255
-9.336875 -67.97963 -1.1166092 255 255 255
862.52234 166.99953 0.36597282 255 255 255
-7.2042146 -66.231392 -1.0800936 255 255 255
-3.3838599 -67.745476 -1.1210784 255 255 255
430.58093 41.506077 -0.42323729 255 255 255
-1461.027 -327.78275 -2.7587059 255 255 255
5.1651993 -67.134979 -1.0918328 255 255 255
-8.5405865 -66.695969 -1.0818626 255 255 255
748.91254 104.00063 -0.0198406 255 255 255
-5.7385931 -69.984573 -1.1533877 255 255 255
1860.594 435.25659 2.2295134 255 255 255
183.49939 -27.893667 -0.74955714 255 255 255
0.88621473 -65.39798 -1.1003819 255 255 255
25.325865 -57.443707 -1.1079817 255 255 255
-21.253626 -68.781418 -1.1037302 255 255 255
187.79315 -28.280994 -0.74897414 255 255 255
-2.8917186 -66.844002 -1.0909302 255 255 255
18.2215 -66.792397 -1.1093957 255 255 255
189.91565 -12.866228 -0.66819578 255 255 255
-2.1824737 -66.449753 -1.0794685 255 255 255
-13.227609 -67.71138 -1.1022661 255 255 255
3.0383594 -69.223114 -1.148376 255 255 255
17.05512 -64.275452 -1.069988 255 255 255
209.64525 -23.951582 -0.71881461 255 255 255
17.422554 -65.045303 -1.0939475 255 255 255
-8.4459867 -63.905956 -1.0848471 255 255 255
14.372828 -66.870338 -1.0937142 255 255 255
287.25793 -12.783047 -0.75981474 255 255 255
-8.6529341 -67.398666 -1.0931616 255 255 255
0.18463415 -68.306877 -1.1130348 255 255 255
-11.806577 -68.156197 -1.0963637 255 255 255
148.14545 -32.2117 -0.76522589 255 255 255
-8458.2119 -1814.7866 -11.066731 255 255 255
-6.9341803 -67.306114 -1.0963981 255 255 255
-9.7894421 -69.682045 -1.1263663 255 255 255
-3.9055078 -59.480457 -1.0774745 255 255 255
-3.0906587 -67.809525 -1.1135199 255 255 255
0.083487816 -68.474937 -1.1143947 255 255 255
1.7912295 -64.654602 -1.064347 255 255 255
-6.897944 -67.180244 -1.0908892 255 255 255
-16.522594 -69.05146 -1.1237862 255 255 255
175.38812 -25.837711 -0.75942743 255 255 255
-0.066720039 -67.079453 -1.0895457 255 255 255
7.0550108 -67.699944 -1.09793 255 255 255
0.62450457 -68.323746 -1.1079683 255 255 255
185.32005 -23.924374 -0.66134101 255 255 255
3.8634889 -68.28492 -1.1089541 255 255 255
177.08904 -31.994167 -0.78017634 255 255 255
129.05362 -29.547585 -0.7227087 255 255 255
49.581497 -48.871948 -0.9846071 255 255 255
12.703909 -65.161156 -1.0725142 255 255 255
2.4865687 -67.420311 -1.1089427 255 255 255
0.25807923 -68.29509 -1.1066613 255 255 255
14.477886 -67.328239 -1.1080366 255 255 255
138.6163 -32.170387 -0.75909173 255 255 255
3.8172579 -66.546074 -1.0770794 255 255 255
823.90424 150.12708 0.050596353 255 255 255
127.0557 -29.229858 -0.73160779 255 255 255
-5.2353392 -69.147781 -1.1334325 255 255 255
167.48524 -28.309177 -0.74981636 255 255 255
9.9238043 -67.112015 -1.1151074 255 255 255
-11.641603 -66.953156 -1.08397 255 255 255
1392.7814 340.49637 0.99531966 255 255 255
-8.5997705 -68.459061 -1.1057985 255 255 255
3566.7498 830.42792 3.2738023 255 255 255
9.0195065 -62.500107 -1.1131884 255 255 255
-17.26535 -66.779373 -1.11754 255 255 255
183.82881 -29.173031 -0.75410241 255 255 255
179.33707 -33.030548 -0.80280471 255 255 255
230.88857 -7.5888267 -0.63471985 255 255 255
-5.1659656 -69.099434 -1.1215993 255 255 255
-12.404884 -68.831169 -1.1277926 255 255 255
-20.523417 -68.726196 -1.1059173 255 255 255
-7.8572564 -66.667839 -1.1056837 255 255 255
5.6623988 -65.196236 -1.0691967 255 255 255
175.07327 -24.015875 -0.7523849 255 255 255
277.07928 2.724191 -0.50773644 255 255 255
614.38483 90.214653 -0.30024594 255 255 255
19.8235 -64.534737 -1.0735101 255 255 255
354.05042 56.635761 -0.09061534 255 255 255
6.8741817 -66.168983 -1.0711273 255 255 255
1.6649259 -66.094887 -1.0744846 255 255 255
187.45271 -28.278677 -0.74879354 255 255 255
4.4970732 -62.559021 -1.0320245 255 255 255
3.4006455 -62.896313 -1.0764694 255 255 255
22.964676 -69.930756 -1.1467403 255 255 255
-5.6803765 -66.60321 -1.0808003 255 255 255
161.41579 -27.022236 -0.68329847 255 255 255
181.31886 -29.552654 -0.75653946 255 255 255
177.5327 -28.982914 -0.74881744 255 255 255
-0.56691206 -61.781612 -1.0868055 255 255 255
201.38045 -29.257259 -0.76385397 255 255 255
-13.663363 -70.377419 -1.142469 255 255 255
-1025.928 -386.77521 -2.8437433 255 255 255
181.66423 -29.472837 -0.75589269 255 255 255
173.13823 -29.661095 -0.75275105 255 255 255
8.8300066 -67.324699 -1.1087779 255 255 255
199.35991 -30.353443 -0.77389073 255 255 255
146.71773 -28.724495 -0.73677444 255 255 255
8.2379417 -64.782433 -1.078583 255 255 255
-14.746019 -69.350792 -1.1298813 255 255 255
168.02077 -29.866343 -0.75183576 255 255 255
175.22545 -28.089186 -0.74978614 255 255 255
-6.7251039 -69.396118 -1.1371735 255 255 255
1.0425875 -66.794197 -1.0872238 255 255 255
-17.315744 -68.31617 -1.1161917 255 255 255
-7.0830097 -67.029755 -1.0869823 255 255 255
6.5692968 -63.141121 -1.1238177 255 255 255
10.616646 -72.789337 -1.186288 255 255 255
6.7947211 -65.114853 -1.0879312 255 255 255
1.356204 -65.426674 -1.0851254 255 255 255
448.71082 42.973125 -0.25701365 255 255 255
-4.403295 -67.073509 -1.0842273 255 255 255
214.49942 -5.3117046 -0.66645366 255 255 255
-10.613546 -66.019577 -1.0879563 255 255 255
-5949.791 -1189.3479 -8.7103224 255 255 255
6.6748061 -66.338219 -1.0901763 255 255 255
45.732113 -59.926579 -1.0438778 255 255 255
5.9190269 -64.901299 -1.0855063 255 255 255
-8.6118078 -65.223022 -1.1010699 255 255 255
-7.1801 -69.578903 -1.129709 255 255 255
0.40388292 -66.091812 -1.077086 255 255 255
406.08002 39.710407 -0.3280831 255 255 255
14.894486 -66.624382 -1.0901903 255 255 255
-12.67855 -67.875542 -1.0965955 255 255 255
-5.0814352 -66.158958 -1.0816112 255 255 255
-25.950943 -68.804733 -1.1190652 255 255 255
156.1293 -28.555857 -0.74044985 255 255 255
573.89172 130.7084 0.023796014 255 255 255
92.763611 -47.143082 -0.90173596 255 255 255
568.92108 41.202435 -0.4143545 255 255 255
8.8106918 -66.477486 -1.094907 255 255 255
-13.388646 -70.280472 -1.1596358 255 255 255
12.183825 -67.800255 -1.1177573 255 255 255
-8.1614809 -67.827675 -1.112555 255 255 255
18.720335 -64.362885 -1.0716009 255 255 255
0.54411197 -66.175316 -1.0729934 255 255 255
-11.626275 -71.115425 -1.1588004 255 255 255
-13.217872 -67.352844 -1.0883434 255 255 255
-17.524792 -65.95784 -1.0894549 255 255 255
593.77832 64.367569 -0.14324485 255 255 255
279.10281 -3.8746772 -0.55422789 255 255 255
-1.5547779 -65.478935 -1.11917 255 255 255
160.04422 -28.71129 -0.73833257 255 255 255
-743.72186 -230.23752 -1.9132866 255 255 255
137.93898 -28.909498 -0.7365827 255 255 255
-3.7920687 -67.053673 -1.0904616 255 255 255
158.43575 -28.590935 -0.75057417 255 255 255
180.41226 -26.42864 -0.75916088 255 255 255
-3.3189063 -68.941246 -1.1274431 255 255 255
300.59634 -3.9091425 -0.71147072 255 255 255
-6.4320941 -70.893112 -1.1645381 255 255 255
1105.3046 186.01913 0.017575009 255 255 255
-882.59174 -248.78021 -2.0810192 255 255 255
5.2606115 -68.625519 -1.1581545 255 255 255
605.55365 95.376366 -0.071246721 255 255 255
-731.44916 -191.64087 -1.7651324 255 255 255
-7.7101212 -68.444275 -1.1068761 255 255 255
142.89348 -41.46138 -0.89698052 255 255 255
174.05145 -31.573254 -0.77390778 255 255 255
10.471296 -69.462456 -1.1430221 255 255 255
525.44757 21.934393 -0.60027593 255 255 255
150.74486 -21.175539 -0.63025832 255 255 255
-22.77541 -68.574677 -1.101498 255 255 255
2.2127421 -67.617416 -1.1074891 255 255 255
14.611327 -64.587601 -1.0627222 255 255 255
252.09114 -18.637533 -0.75557542 255 255 255
351.37625 -4.0119462 -0.74901962 255 255 255
195.60469 -28.849752 -0.75712645 255 255 255
2989.4231 593.88013 3.6441295 255 255 255
0.0081450511 -66.446159 -1.0984498 255 255 255
-1.6749889 -67.841118 -1.1075054 255 255 255
-13.398044 -68.715538 -1.1129334 255 255 255
3182.657 864.39606 4.2627587 255 255 255
2.3655527 -66.572495 -1.1261894 255 255 255
138.85898 -28.897463 -0.73764557 255 255 255
76.122253 -49.539028 -0.8966642 255 255 255
174.64908 -28.090799 -0.74933696 255 255 255
197.07469 -28.550627 -0.75526136 255 255 255
5.4690647 -67.428513 -1.1197083 255 255 255
-11.11109 -68.022751 -1.1155324 255 255 255
99.483688 -37.907036 -0.80798692 255 255 255
-4.7373371 -71.186295 -1.1693896 255 255 255
0.37050807 -68.835625 -1.1259247 255 255 255
93.006271 -42.246067 -0.86512369 255 255 255
1715.6783 351.07181 1.3320156 255 255 255
3.9803061 -68.687408 -1.1337588 255 255 255
173.2019 -28.244499 -0.74408919 255 255 255
-3.2342944 -66.221985 -1.0665272 255 255 255
163.59691 -28.371136 -0.7431221 255 255 255
-0.89413464 -66.7062 -1.1021268 255 255 255
116.05064 -37.668179 -0.79269636 255 255 255
-7.5458369 -66.091888 -1.0718362 255 255 255
12.794995 -66.324509 -1.0872213 255 255 255
-2.2112277 -68.320641 -1.1184278 255 255 255
-303.79349 -172.96172 -1.4469584 255 255 255
122.32685 -25.771267 -0.80707908 255 255 255
465.29211 26.467512 -0.40674996 255 255 255
13.959888 -75.938255 -1.2583781 255 255 255
-4.2873502 -65.194801 -1.0855796 255 255 255
-11.840837 -69.397057 -1.1266649 255 255 255
-3.9026203 -66.677368 -1.0936606 255 255 255
-4.4712977 -66.833443 -1.0877447 255 255 255
-13.037967 -68.914619 -1.123163 255 255 255
-16.642292 -68.623856 -1.1161603 255 255 255
-38.150291 -66.279182 -1.0961325 255 255 255
-11.559743 -68.958229 -1.1241078 255 255 255
1.5250387 -69.013214 -1.1299148 255 255 255
-4.8606114 -65.607193 -1.078015 255 255 255
-16.695627 -68.960243 -1.1178575 255 255 255
18809.076 5860.9492 35.41795 255 255 255
9.015892 -66.745796 -1.0923718 255 255 255
4.2600851 -68.610664 -1.1037592 255 255 255
175.04881 -28.077583 -0.74944848 255 255 255
682.07703 66.937248 -0.090232857 255 255 255
10.862318 -65.797295 -1.0789738 255 255 255
1640.2255 239.33963 0.82019049 255 255 255
-1.3489801 -65.726456 -1.086417 255 255 255
-12.966333 -66.767288 -1.0916795 255 255 255
227.38303 -17.950787 -0.73628545 255 255 255
9.849534 -65.787888 -1.0806128 255 255 255
139.11754 -28.955221 -0.73553425 255 255 255
-2.3368645 -66.838356 -1.1000808 255 255 255
141.83083 -28.928436 -0.73498929 255 255 255
23.561186 -62.724365 -1.0687647 255 255 255
-12.133811 -66.683525 -1.079869 255 255 255
4.3303528 -67.63662 -1.0992622 255 255 255
-17.88245 -68.974594 -1.1052963 255 255 255
648.33911 52.793339 -0.35975176 255 255 255
-8.3089266 -63.302921 -1.0691916 255 255 255
-224.83336 -105.71696 -1.2511882 255 255 255
281.62848 -11.808431 -0.65222031 255 255 255
182.96613 -29.029083 -0.75223976 255 255 255
250.51491 -13.549459 -0.69138235 255 255 255
-0.64215368 -61.379196 -1.0722361 255 255 255
77.991585 -35.875931 -0.8326267 255 255 255
962.68237 149.58475 0.10057924 255 255 255
315.63028 9.7439079 -0.5678488 255 255 255
21.080309 -67.995605 -1.1339657 255 255 255
-5.8405046 -66.657951 -1.0883381 255 255 255
-211.59213 -136.22214 -1.4347306 255 255 255
160.09494 -32.653252 -0.76874375 255 255 255
0.2862879 -68.661293 -1.1068081 255 255 255
-274.37274 -153.46147 -1.5553199 255 255 255
165.84419 -29.467999 -0.74650955 255 255 255
-7.7233109 -69.050949 -1.1351006 255 255 255
9.7459278 -67.462692 -1.0948341 255 255 255
3.1768336 -69.152916 -1.1187619 255 255 255
-8.6133795 -66.789177 -1.095642 255 255 255
-11.09894 -66.508224 -1.0815903 255 255 255
-0.45915869 -68.806671 -1.1152056 255 255 255
-2.2500439 -62.686619 -1.0919627 255 255 255
107.93916 -29.944212 -0.738998 255 255 255
11.883839 -63.819855 -1.0830818 255 255 255
448.59622 21.409397 -0.54593688 255 255 255
-12.400081 -66.657616 -1.0919964 255 255 255
-154.51419 -112.65222 -1.263786 255 255 255
76.130409 -49.734627 -0.93005186 255 255 255
-6.5487576 -69.37011 -1.1316774 255 255 255
-5.0862646 -71.901222 -1.1732093 255 255 255
-9.6266737 -68.421532 -1.1198997 255 255 255
1.5821408 -65.318687 -1.0807565 255 255 255
-6.4729414 -69.914139 -1.1514452 255 255 255
150.66031 -29.000429 -0.74847609 255 255 255
-5.7581778 -67.157806 -1.1014893 255 255 255
-5.0455461 -66.522743 -1.0816867 255 255 255
5.7668896 -65.5504 -1.0738295 255 255 255
159.74283 -32.783546 -0.77935553 255 255 255
-10.691631 -70.032799 -1.1494558 255 255 255
0.0092271678 -66.066368 -1.0818255 255 255 255
182.46001 -27.927034 -0.74929112 255 255 255
118.94977 -36.533768 -0.77828956 255 255 255
10.773458 -62.464577 -1.134887 255 255 255
181.00069 -31.158184 -0.77331263 255 255 255
-32.362854 -69.267929 -1.119302 255 255 255
-4.1343379 -66.689743 -1.0831727 255 255 255
181.12119 -27.947769 -0.74895805 255 255 255
-21.30858 -63.699203 -1.057071 255 255 255
-13.963964 -64.204155 -1.084903 255 255 255
-963.97681 -259.55237 -2.0802524 255 255 255
20.703753 -68.654892 -1.1384917 255 255 255
129.6376 -29.120287 -0.73039669 255 255 255
-7.4045758 -64.463783 -1.0813048 255 255 255
168.26628 -11.39237 -0.84362721 255 255 255
0.85790151 -65.972809 -1.0781176 255 255 255
160.27791 -30.479521 -0.75909245 255 255 255
114.66476 -29.67923 -0.73799264 255 255 255
18.398006 -65.691139 -1.0832198 255 255 255
147.3056 -5.1778107 -0.49532875 255 255 255
-18.06637 -71.631554 -1.1602552 255 255 255
533.74091 52.437382 -0.3339681 255 255 255
171.08189 -30.160275 -0.74445093 255 255 255
0.24624588 -67.18354 -1.0982844 255 255 255
181.6172 -27.918142 -0.7488749 255 255 255
1.9992296 -65.867073 -1.0702024 255 255 255
-16.191486 -68.111656 -1.0900034 255 255 255
131.83087 -28.994497 -0.80805892 255 255 255
-20.582491 -67.722794 -1.0870725 255 255 255
-4.1223059 -66.350967 -1.079453 255 255 255
3.5461094 -62.019661 -1.0619326 255 255 255
-5.7425275 -64.223366 -1.0834122 255 255 255
218.61214 -27.335789 -0.75988203 255 255 255
132.12062 -29.235363 -0.83594114 255 255 255
414.85318 18.695726 -0.48940191 255 255 255
0.39976373 -66.343613 -1.086726 255 255 255
-16.76582 -67.094231 -1.0933783 255 255 255
-13.220772 -67.929382 -1.1212015 255 255 255
-2.1890216 -66.357468 -1.1067146 255 255 255
-0.82232767 -70.007484 -1.1415752 255 255 255
22.497894 -67.026207 -1.1302738 255 255 255
147.33246 -31.677536 -0.75898123 255 255 255
-23.558706 -68.411949 -1.1133338 255 255 255
-6.2710166 -66.917358 -1.0832373 255 255 255
-7.5212026 -67.322586 -1.095011 255 255 255
132.95467 -29.036669 -0.73642206 255 255 255
148.06029 -30.017605 -0.75343806 255 255 255
128.09047 -32.17691 -0.75189143 255 255 255
427.96173 95.265282 -0.315934 255 255 255
-3.3413384 -67.393837 -1.1046727 255 255 255
8.5506878 -69.066147 -1.1350248 255 255 255
236.6342 -24.192745 -0.7857179 255 255 255
12.357711 -65.569756 -1.1360478 255 255 255
-5.0336123 -68.483719 -1.1077365 255 255 255
-1.2726362 -66.217911 -1.0975474 255 255 255
-4.1570287 -69.377312 -1.1437856 255 255 255
15.357935 -64.408249 -1.0696996 255 255 255
-8.1751204 -68.462875 -1.1233678 255 255 255
-444.41818 -209.19728 -1.8821912 255 255 255
181.58769 -29.631126 -0.75741661 255 255 255
1802.6101 396.02704 1.3700942 255 255 255
18.128946 -64.498146 -1.0727017 255 255 255
5.0047402 -66.471046 -1.0813323 255 255 255
547.62964 32.776154 -0.47215891 255 255 255
-1522.5074 -558.89667 -4.1518478 255 255 255
185.22467 -28.170433 -0.74748838 255 255 255
120.22684 -36.582619 -0.77624565 255 255 255
-5.4023752 -68.416924 -1.1096821 255 255 255
16.553411 -63.910782 -1.0712382 255 255 255
289.18552 11.113203 -0.52248049 255 255 255
236.14969 -18.57737 -0.67064583 255 255 255
112.30742 -43.495373 -0.87540466 255 255 255
14.578203 -66.58651 -1.0884886 255 255 255
11.575334 -65.619202 -1.1013058 255 255 255
175.56068 -32.869652 -0.78898436 255 255 255
166.28734 -34.708549 -0.82367551 255 255 255
140.17776 -28.842224 -0.73665828 255 255 255
38.641228 -58.165325 -1.0033207 255 255 255
-3.7720678 -61.508606 -1.0920213 255 255 255
-13.250874 -70.31131 -1.1599753 255 255 255
3047.7749 500.06824 2.8252907 255 255 255
-8.8767204 -68.843689 -1.1260813 255 255 255
-0.38791519 -65.050598 -1.0753396 255 255 255
-1.7937199 -66.883659 -1.097005 255 255 255
-5.3021584 -67.205788 -1.1038256 255 255 255
133.67715 -33.832333 -0.77595937 255 255 255
0.23671246 -69.710495 -1.1526548 255 255 255
29.764526 -56.483521 -1.0206751 255 255 255
88.86412 -39.397823 -0.81145877 255 255 255
-10.519335 -66.981094 -1.0935618 255 255 255
119.56105 -40.021156 -0.8290717 255 255 255
1.0657711 -68.635559 -1.1183074 255 255 255
185.65334 -29.91856 -0.76503986 255 255 255
8.8546753 -66.548004 -1.080145 255 255 255
18.654102 -64.600342 -1.0724423 255 255 255
-10.546714 -68.008995 -1.0944332 255 255 255
2.4370861 -69.561989 -1.1333343 255 255 255
334.46347 9.1780453 -0.48702779 255 255 255
169.48119 -28.257998 -0.74435216 255 255 255
2.2422605 -66.728279 -1.079525 255 255 255
2.5845022 -67.804932 -1.1030859 255 255 255
178.99596 -30.425121 -0.76427209 255 255 255
164.15617 -32.905079 -0.78911453 255 255 255
7.862452 -67.096558 -1.0940492 255 255 255
221.64255 -20.32543 -0.6726256 255 255 255
-6.190115 -66.21022 -1.0761027 255 255 255
6.8952298 -69.440315 -1.143875 255 255 255
158.50766 -28.448244 -0.73874378 255 255 255
-6.4086256 -67.295189 -1.0871319 255 255 255
-14.514695 -66.126526 -1.0865875 255 255 255
416.93051 25.841883 -0.34453377 255 255 255
1128.9268 207.37621 0.6999898 255 255 255
1335.4622 235.89188 0.62921536 255 255 255
4.983664 -65.874809 -1.0776298 255 255 255
-13.657887 -67.040939 -1.0961092 255 255 255
234.35355 -16.117243 -0.70472544 255 255 255
250.32037 27.121105 -0.74670631 255 255 255
-10.417635 -69.876152 -1.125809 255 255 255
72.049126 -49.960938 -0.89653039 255 255 255
198.69191 -31.598787 -0.78640616 255 255 255
137.03711 -32.029491 -0.79468131 255 255 255
16.484722 -61.020012 -1.0814333 255 255 255
791.37628 278.81677 0.38838032 255 255 255
163.12131 -28.152849 -0.71549118 255 255 255
3.8483598 -71.241302 -1.1868951 255 255 255
11.739607 -63.921707 -1.0604192 255 255 255
-13.352998 -65.93158 -1.0905058 255 255 255
347.32825 26.78229 -0.44874284 255 255 255
437.96732 13.78871 -0.54302889 255 255 255
-818.61737 -298.11652 -2.1021967 255 255 255
280.67776 -10.476064 -0.61661083 255 255 255
328.67499 12.230957 -0.45294434 255 255 255
-1415.4893 -449.6528 -2.8174253 255 255 255
4.0099707 -65.73085 -1.0719578 255 255 255
-17.183435 -69.468636 -1.1293085 255 255 255
29.875271 -63.060638 -1.0693672 255 255 255
-784.97345 -268.93088 -1.9081899 255 255 255
134.70341 -36.791218 -0.84455293 255 255 255
174.26968 -28.22629 -0.74420416 255 255 255
-13.407096 -67.323387 -1.0959928 255 255 255
135.52449 -35.387955 -0.78590709 255 255 255
8.8218069 -67.618118 -1.1163449 255 255 255
-3.594907 -69.813148 -1.1588604 255 255 255
13.424474 -64.347816 -1.0784602 255 255 255
124.52425 -36.307503 -0.80020797 255 255 255
862.13098 170.28506 0.022535712 255 255 255
7.0113087 -70.075897 -1.150175 255 255 255
83.019661 -48.241219 -0.89713287 255 255 255
-16.284145 -65.718681 -1.0544884 255 255 255
175.82292 -33.178806 -0.81124896 255 255 255
-14.7062 -65.065147 -1.0866127 255 255 255
7.17239 -65.239037 -1.0713261 255 255 255
-18.214544 -70.829437 -1.1379507 255 255 255
-16.049568 -64.433853 -1.0526969 255 255 255
-17.128742 -67.704559 -1.0991744 255 255 255
6.9786229 -63.920315 -1.0879331 255 255 255
-14.8728 -69.109749 -1.1425298 255 255 255
0.86906725 -70.658081 -1.1521428 255 255 255
3.1178784 -66.743652 -1.0877932 255 255 255
-18.874939 -67.546967 -1.1012529 255 255 255
354.40536 11.236874 -0.6731351 255 255 255
-15.188482 -67.988907 -1.1009439 255 255 255
-10.79087 -66.199623 -1.0836756 255 255 255
-2.963414 -66.518234 -1.0785562 255 255 255
-5.7667122 -68.174324 -1.0964215 255 255 255
-5.3845983 -66.764336 -1.0996773 255 255 255
-22.863735 -68.174652 -1.1101141 255 255 255
10.685366 -65.905922 -1.0784286 255 255 255
-4.9450598 -69.362389 -1.1327744 255 255 255
-5.7643805 -68.752396 -1.1144441 255 255 255
232.46573 -22.60288 -0.73235399 255 255 255
-3.8972368 -55.032475 -1.0740677 255 255 255
-21.051952 -70.823341 -1.1369026 255 255 255
627.65356 76.845703 -0.23402607 255 255 255
6.5903997 -67.339157 -1.0941979 255 255 255
373.77319 17.809584 -0.54658765 255 255 255
2.7923372 -66.258461 -1.0773737 255 255 255
130.60396 -29.580013 -0.72403967 255 255 255
-10.9877 -66.992378 -1.0916181 255 255 255
116.88355 -43.145264 -0.88240469 255 255 255
0.57518131 -68.781174 -1.1319271 255 255 255
-8.3404255 -65.696548 -1.0891157 255 255 255
-1.7787544 -66.531105 -1.080158 255 255 255
-20.451681 -65.035583 -1.058954 255 255 255
-10.544692 -66.72522 -1.0799948 255 255 255
-12.577727 -66.056358 -1.082031 255 255 255
-8.8135576 -69.936829 -1.1322478 255 255 255
-14.392715 -68.090942 -1.106092 255 255 255
215.32498 39.574596 -0.56848145 255 255 255
2.3031499 -69.550369 -1.1290095 255 255 255
95.541931 -46.952579 -0.87935311 255 255 255
161.00093 -28.429111 -0.73946577 255 255 255
268.49655 -3.7803032 -0.59589249 255 255 255
195.61462 -28.842815 -0.75706309 255 255 255
-3.6042376 -68.480743 -1.1200311 255 255 255
-11.237391 -69.015617 -1.1134884 255 255 255
136.52789 -28.745522 -0.74191314 255 255 255
-4.651803 -66.148285 -1.0902905 255 255 255
3.2253246 -69.634277 -1.1458323 255 255 255
-8.3056717 -67.194283 -1.0943334 255 255 255
-7.8122649 -66.739311 -1.0730423 255 255 255
1347.5957 278.51178 0.28636998 255 255 255
287.38214 -0.22789869 -0.52814001 255 255 255
-11.207569 -66.866814 -1.0879996 255 255 255
312.11063 -6.9378939 -0.71319449 255 255 255
16.967072 -65.311859 -1.0813078 255 255 255
146.74689 -28.723017 -0.73674375 255 255 255
-28.393303 -68.215347 -1.0947027 255 255 255
0.43780535 -65.999985 -1.0762899 255 255 255
12.231566 -68.93811 -1.1346467 255 255 255
32.464096 -56.809933 -0.97869611 255 255 255
183.3524 -30.795624 -0.77057803 255 255 255
-9.4635544 -66.233963 -1.0860367 255 255 255
0.91471279 -65.608551 -1.0753664 255 255 255
-11.065811 -69.338753 -1.1250352 255 255 255
-6.0376973 -67.891907 -1.0874158 255 255 255
2163.0857 468.47787 1.3880461 255 255 255
115.35285 -22.349306 -0.83563697 255 255 255
-12.554761 -66.928223 -1.0792257 255 255 255
196.97267 -28.568651 -0.75539821 255 255 255
130.90044 -36.605061 -0.79741657 255 255 255
11.619656 -62.707546 -1.0636963 255 255 255
-8.1626177 -66.7146 -1.0847626 255 255 255
148.99059 -28.690449 -0.73954499 255 255 255
7.3523021 -66.868141 -1.094512 255 255 255
177.44403 -28.986319 -0.74884248 255 255 255
-6.4707623 -69.048378 -1.1291549 255 255 255
-212.6613 -120.57147 -1.2688748 255 255 255
4.2742209 -68.619278 -1.1267945 255 255 255
107.95999 -29.942991 -0.73892462 255 255 255
-5.4724255 -69.190071 -1.1233207 255 255 255
6.2447724 -64.971222 -1.1076615 255 255 255
-3.4195232 -67.042313 -1.0720549 255 255 255
179.20003 -18.564013 -0.71193558 255 255 255
109.89324 -40.332047 -0.83988166 255 255 255
13.423784 -61.176125 -1.0679812 255 255 255
2.724072 -65.930984 -1.0820702 255 255 255
-1.423613 -69.661194 -1.1349427 255 255 255
5.7456913 -64.882484 -1.0819703 255 255 255
-0.080929264 -68.554153 -1.106811 255 255 255
-8.0759964 -66.460861 -1.0866327 255 255 255
-5.4976463 -70.241219 -1.156275 255 255 255
13.178078 -56.502022 -1.0873585 255 255 255
2.9804006 -68.374939 -1.112432 255 255 255
-8.4803972 -69.127144 -1.1220318 255 255 255
1.3569038 -67.998497 -1.1126537 255 255 255
-9.0336313 -66.272903 -1.0709921 255 255 255
123.97378 -39.462551 -0.83087337 255 255 255
138.09247 -30.185822 -0.76055098 255 255 255
-15.211179 -69.668442 -1.1195862 255 255 255
27.657473 -62.511124 -1.092239 255 255 255
17.404583 -63.59568 -1.0576376 255 255 255
1012.2223 194.40448 0.5434866 255 255 255
15.215798 -64.90477 -1.0661881 255 255 255
-1.7786989 -67.2276 -1.0841284 255 255 255
269.67096 2.8621531 -0.59980339 255 255 255
6.9547806 -66.812546 -1.0833782 255 255 255
-3.0143495 -65.92704 -1.085426 255 255 255
-4.2113895 -66.7603 -1.0906355 255 255 255
12.066124 -67.874641 -1.1054462 255 255 255
145.19289 -35.552418 -0.8028695 255 255 255
12.850673 -63.629566 -1.0562773 255 255 255
52.833733 -54.334766 -0.97336936 255 255 255
21.090193 -66.213554 -1.11696 255 255 255
864.18738 247.24432 0.115183 255 255 255
0.84303099 -68.306389 -1.1192992 255 255 255
-19.423019 -68.931877 -1.1095461 255 255 255
429.45044 26.188633 -0.47495693 255 255 255
-7.2318544 -65.695045 -1.0621881 255 255 255
-13.805593 -66.246254 -1.062904 255 255 255
134.79446 -29.063353 -0.73879743 255 255 255
-535.61115 -234.62506 -2.0014863 255 255 255
-18.912859 -67.37204 -1.0869632 255 255 255
-11.548575 -70.000313 -1.134585 255 255 255
19.676044 -63.26096 -1.056078 255 255 255
-2.6673009 -67.125587 -1.0978122 255 255 255
-7.7155967 -68.718864 -1.1121759 255 255 255
155.85626 -28.843275 -0.73653257 255 255 255
-9.1691027 -69.627441 -1.1376455 255 255 255
-2.1562395 -67.034492 -1.0944463 255 255 255
-6.9644895 -66.349854 -1.0799323 255 255 255
453.09073 29.833073 -0.42231455 255 255 255
-18.500433 -69.833321 -1.117919 255 255 255
177.685 -28.189955 -0.74511224 255 255 255
1.9840275 -70.103241 -1.1517942 255 255 255
2.2356465 -66.71804 -1.0724007 255 255 255
12756.785 3207.5933 12.42437 255 255 255
2.9507902 -66.486015 -1.0747916 255 255 255
200.13623 -30.379999 -0.77451187 255 255 255
155.1176 -39.952179 -0.88400668 255 255 255
-7.1642623 -67.258377 -1.0959563 255 255 255
2.2794003 -66.157646 -1.0805502 255 255 255
198.78474 -27.887712 -0.76229459 255 255 255
-9.4344664 -65.331398 -1.0853609 255 255 255
-18.065819 -65.447968 -1.0564198 255 255 255
153.16685 -39.614182 -0.87522936 255 255 255
12.718274 -64.245262 -1.0684192 255 255 255
-1514.3091 -441.62418 -3.395788 255 255 255
20.485952 -63.135864 -1.0517167 255 255 255
194.62268 -28.438866 -0.75314784 255 255 255
4.8265796 -65.658272 -1.0598727 255 255 255
249.86615 -17.48439 -0.65623218 255 255 255
114.0184 -38.074837 -0.82509011 255 255 255
288.03732 -7.0361352 -0.66951793 255 255 255
1.7256312 -66.04776 -1.0770355 255 255 255
-5.7676182 -66.957581 -1.1144131 255 255 255
5.5718904 -64.839027 -1.0812677 255 255 255
-10.439929 -69.15731 -1.1286088 255 255 255
-8.1360197 -68.330559 -1.1130697 255 255 255
-27.836689 -67.703445 -1.1210734 255 255 255
-10.105731 -67.817703 -1.0936733 255 255 255
4.4176507 -66.479149 -1.0973377 255 255 255
5.959671 -65.685509 -1.0678114 255 255 255
3868.9314 793.17072 5.10356 255 255 255
41.98344 -68.317078 -1.1698915 255 255 255
-13.191619 -66.529236 -1.0924865 255 255 255
10.221153 -68.311485 -1.1097273 255 255 255
-8.5219212 -71.348274 -1.1669152 255 255 255
484.3327 75.038879 -0.47424448 255 255 255
158.76608 -35.793251 -0.82808924 255 255 255
372.41568 23.366873 -0.33606443 255 255 255
-12.43223 -66.439247 -1.0893184 255 255 255
-6.017406 -62.214325 -1.0797035 255 255 255
-8.8039331 -68.930397 -1.1279179 255 255 255
289.30148 0.41767776 -0.55095476 255 255 255
11.707925 -67.157776 -1.1082057 255 255 255
-16.663301 -69.149483 -1.1271741 255 255 255
110.94011 -39.124104 -0.82456243 255 255 255
-5.8289466 -67.768028 -1.0836025 255 255 255
16.109264 -65.694359 -1.0685234 255 255 255
5.6390862 -66.908554 -1.0969378 255 255 255
13.553332 -62.441219 -1.0569571 255 255 255
2034.1029 452.50894 1.6559613 255 255 255
0.66335779 -66.902367 -1.0917927 255 255 255
767.48737 111.0081 0.15221506 255 255 255
183.73167 -29.006048 -0.75244594 255 255 255
-1.4854772 -69.927788 -1.1456184 255 255 255
218.57048 -27.341446 -0.75989276 255 255 255
-994.85443 -265.62936 -2.1113439 255 255 255
-3.1714153 -69.337799 -1.1343347 255 255 255
-14.692983 -66.6064 -1.1162007 255 255 255
-24.271942 -67.541473 -1.104865 255 255 255
136.95377 -35.479694 -0.78111219 255 255 255
-0.117189 -65.726189 -1.0993119 255 255 255
163.17624 -29.569183 -0.74588102 255 255 255
828.3429 120.73175 -0.03828172 255 255 255
-5.4420934 -66.050827 -1.0886858 255 255 255
128.42715 -29.165829 -0.73067844 255 255 255
14.215 -64.972549 -1.0876542 255 255 255
140.74352 -28.918022 -0.73508161 255 255 255
16.000586 -64.21656 -1.0835259 255 255 255
223.16011 -4.0871015 -0.61782819 255 255 255
-2.2634842 -67.80732 -1.1070281 255 255 255
1695.7294 343.78363 0.95432919 255 255 255
17.556835 -65.70462 -1.081764 255 255 255
11.237929 -66.417976 -1.0925326 255 255 255
-7.7081437 -64.628471 -1.0614212 255 255 255
241.04315 -16.494926 -0.76091307 255 255 255
-7.7032728 -68.386528 -1.1065595 255 255 255
596.38849 47.229889 -0.36661169 255 255 255
-17.995785 -63.157242 -1.0725857 255 255 255
17.877024 -65.160179 -1.0739462 255 255 255
2.7698336 -70.046021 -1.1575942 255 255 255
-17.016747 -69.505562 -1.1278769 255 255 255
-9.8498592 -75.026085 -1.2632784 255 255 255
6.7587228 -67.561493 -1.1294724 255 255 255
-1.9934913 -68.774567 -1.1320745 255 255 255
-14.678212 -66.161484 -1.0799633 255 255 255
405.73608 29.619436 -0.52406186 255 255 255
174.47522 -28.086201 -0.74909425 255 255 255
-11.713574 -66.774017 -1.0915964 255 255 255
-3.2011738 -68.098518 -1.1188916 255 255 255
8.3613157 -66.693398 -1.0940552 255 255 255
-11.048613 -66.975922 -1.0885056 255 255 255
9.2698879 -66.723709 -1.0910916 255 255 255
177.12 -29.575903 -0.75408113 255 255 255
5.843811 -59.240162 -1.0778626 255 255 255
154.33351 -30.776777 -0.73358363 255 255 255
-0.11155626 -66.583054 -1.0782527 255 255 255
-7.7928596 -66.70842 -1.0845549 255 255 255
1.5332454 -64.966164 -1.0745229 255 255 255
480.70117 49.11763 -0.39188305 255 255 255
-3.5229037 -66.147797 -1.0846188 255 255 255
-0.073816583 -66.501472 -1.0744386 255 255 255
199.34175 -30.349272 -0.77378446 255 255 255
-19.280565 -67.651779 -1.0956235 255 255 255
187.72392 -28.276791 -0.74893832 255 255 255
6.0638876 -63.842781 -1.0710294 255 255 255
1231.7985 278.65707 1.0255233 255 255 255
889.61053 130.53847 0.011875513 255 255 255
19.021296 -66.442581 -1.0948168 255 255 255
-22.995707 -67.168724 -1.0867708 255 255 255
0.39536157 -65.351738 -1.0597354 255 255 255
-6.073823 -66.608131 -1.0863651 255 255 255
-4.0038548 -67.870522 -1.1094761 255 255 255
2.9324491 -65.763321 -1.0718777 255 255 255
-6.8200846 -68.343903 -1.1013341 255 255 255
542.97607 35.414688 -0.3484517 255 255 255
379.41318 94.676216 -0.54780364 255 255 255
16.284912 -65.302544 -1.0786524 255 255 255
174.69209 -24.12879 -0.67966628 255 255 255
-13.001504 -67.155235 -1.0959065 255 255 255
-25.221384 -71.142311 -1.1573083 255 255 255
125.80544 -39.683491 -0.83783585 255 255 255
-216.49162 -133.6031 -1.285867 255 255 255
-5.7110057 -68.760429 -1.1147212 255 255 255
17.128777 -65.546257 -1.0664892 255 255 255
15.960487 -66.236 -1.0866348 255 255 255
212.55475 -28.062719 -0.75868261 255 255 255
-11.625435 -68.478096 -1.1188649 255 255 255
-0.4167743 -67.279289 -1.0837439 255 255 255
-4.2900543 -68.016716 -1.1148903 255 255 255
-7.0374455 -68.042747 -1.1098192 255 255 255
3.4477849 -62.131447 -1.100183 255 255 255
181.60852 -29.484619 -0.75595981 255 255 255
-13.049507 -65.127403 -1.1029128 255 255 255
158.56541 -32.286201 -0.79465127 255 255 255
15.040247 -68.922195 -1.1291741 255 255 255
4.4237504 -65.006592 -1.0572622 255 255 255
2.9193325 -65.488075 -1.0634357 255 255 255
