ply
format ascii 1.0
comment PCL generated
element vertex 951
property float x
property float y
property float z
property uchar red
property uchar green
property uchar blue
element face 0
element camera 0
property float view_px
property float view_py
property float view_pz
property float x_axisx
property float x_axisy
property float x_axisz
property float y_axisx
property float y_axisy
property float y_axisz
property float z_axisx
property float z_axisy
property float z_axisz
property float focal
property float scalex
property float scaley
property float centerx
property float centery
property int viewportx
property int viewporty
property float k1
property float k2
end_header
-0.22522439 -0.031232392 -0.0012355025 255 255 255
-0.41849369 0.00502676 -0.00067280635 255 255 255
-0.14891435 0.083009213 -0.00086516707 255 255 255
-0.34004396 0.96983373 0.0011150003 255 255 255
-0.2158345 0.58700866 4.0069393e-05 255 255 255
-0.32538599 0.098289251 -0.00056107395 255 255 255
-0.22182707 0.56490457 4.0689233e-06 255 255 255
-0.21035838 0.25209174 -0.00053638598 255 255 255
-0.14587514 -0.30908325 -0.0013111846 255 255 255
-0.23082368 0.17365919 -0.00064449635 255 255 255
-0.38377732 -0.070732951 -0.00071290549 255 255 255
-0.4392941 -0.10884327 -0.0011367723 255 255 255
-0.32895505 0.14228265 -0.00046664427 255 255 255
-0.34148192 0.37688032 -0.00030530395 255 255 255
-0.43342534 -0.0172254 -0.00066929345 255 255 255
-0.41677198 0.80637532 0.0006622746 255 255 255
-0.39990553 -0.40054199 -0.0010177094 255 255 255
-0.27253145 -0.031105023 -0.0011836174 255 255 255
-0.22446559 -0.19124503 -0.0017335466 255 255 255
-0.33903134 0.97164768 0.0011135505 255 255 255
-0.62071347 -0.37961665 -0.0011891309 255 255 255
-0.20323065 0.1284043 -0.00087089586 255 255 255
-0.22327413 -0.10375548 -0.0014505921 255 255 255
-0.37413415 0.27912751 -0.0004513211 255 255 255
-0.3083536 0.01248526 -0.00079600938 255 255 255
-0.26621419 0.76194537 0.00043048759 255 255 255
-0.2758835 0.96449769 0.00089308398 255 255 255
-0.20903413 0.23653358 -0.00058662047 255 255 255
-0.3984122 1.3412051 0.0023213888 255 255 255
-0.4404664 0.051927634 -0.00063978176 255 255 255
-0.3244074 -0.25031897 -0.001387142 255 255 255
-0.1780819 0.12585354 -0.0010293929 255 255 255
-0.28736576 0.32208151 -0.00034409101 255 255 255
-0.45207721 0.032260451 -0.00062525459 255 255 255
-0.20966636 0.0031681762 -0.0011505228 255 255 255
-0.36297691 0.18094845 -0.00048518734 255 255 255
-0.22517228 0.57611763 2.2326294e-05 255 255 255
-0.40525284 1.3778355 0.0024543088 255 255 255
-0.26220703 0.011280163 -0.00073025998 255 255 255
-0.19189611 -0.40396231 -0.0023010075 255 255 255
-0.21724087 0.52371925 -6.9073489e-05 255 255 255
-0.22518343 -0.031756133 -0.0012359081 255 255 255
-0.36673048 -0.095493972 -0.0010177563 255 255 255
-0.33969536 0.97231227 0.0011185159 255 255 255
-1.1204946 -1.2035714 -0.0022427081 255 255 255
-1.6399823 -1.5157139 -0.0026204253 255 255 255
-0.21700522 0.52168357 -7.2611394e-05 255 255 255
-0.24236928 0.062434752 -0.00065312366 255 255 255
-0.18509136 -0.16790259 -0.00099085877 255 255 255
-0.21127504 -0.62538421 -0.0033486839 255 255 255
-0.22276871 -0.46648818 -0.0027768377 255 255 255
-0.32787564 0.51424807 -0.00022456012 255 255 255
-0.28340909 0.50696361 -0.00014486449 255 255 255
-0.54419726 -0.042696945 -0.00080997701 255 255 255
-0.32784656 -0.13464946 -0.00097665377 255 255 255
-0.39757246 0.17568994 -0.00044810015 255 255 255
-0.22896332 -0.3343915 -0.0022837855 255 255 255
0.19341622 -0.95159441 -0.0024302516 255 255 255
-0.21024425 0.25568911 -0.00052959437 255 255 255
-0.21016039 0.25647107 -0.00052839553 255 255 255
-0.45992208 0.10712065 -0.00063548645 255 255 255
-0.12372115 0.67808837 0.00022106715 255 255 255
-0.44003475 0.023443097 -0.00084250909 255 255 255
-0.34154657 0.13077235 -0.00057075266 255 255 255
-0.26170394 0.067544408 -0.00098077348 255 255 255
-0.45049468 0.87554085 0.00088636926 255 255 255
-0.58803272 -0.24745265 -0.0010693413 255 255 255
-0.24119197 0.10319375 -0.00083729054 255 255 255
-0.24564469 0.16384766 -0.00065260433 255 255 255
-0.26966065 -0.10683112 -0.00085831719 255 255 255
-0.42248976 1.4918375 0.0028552681 255 255 255
-0.34471044 -0.080944732 -0.0012303328 255 255 255
-0.29982167 -0.014612759 -0.0011147854 255 255 255
-0.65147775 -0.064721018 -0.0010443657 255 255 255
-0.40512896 -0.11374048 -0.00073698937 255 255 255
-0.19474092 -0.22815999 -0.0017742999 255 255 255
-0.29621622 0.41392291 -0.00021996351 255 255 255
-0.40496388 -0.041777097 -0.001029265 255 255 255
-0.27694061 0.78784978 0.00049077597 255 255 255
-0.36881518 0.14058395 -0.00046082598 255 255 255
-0.63842118 -0.32973266 -0.0010617614 255 255 255
27.342838 49.855671 0.076463871 255 255 255
-0.2067893 -0.015235488 -0.0012031846 255 255 255
-0.84508729 -0.68540668 -0.0017169017 255 255 255
-0.27845186 0.46091563 -0.00014868446 255 255 255
-0.23198278 0.063019238 -0.00096024037 255 255 255
-0.21447928 0.17506656 -0.00069966842 255 255 255
-0.78695774 -0.56678599 -0.0013039903 255 255 255
-0.2894612 -0.13849477 -0.001188283 255 255 255
-0.44436908 0.022389349 -0.00070129713 255 255 255
-0.26769522 0.02977981 -0.0011446829 255 255 255
-0.23497863 0.17655455 -0.00062723062 255 255 255
-0.24721065 0.82984161 0.00058303756 255 255 255
-0.35745654 -0.6016928 -0.0015406135 255 255 255
-0.19489458 -0.38250145 -0.0022465254 255 255 255
-0.39193916 0.095067114 -0.00057960785 255 255 255
-0.33588931 0.15825778 -0.00066791754 255 255 255
-0.40445724 0.26562497 -0.00041675067 255 255 255
-0.31742731 -0.26465443 -0.0017830842 255 255 255
-0.27618736 0.78018594 0.00047210604 255 255 255
-0.21524969 0.5866828 3.8669194e-05 255 255 255
-0.16598241 0.62576723 0.00016873401 255 255 255
-0.25264135 0.76340413 0.00042033318 255 255 255
-0.21435887 -0.043702148 -0.0012706572 255 255 255
-0.6247279 -0.17350577 -0.00095822476 255 255 255
-0.20667508 0.30696926 -0.00047466083 255 255 255
-0.22581351 0.0061432286 -0.0011258121 255 255 255
-0.35430026 1.2637668 0.0018159006 255 255 255
-0.33998865 0.96976143 0.0011149362 255 255 255
0.31600317 -5.6267629 -0.015429181 255 255 255
-0.24764945 0.15577261 -0.00067641615 255 255 255
-0.17832635 -0.043690875 -0.00083517149 255 255 255
-0.34059417 0.97765708 0.001135276 255 255 255
-0.47101781 -0.00013803286 -0.00064917258 255 255 255
-0.21575528 -0.066133395 -0.0013330546 255 255 255
-0.25423801 0.91014779 0.00076243927 255 255 255
-0.36759183 0.032830093 -0.00062703417 255 255 255
-0.26343364 -0.13397957 -0.0018611609 255 255 255
-0.89561445 -0.89663553 -0.0016162473 255 255 255
-0.22782211 0.56315458 -8.6807204e-06 255 255 255
-0.2770505 0.78745544 0.00048997527 255 255 255
-0.22169323 -0.47630063 -0.0028115467 255 255 255
-0.87503028 -0.12276247 -0.0012908531 255 255 255
-0.23083292 0.61181206 9.0914997e-05 255 255 255
0.63502246 3.5914087 0.0051805167 255 255 255
-0.41515481 -0.015359352 -0.00070682552 255 255 255
-0.20667797 0.31019542 -0.00046951126 255 255 255
-0.27154675 0.52162087 -0.00011409381 255 255 255
-0.38493809 -0.055146489 -0.00096045545 255 255 255
-0.2203363 0.14536025 -0.00075279904 255 255 255
-0.29141021 0.90094185 0.0007770104 255 255 255
-0.38738608 -0.010156485 -0.00069176691 255 255 255
-0.21322457 0.60943025 8.9139605e-05 255 255 255
-0.21036373 0.25220716 -0.00053632347 255 255 255
-0.4832536 0.09071143 -0.00072811235 255 255 255
-0.09614563 0.67296082 0.00028827786 255 255 255
-0.36033285 0.3290168 -0.00041046599 255 255 255
-0.3073037 -0.0039821467 -0.00095106853 255 255 255
-0.29718187 0.0059401812 -0.00058996485 255 255 255
-0.27190846 -0.2491364 -0.0011683828 255 255 255
-0.35647157 1.2783355 0.0018592175 255 255 255
-0.20297433 -0.38160309 -0.0013570974 255 255 255
-0.39172304 0.11537719 -0.00062805001 255 255 255
-0.2205801 0.58579212 4.2153006e-05 255 255 255
-0.20790842 0.23156905 -0.00060850423 255 255 255
-0.42188981 0.048679784 -0.00069800956 255 255 255
-0.25444105 0.1336513 -0.00074780855 255 255 255
-0.099659674 0.70675355 0.00036126326 255 255 255
-0.3455039 -0.23683347 -0.0011505139 255 255 255
-0.21692301 -0.07340692 -0.0010317644 255 255 255
-0.22377749 0.57062447 6.0917978e-06 255 255 255
-0.21585234 -0.33922535 -0.0022106394 255 255 255
-0.29055837 -0.17719281 -0.0012243646 255 255 255
-0.31306797 -0.032296818 -0.00087008119 255 255 255
-0.23256154 -0.13976564 -0.00099389604 255 255 255
-0.2086833 0.39030835 -0.00031745105 255 255 255
-0.37620556 0.084822856 -0.00060455274 255 255 255
-0.10621883 2.8729045 0.0068652979 255 255 255
-0.45886615 -0.090141863 -0.00076930301 255 255 255
-0.26080805 0.51853698 -8.1910752e-05 255 255 255
-0.12077574 0.65025032 0.00022375608 255 255 255
-0.23129451 0.065796085 -0.00095257611 255 255 255
-0.42311573 0.81156254 0.00067988905 255 255 255
-0.20873055 0.39101774 -0.00031655133 255 255 255
-0.50917649 -0.40902731 -0.0014020849 255 255 255
-0.073933847 -0.074300133 -0.00097387505 255 255 255
-0.38810119 0.065444425 -0.0006057914 255 255 255
-0.27981389 -0.17884889 -0.0010856221 255 255 255
-0.24429442 0.079843298 -0.00090883032 255 255 255
-0.4501259 0.023383491 -0.00068657548 255 255 255
0.37868321 -6.2816801 -0.017114591 255 255 255
-0.21298808 0.49077645 -0.00012113509 255 255 255
-0.098157004 -0.6051625 -0.001233351 255 255 255
-0.16869575 0.040988341 -0.00080051186 255 255 255
-0.21317871 0.49258003 -0.00011812381 255 255 255
-1.0401129 -0.9673844 -0.002015522 255 255 255
-0.49227911 0.06345471 -0.00074377976 255 255 255
-0.07825359 0.7314288 0.00037644233 255 255 255
-0.22943045 0.55732292 -2.2678723e-05 255 255 255
-0.85555387 -1.1482399 -0.0021165907 255 255 255
-0.23880877 1.1291431 0.0016040712 255 255 255
-0.21164291 0.43793193 -0.00023431792 255 255 255
-0.2443635 -0.32789129 -0.0025055106 255 255 255
-0.3590706 -0.18277155 -0.0013140908 255 255 255
-0.34250388 -0.10195582 -0.0012051882 255 255 255
-0.53790492 -0.18156655 -0.0024964819 255 255 255
-0.46339861 0.11085984 -0.00061537419 255 255 255
-0.24539472 0.16476695 -0.00065013458 255 255 255
-0.22842239 0.1753839 -0.00064605975 255 255 255
-0.33230063 0.5096159 -0.00021764927 255 255 255
-0.16180274 -0.22964914 -0.0010947359 255 255 255
-0.22287366 -0.22845535 -0.0018511842 255 255 255
-0.13949434 0.69324416 0.00025580605 255 255 255
-0.44558045 -0.041242618 -0.0010424878 255 255 255
-0.74888682 -0.60019201 -0.0012299182 255 255 255
-0.1954049 0.017954675 -0.00078379916 255 255 255
-0.24004583 0.023018017 -0.0010807137 255 255 255
-0.46413833 0.4134759 -0.00050230225 255 255 255
-0.37270102 -0.31153822 -0.00098247128 255 255 255
-0.24073388 0.13452731 -0.00074390718 255 255 255
0.02274199 -0.80192381 -0.0020090973 255 255 255
-0.2303745 0.60915399 8.5758955e-05 255 255 255
-0.27247277 -0.29652175 -0.0012616237 255 255 255
-0.35775369 1.2859815 0.0018806751 255 255 255
-0.37399963 -0.16468523 -0.0011142702 255 255 255
-0.10262962 0.69580704 0.00029016822 255 255 255
-0.22232249 0.60839736 7.8339326e-05 255 255 255
-0.2757788 0.77931964 0.00046924438 255 255 255
-0.32446167 -0.11691424 -0.00090870727 255 255 255
-0.2233886 0.13193901 -0.00068298937 255 255 255
-0.20949994 0.0050526359 -0.0011456817 255 255 255
-0.40446225 -0.089106917 -0.00075458683 255 255 255
-0.21485309 0.62308246 0.00011126838 255 255 255
-0.45877084 0.25165156 -0.00062460813 255 255 255
-0.21241754 0.43307829 -0.0002571714 255 255 255
-4.4129438 -5.8400502 -0.0099132294 255 255 255
-0.27583727 0.78242648 0.00047631183 255 255 255
-0.15403818 0.63863397 0.00017193658 255 255 255
-0.23268729 0.55295146 -3.3126675e-05 255 255 255
-0.25029859 0.076433934 -0.00092494948 255 255 255
-0.26327446 -0.13602059 -0.0018646491 255 255 255
-0.48850828 0.029197237 -0.00063567597 255 255 255
-0.7005561 -0.16509752 -0.0010752379 255 255 255
-0.35330841 1.2570422 0.0017958572 255 255 255
-0.72116899 -0.4037987 -0.0012171338 255 255 255
-0.77106923 -0.79812419 -0.0015767198 255 255 255
-0.75837821 -0.17109624 -0.0011576952 255 255 255
-0.34710148 0.064217143 -0.00090430619 255 255 255
-0.37540078 0.034901209 -0.00082196842 255 255 255
-0.39941487 1.3444821 0.0023349267 255 255 255
-0.24923804 0.066869617 -0.00095459708 255 255 255
-0.64554328 0.1324542 -0.00074454513 255 255 255
-0.14283028 0.66785306 0.00027915966 255 255 255
-0.30919552 0.016830901 -0.0008134541 255 255 255
-0.2589964 -0.10338756 -0.00093819416 255 255 255
-0.22438779 0.54040122 -5.0885777e-05 255 255 255
-0.23623836 0.11956108 -0.00079193403 255 255 255
-0.28871441 -0.058024641 -0.00082800526 255 255 255
-0.32929653 0.24052025 -0.00062255189 255 255 255
-0.25085613 0.53893536 -7.3462259e-05 255 255 255
-0.19073376 -0.17168725 -0.0016182413 255 255 255
-0.50866079 0.050362021 -0.00066796329 255 255 255
-0.20556909 0.10148937 -0.00092014857 255 255 255
-0.76592517 -0.78266132 -0.0015567264 255 255 255
-0.22229739 0.21107832 -0.00056729524 255 255 255
-0.22607349 0.18747397 -0.00061889167 255 255 255
-0.22839095 0.052336216 -0.00099277357 255 255 255
-0.2280554 -0.0092490185 -0.0011717681 255 255 255
-0.55565041 -0.19773215 -0.00098303019 255 255 255
-0.81026816 -0.4501594 -0.0013251629 255 255 255
-0.24881752 0.0020361969 -0.00098966644 255 255 255
-0.52920055 -0.097470671 -0.00088640384 255 255 255
-0.43689278 0.2054839 -0.00055546331 255 255 255
-0.33966202 0.17768373 -0.00045094333 255 255 255
-0.34116068 0.044484921 -0.0006062825 255 255 255
-0.3724848 -0.018318202 -0.00061021198 255 255 255
-0.23599848 -0.20437531 -0.0010485571 255 255 255
-0.22558936 0.061971541 -0.00096833467 255 255 255
-0.51738626 0.00066284562 -0.00075570395 255 255 255
-0.39681998 0.24224083 -0.00043774713 255 255 255
-0.23523851 0.097073823 -0.00085846131 255 255 255
-0.35763836 0.33220756 -0.00036193509 255 255 255
-0.31632754 0.39864761 -0.00029161671 255 255 255
-0.23578446 0.01111014 -0.0010849879 255 255 255
-0.23683278 0.06172213 -0.00096246763 255 255 255
-0.86915517 -0.20233904 -0.0012726019 255 255 255
-0.20652676 0.32898968 -0.00047011446 255 255 255
-0.28216293 0.19773833 -0.00064911949 255 255 255
-0.31339309 0.36160916 -0.00031988963 255 255 255
-0.20221809 0.22455296 -0.00068665674 255 255 255
-0.27163309 -0.29690975 -0.0011947982 255 255 255
-0.31612304 -0.16424011 -0.00095758011 255 255 255
-0.25512132 0.69433576 0.00025814338 255 255 255
-0.23116402 0.51418465 -6.4515123e-05 255 255 255
-0.31801197 0.25235626 -0.00038267611 255 255 255
-0.37817198 0.094385944 -0.00055972522 255 255 255
-0.20630261 0.32446536 -0.00047743396 255 255 255
-0.45021537 -0.22800373 -0.00095240911 255 255 255
-0.23807275 0.21775931 -0.00061400078 255 255 255
-0.2585803 0.076663569 -0.00094143028 255 255 255
-0.27679941 -0.014608131 -0.001110721 255 255 255
-0.34946927 0.10031669 -0.00053968822 255 255 255
-0.33753422 0.24109061 -0.00063618238 255 255 255
-0.22326659 0.18292388 -0.00064121973 255 255 255
-0.30274799 -0.066185154 -0.001163888 255 255 255
-0.68360734 -0.40629637 -0.0011499466 255 255 255
-0.34985587 0.10108707 -0.00055738777 255 255 255
-0.36620826 -0.37448066 -0.0014548164 255 255 255
-0.12846921 -0.02731251 -0.00096714991 255 255 255
-0.20608133 0.22325785 -0.00064631843 255 255 255
-0.3665368 -0.15854366 -0.0010246033 255 255 255
-0.28018287 -0.016648412 -0.0013496929 255 255 255
-0.20577468 -0.23975758 -0.0012491014 255 255 255
-0.36691713 -0.062486332 -0.0010489929 255 255 255
-0.21704337 -0.10620078 -0.0014497428 255 255 255
-0.1920463 0.601282 9.309587e-05 255 255 255
-0.067000054 0.70040494 0.00035161499 255 255 255
-0.36055267 -0.12244339 -0.0011661013 255 255 255
-0.33206698 -0.066797368 -0.0012533347 255 255 255
-0.34534493 0.10202878 -0.0010061134 255 255 255
-0.078228511 0.99420416 0.0011583 255 255 255
-0.30120301 0.37703371 -0.00024481287 255 255 255
-0.37269816 0.0046392549 -0.00093580998 255 255 255
-0.20543443 -0.053017579 -0.00078722741 255 255 255
-0.33480254 0.068930529 -0.00053323858 255 255 255
-0.014363279 -0.38903198 -0.0033861457 255 255 255
-0.23330258 0.13079809 -0.00076305569 255 255 255
-0.11478925 -0.14080882 -0.0013539068 255 255 255
-0.24075837 -0.15944867 -0.0011042742 255 255 255
-0.3675012 0.029751975 -0.00087789615 255 255 255
-0.38269338 0.27168214 -0.00045654495 255 255 255
-0.55347592 -0.107036 -0.00083753484 255 255 255
-0.20926929 0.0985227 -0.00091147074 255 255 255
-0.26622811 0.75533396 0.00040432569 255 255 255
-0.66421896 -0.36631227 -0.0011227052 255 255 255
-0.40731731 0.025130764 -0.00081016507 255 255 255
-0.35891598 0.14862828 -0.00058110809 255 255 255
-0.078905098 0.082447819 -0.0009788021 255 255 255
-0.3281002 -0.12077425 -0.00091759412 255 255 255
-0.44693291 -0.026975812 -0.00076988537 255 255 255
0.59468037 2.0139914 0.0022108424 255 255 255
-0.24945377 -0.15422548 -0.0010660354 255 255 255
-0.40262228 -0.020071648 -0.00064869114 255 255 255
-0.2261087 0.5655489 -1.4608089e-06 255 255 255
-0.23814055 0.064402826 -0.00095426675 255 255 255
-0.25104508 0.22500944 -0.00063222699 255 255 255
-0.29204404 -0.2053268 -0.0011134922 255 255 255
-0.45502838 -0.054519117 -0.0010507441 255 255 255
-0.2148601 0.58316606 4.3789503e-05 255 255 255
-0.2937068 0.39361054 -0.00024677464 255 255 255
-0.40726185 -0.11091487 -0.001229836 255 255 255
-0.20933436 0.5044598 -0.00022059637 255 255 255
-0.25010249 0.47130695 -0.00015584969 255 255 255
-0.34601721 -0.042467657 -0.00086686545 255 255 255
-0.17606671 0.88597345 0.00091259967 255 255 255
-0.086846054 0.98257911 0.0011606704 255 255 255
-0.21687582 0.19208631 -0.00064451277 255 255 255
-0.23782709 -0.018297704 -0.00079608243 255 255 255
-0.32776606 0.37867352 -0.0002998831 255 255 255
-0.48957551 0.13310963 -0.00067610864 255 255 255
-0.84392923 -0.26289979 -0.0012923012 255 255 255
-0.31877717 0.38830259 -0.00030998531 255 255 255
-0.053354651 -0.017881753 -0.00137195 255 255 255
-0.37573731 -0.40728328 -0.0015898367 255 255 255
-0.40191972 -0.075789228 -0.00070840196 255 255 255
-0.22755593 0.17306605 -0.00065483054 255 255 255
-0.38865077 -0.077498898 -0.0006727787 255 255 255
-0.44473049 0.1174968 -0.00067022542 255 255 255
-0.3153348 -0.28456217 -0.0008552408 255 255 255
-0.41014355 0.096307315 -0.00079274765 255 255 255
-0.36177519 0.18994032 -0.00048776509 255 255 255
-0.11276159 0.67224544 0.00026598066 255 255 255
2.0780907 4.3941531 0.0059043821 255 255 255
-0.38943279 -0.030111445 -0.00059255032 255 255 255
-0.24313971 0.051806584 -0.00099505752 255 255 255
-0.74115038 -0.26884219 -0.0012638407 255 255 255
0.4508518 2.4934604 0.0026248419 255 255 255
-0.38531107 0.44404468 -0.00038926787 255 255 255
-0.25823686 -0.084175155 -0.0015253716 255 255 255
-0.7117011 -0.4187113 -0.0011743421 255 255 255
-0.23664328 0.0057947212 -0.0007260103 255 255 255
-0.34891808 0.15539742 -0.00050512323 255 255 255
-0.49451584 -1.2227496 -0.0024589149 255 255 255
-0.3806867 0.047081601 -0.00058572862 255 255 255
-0.35752153 0.09581884 -0.00086462748 255 255 255
-0.33613086 0.15112466 -0.00050602143 255 255 255
-0.6630531 -0.18549001 -0.0010083677 255 255 255
-0.35213691 0.053345662 -0.00085962692 255 255 255
-0.32720158 1.4524471 0.0019079135 255 255 255
-0.24683429 0.15624984 -0.0006753311 255 255 255
-0.31001082 0.11449408 -0.00047191774 255 255 255
-0.48016903 0.03546812 -0.00066263421 255 255 255
-0.39652491 0.05522855 -0.00062252645 255 255 255
-0.36234742 0.20638543 -0.00042720337 255 255 255
-0.2523903 0.4225269 -0.00018002233 255 255 255
-0.24892201 -0.069196314 -0.00091150589 255 255 255
-0.41417867 0.43927956 -0.00042986256 255 255 255
-0.3397066 0.31586283 -0.00069898588 255 255 255
-0.35190141 0.41375577 -0.00028447551 255 255 255
-0.21429248 -0.36149809 -0.0022852775 255 255 255
-0.26659766 0.49630594 -0.00012812138 255 255 255
-0.76761562 -3.6649768 -0.0057777655 255 255 255
-0.54289025 0.094427399 -0.00080557476 255 255 255
-0.21408711 0.20263597 -0.00063237926 255 255 255
-0.20677207 0.33354262 -0.00046282576 255 255 255
-0.21120729 0.2428775 -0.00055132987 255 255 255
-0.39361852 -0.060768217 -0.00097195862 255 255 255
-0.25106406 -0.36200759 -0.0013691216 255 255 255
-0.43206394 -0.17436531 -0.0015081626 255 255 255
-0.22840001 0.17596124 -0.00064418552 255 255 255
-0.38897637 0.036434256 -0.00086527754 255 255 255
-0.5054183 -0.1228723 -0.00089325989 255 255 255
-0.28023729 1.1737059 0.0021422505 255 255 255
-0.44352332 -0.16744865 -0.00085626909 255 255 255
-0.18636554 -1.6150032 -0.002658403 255 255 255
-0.68301696 -0.024130005 -0.00096463703 255 255 255
-0.36649162 0.1439037 -0.0007160714 255 255 255
-0.24177259 -0.057641495 -0.0013425524 255 255 255
-0.40095413 -0.13449134 -0.0010349535 255 255 255
-0.25020233 0.073737733 -0.00093407807 255 255 255
-0.22472277 0.57319975 1.6932081e-05 255 255 255
-0.28357744 -0.17895906 -0.00077368924 255 255 255
-0.34517321 -0.19473299 -0.001348159 255 255 255
-0.4143889 -0.051506326 -0.0010471969 255 255 255
-0.3390969 0.96779299 0.0011054123 255 255 255
-0.32865652 0.27362895 -0.00037495969 255 255 255
-0.2340395 -0.12883219 -0.0015582613 255 255 255
-0.18847013 -0.058140956 -0.0013471217 255 255 255
-0.28322408 0.44731998 -0.00019725277 255 255 255
-0.34234756 0.23998922 -0.00050807977 255 255 255
0.0048097861 -2.6792371 -0.0039037643 255 255 255
-0.63924539 -0.50547475 -0.0012977695 255 255 255
-0.58785188 -0.45885569 -0.0012055159 255 255 255
-0.53684968 0.2994864 -0.00068598543 255 255 255
-0.35429111 0.10774837 -0.0005155878 255 255 255
-0.22075124 -0.36672032 -0.0023506589 255 255 255
-0.37125415 0.26706335 -0.00038728473 255 255 255
-0.21485704 0.22150292 -0.00057830987 255 255 255
-0.20709588 0.36556223 -0.00031904402 255 255 255
-0.23311248 0.17385992 -0.00063897314 255 255 255
-0.41789681 0.45708829 -0.00040163458 255 255 255
-0.51245189 0.11675039 -0.00076554203 255 255 255
-0.34224373 0.1861272 -0.00047641664 255 255 255
-0.2157899 0.21148311 -0.00059970352 255 255 255
-0.63583052 -6.255342 -0.0095630065 255 255 255
-0.4305217 -0.0050604995 -0.0010622792 255 255 255
-0.3942599 0.0031180377 -0.00058113522 255 255 255
-0.30566931 0.43781108 -0.00021051306 255 255 255
-0.23409224 0.017953664 -0.00092151674 255 255 255
-0.2517724 0.0007698008 -0.00084081903 255 255 255
-0.70771009 -0.40633544 -0.0010870424 255 255 255
-0.22590604 0.58111739 3.1112275e-05 255 255 255
-0.48586255 -0.43056878 -0.0011609042 255 255 255
-0.57482255 -0.17645383 -0.00088683673 255 255 255
-0.32719737 0.090140685 -0.00075901439 255 255 255
-0.21516727 0.21517879 -0.00059287751 255 255 255
-0.32630178 -0.37355798 -0.0011531812 255 255 255
-0.33287525 0.19426869 -0.00040810416 255 255 255
-0.29240274 -0.11789726 -0.0010899936 255 255 255
-0.36678094 -0.3399584 -0.00093218754 255 255 255
-0.22816558 0.19797549 -0.00058237195 255 255 255
-0.21172866 -0.61971289 -0.003326742 255 255 255
-0.081384562 0.97521162 0.001143458 255 255 255
-0.31425545 -0.037431628 -0.00060738839 255 255 255
-0.33905014 0.35433978 -0.00028364806 255 255 255
-0.18967667 -0.028432684 -0.0012776449 255 255 255
-0.23850702 0.11013852 -0.00081775198 255 255 255
-0.19644891 0.10870997 -0.00095669396 255 255 255
-0.28959376 0.068990186 -0.00052186265 255 255 255
-0.41385281 0.80301458 0.00065031485 255 255 255
-0.22402488 -0.0054770759 -0.00089797785 255 255 255
-0.45470819 0.17273025 -0.00061435933 255 255 255
0.19670862 -2.7543688 -0.0045740162 255 255 255
-0.43210801 0.027659571 -0.00069805537 255 255 255
-0.6327191 -0.26724732 -0.0010494214 255 255 255
-0.21729182 0.16506299 -0.00071276602 255 255 255
-0.399818 -2.0876439 -0.0033794811 255 255 255
-0.18678978 -0.1097557 -0.0014681483 255 255 255
-0.33960792 0.0089445114 -0.0012906088 255 255 255
-0.20896523 0.034696348 -0.00072936271 255 255 255
-0.36454171 -0.062653765 -0.00060021196 255 255 255
-0.22739343 0.10672503 -0.00067119632 255 255 255
-0.367167 0.038651891 -0.00060545054 255 255 255
-0.17996536 -0.10957953 -0.0010251427 255 255 255
-0.32095397 0.11321111 -0.00047505597 255 255 255
-0.23338884 0.065371029 -0.000952603 255 255 255
-0.27798572 -0.035723343 -0.00086039066 255 255 255
-0.36637032 0.17900571 -0.00047250453 255 255 255
-0.26261452 0.094708495 -0.00089027209 255 255 255
-0.26330715 -0.1355591 -0.0018635334 255 255 255
-0.26854795 -0.16459177 -0.001145618 255 255 255
-0.27741519 0.79156637 0.00050003332 255 255 255
-0.24595039 0.16611309 -0.000645586 255 255 255
-0.27685523 0.78776979 0.00049053424 255 255 255
-0.4849095 0.095766209 -0.00066152622 255 255 255
-0.2827172 0.43518645 -0.00016488043 255 255 255
-0.24519731 0.15568069 -0.00067763071 255 255 255
-0.3593379 0.1466689 -0.00045358014 255 255 255
-0.32642299 0.23858042 -0.00062779221 255 255 255
-0.32438651 0.046877809 -0.0011722726 255 255 255
-0.12168121 0.7165063 0.00031992604 255 255 255
-0.5466556 -0.45637307 -0.0011548287 255 255 255
-0.47753111 0.29954937 -0.00059292279 255 255 255
-0.38640389 0.31428668 -0.00040983086 255 255 255
-0.27965897 1.2508762 0.0017495597 255 255 255
-0.20914905 0.23492368 -0.00058938138 255 255 255
-0.22766006 0.17313951 -0.00065482024 255 255 255
-0.43821198 -0.29554975 -0.0013983836 255 255 255
-0.22831909 0.17600341 -0.00064434088 255 255 255
-0.42969221 0.30210602 -0.0004267882 255 255 255
-0.10482924 0.72085226 0.00042001158 255 255 255
-0.33958238 0.97223651 0.0011185795 255 255 255
-0.072954349 0.69171029 0.00032232128 255 255 255
-0.15713067 1.3659676 0.003043063 255 255 255
-0.27355552 0.05492337 -0.00076971517 255 255 255
-0.13859008 1.0408381 0.0014841193 255 255 255
-0.24627239 -0.041033875 -0.001302532 255 255 255
-0.27572057 0.96390104 0.0008917207 255 255 255
-0.48482403 -0.13429207 -0.0008112556 255 255 255
-0.4083837 -0.22465049 -0.0016589623 255 255 255
-0.27630424 0.78350931 0.00047977871 255 255 255
-0.22869098 -0.3349444 -0.0022850519 255 255 255
-0.47404057 -0.05125175 -0.00077649287 255 255 255
-0.19188425 0.0032027287 -0.0011991534 255 255 255
-0.25217041 0.0053719385 -0.00096682936 255 255 255
-0.2243059 -0.19145477 -0.0017344733 255 255 255
-0.70298392 -0.94620907 -0.0017210265 255 255 255
-0.70852679 -0.36175653 -0.0010223461 255 255 255
-0.24864389 -0.18820779 -0.001054035 255 255 255
-0.24577448 0.1637148 -0.00065269688 255 255 255
-0.26231736 0.14306608 -0.00064909126 255 255 255
-0.27065864 0.74007922 0.00037155044 255 255 255
-0.2634272 -0.13395391 -0.0018615503 255 255 255
-0.33885273 0.97299021 0.001114422 255 255 255
-0.87150413 -0.55820006 -0.0015097882 255 255 255
-0.28605711 0.18225391 -0.00040770936 255 255 255
-0.8790651 -0.25295514 -0.0013661504 255 255 255
-0.86026692 -0.72547531 -0.0016155158 255 255 255
-0.22333615 -0.18862689 -0.0017209018 255 255 255
-0.20557083 0.10092883 -0.00092163536 255 255 255
-0.48999402 -0.0086160824 -0.0011320764 255 255 255
-0.27535456 0.78185344 0.00047496989 255 255 255
-0.24520928 0.16670693 -0.00064416096 255 255 255
-0.81226766 -0.72264063 -0.0018638896 255 255 255
-0.12905701 0.65781891 0.00021487015 255 255 255
-0.86615014 -0.5149951 -0.0014270819 255 255 255
-0.032513294 0.74207598 0.00038294116 255 255 255
-0.71211904 -0.19193797 -0.0010305949 255 255 255
-0.24605815 0.15870076 -0.00066825247 255 255 255
-0.1123553 0.67283827 0.00026864425 255 255 255
-0.3136051 1.3471515 0.0018086268 255 255 255
-0.24607848 0.045907538 -0.0010165789 255 255 255
-0.30393523 0.46822983 -0.000180096 255 255 255
-0.23592782 0.54477727 -5.5873017e-05 255 255 255
-0.084760658 0.82772648 0.00084646192 255 255 255
-0.22199956 -0.47584477 -0.002811094 255 255 255
-0.33995846 0.97001088 0.001115175 255 255 255
-0.2454294 0.16470674 -0.00065020821 255 255 255
-0.22557896 -0.16543333 -0.0012969318 255 255 255
-0.24704669 0.081425428 -0.0009062374 255 255 255
-0.21487215 0.22142678 -0.00057840435 255 255 255
-0.40203431 -0.05391594 -0.00069449953 255 255 255
-0.12340993 -1.7722305 -0.0041718069 255 255 255
-0.41173807 -0.26625136 -0.0011130547 255 255 255
-0.077130385 2.0953193 0.0040053367 255 255 255
-0.57870066 -0.31778038 -0.0011603464 255 255 255
-0.26955003 -0.015169323 -0.0013424492 255 255 255
-0.23170795 0.065874606 -0.00095233851 255 255 255
-0.56643963 -0.11513066 -0.0009297842 255 255 255
-0.42822742 0.085649095 -0.00088882656 255 255 255
-0.087806091 3.1678064 0.0051678238 255 255 255
-0.23402466 -0.12866025 -0.0015581399 255 255 255
-0.38604206 1.2682871 0.0020637512 255 255 255
-1.0295067 -0.91787481 -0.0016903552 255 255 255
-0.12907024 -0.15712014 -0.00095941103 255 255 255
-0.49680433 0.1204227 -0.00074003608 255 255 255
-0.070468731 0.76454347 0.00052543823 255 255 255
-0.23157771 0.017498832 -0.001093398 255 255 255
-0.24721521 0.080770202 -0.00090800709 255 255 255
-0.34770513 -0.01917378 -0.0011244251 255 255 255
-0.24928357 0.066677541 -0.00095512549 255 255 255
-0.35950097 0.093259394 -0.00075026706 255 255 255
-0.3484078 0.50514519 -0.00023052897 255 255 255
-0.57835478 -0.32286108 -0.0010652699 255 255 255
-0.15625107 0.62245744 0.00016098855 255 255 255
-0.36249086 0.31345642 -0.00032193979 255 255 255
-0.3383086 0.96696198 0.0010996083 255 255 255
-0.35224357 0.1368974 -0.00053406163 255 255 255
-0.27562177 0.78187317 0.00047529634 255 255 255
-0.23189087 0.062913299 -0.0009599906 255 255 255
-0.32127219 1.0119776 0.0011175623 255 255 255
-0.12238429 0.65606046 0.00024304721 255 255 255
-0.24729848 0.49780008 -8.8922978e-05 255 255 255
-0.14271113 -0.16396011 -0.0010899128 255 255 255
-0.23301779 0.098715924 -0.00085565384 255 255 255
-0.47007269 0.014357041 -0.00076483435 255 255 255
-0.21444461 2.0178082 0.0040768562 255 255 255
-0.40704399 0.050565254 -0.00067664467 255 255 255
-0.21565938 -0.19262651 -0.0017112015 255 255 255
-0.21192925 -0.11149853 -0.0010663564 255 255 255
-0.23911846 0.64404982 0.00015099306 255 255 255
-0.37738007 -0.16254473 -0.0011369261 255 255 255
-0.23599574 -0.1473265 -0.0013710974 255 255 255
-0.50251544 0.014302332 -0.00070901896 255 255 255
-0.40169191 0.18682498 -0.00058451283 255 255 255
-0.84236431 -0.53802067 -0.0014042802 255 255 255
-0.25267521 0.53678304 -8.0080004e-05 255 255 255
-0.20847522 0.40643275 -0.00026772724 255 255 255
-0.32780874 -0.1746874 -0.0012365321 255 255 255
-0.6582399 0.0079702279 -0.00089397922 255 255 255
-0.22071996 -0.21811263 -0.0018091106 255 255 255
-0.25816286 0.07204248 -0.00095528993 255 255 255
-0.25314355 0.06756869 -0.00095833058 255 255 255
-0.35936633 0.1811659 -0.00044885158 255 255 255
-0.13719341 0.70613909 0.00027891365 255 255 255
-0.33904803 0.9717024 0.0011134595 255 255 255
-0.74969113 -0.47768953 -0.0012712164 255 255 255
-0.75571483 -0.1296443 -0.0012369273 255 255 255
-0.40231106 -0.40243772 -0.001344962 255 255 255
-0.23055083 0.55950701 -1.157164e-05 255 255 255
-0.21427734 -0.043589752 -0.0012703503 255 255 255
-0.14823417 0.64429784 0.00019996216 255 255 255
0.018156515 0.91756725 0.00060262822 255 255 255
-0.36768377 0.29399294 -0.00042776871 255 255 255
-0.21118955 0.24297786 -0.00055113045 255 255 255
-0.18931343 -0.038065325 -0.0013010701 255 255 255
-0.22951217 0.55553561 -2.3891189e-05 255 255 255
-0.21676551 -0.18000259 -0.0016728267 255 255 255
-0.28051597 0.49574006 -0.00024117455 255 255 255
-0.32529154 0.19721641 -0.00079699082 255 255 255
-0.24621613 0.065790661 -0.00095411553 255 255 255
-0.10344155 0.76020402 0.0004731224 255 255 255
9.3733072 16.431166 0.024707371 255 255 255
-0.21720588 0.52347505 -6.951586e-05 255 255 255
2.5606298 5.1363034 0.007116945 255 255 255
-0.48698005 0.028248262 -0.00072221586 255 255 255
-0.22365235 -0.45635641 -0.0027407282 255 255 255
-0.87420857 -0.33610237 -0.0013807087 255 255 255
-0.41948006 0.05731573 -0.001138638 255 255 255
-0.38320839 0.031828117 -0.00062274927 255 255 255
-0.41708007 0.22361585 -0.00049367681 255 255 255
-0.43819669 0.011905087 -0.00061375863 255 255 255
-0.36736187 0.032400195 -0.00062763615 255 255 255
-0.25017697 -0.15157656 -0.0012387499 255 255 255
-0.69940621 0.043631323 -0.0010087786 255 255 255
-0.21704049 0.52199787 -7.2078663e-05 255 255 255
-0.24834646 0.075070359 -0.00092684227 255 255 255
-0.41223928 0.079611018 -0.00058736478 255 255 255
-0.19298024 0.60463762 8.6581269e-05 255 255 255
-0.23106864 0.16962595 -0.0006553859 255 255 255
-0.052519418 -1.8391256 -0.0064422074 255 255 255
-0.53224659 -0.14233108 -0.00086815911 255 255 255
-0.32495537 0.003783176 -0.00085927587 255 255 255
-0.28266126 1.017732 0.0013283433 255 255 255
-0.39795914 1.335288 0.0022979686 255 255 255
-0.24182495 0.68497473 0.0002442954 255 255 255
-0.33811167 0.098505929 -0.00045137911 255 255 255
-0.17947458 0.61587524 0.00013553006 255 255 255
-0.22590402 0.58112895 3.113136e-05 255 255 255
-0.34825847 -0.13641945 -0.0011015263 255 255 255
-0.51369083 0.0585155 -0.00068767928 255 255 255
-0.22513615 0.57587022 2.1870164e-05 255 255 255
-0.36689082 -0.14006655 -0.0010784381 255 255 255
-0.40807638 -0.14259641 -0.00097354676 255 255 255
0.49496639 11.404943 0.015295297 255 255 255
-0.32919818 -0.032949984 -0.00098783337 255 255 255
-0.19481409 -0.22797477 -0.0017745869 255 255 255
-0.47355697 -0.017052971 -0.00073108933 255 255 255
-0.70510089 -0.48945934 -0.0013554416 255 255 255
-0.21470359 -0.14203934 -0.0013162587 255 255 255
-0.94430453 -0.99224311 -0.0019115423 255 255 255
-0.55677277 -0.15421961 -0.0011724368 255 255 255
-0.19047906 -0.17103213 -0.0016161248 255 255 255
-0.24935327 0.054762699 -0.0007398884 255 255 255
-0.24558945 0.16573666 -0.00064687402 255 255 255
-0.34006119 0.97970694 0.0011357649 255 255 255
-0.19244021 0.0012906631 -0.00084215606 255 255 255
-0.27630687 0.7842837 0.00048152986 255 255 255
-0.39770842 0.34542918 -0.00052782521 255 255 255
-0.37930539 0.19910426 -0.00044799421 255 255 255
-0.19238664 0.05390035 -0.00079078291 255 255 255
-0.32685116 0.35435951 -0.00034757203 255 255 255
-0.30535382 0.058403201 -0.00098328583 255 255 255
-0.21675141 0.19211683 -0.00064465578 255 255 255
-0.37420812 -0.16499653 -0.0011504827 255 255 255
-0.27798656 0.45307609 -0.0001867164 255 255 255
-0.42827663 0.015355988 -0.0006214077 255 255 255
-0.27772152 0.7900008 0.00049675745 255 255 255
-0.27689812 0.78794461 0.00049086247 255 255 255
-0.9909355 -0.69345611 -0.0018222921 255 255 255
-0.088153891 0.0021723702 -0.00089421408 255 255 255
-0.22593178 0.0063568419 -0.0011260769 255 255 255
-0.13927196 0.242272 -0.00062458316 255 255 255
-0.19077933 -0.17241222 -0.0016198305 255 255 255
-0.30694947 0.11251885 -0.00064271293 255 255 255
-0.21299915 0.49086592 -0.00012094018 255 255 255
-0.34075972 0.97764432 0.0011352274 255 255 255
-0.23112865 0.07081636 -0.00093745097 255 255 255
-0.10018685 0.67817605 0.00028854687 255 255 255
-0.36582655 0.26425734 -0.00044957385 255 255 255
-0.35567677 0.11844442 -0.0005429989 255 255 255
-0.2071088 0.36494637 -0.00031967965 255 255 255
-0.22623871 0.57343113 9.9838298e-06 255 255 255
-0.19046906 -0.22599079 -0.0017612639 255 255 255
-0.20712905 0.3664467 -0.000317136 255 255 255
-0.39970574 0.1870787 -0.00044172595 255 255 255
-0.31943053 1.0522497 0.0011996309 255 255 255
-1.1627439 -1.2312398 -0.0019785031 255 255 255
-0.34248734 0.069579653 -0.00053556327 255 255 255
-1.0188966 -0.63395673 -0.0016822958 255 255 255
-0.12562513 -0.0343289 -0.00092765334 255 255 255
-0.25009409 0.055332426 -0.00099281641 255 255 255
-0.33877859 0.97427708 0.0011181646 255 255 255
-0.2360163 0.11655071 -0.00080084539 255 255 255
-1.5002005 -5.9557629 -0.0086772023 255 255 255
-0.35421106 1.2634145 0.0018146697 255 255 255
0.025620626 0.85168505 0.00067193818 255 255 255
-0.27922988 0.53709602 -8.7298293e-05 255 255 255
-0.2774958 -0.21365044 -0.0011661691 255 255 255
-0.24683937 0.41361243 -0.0002825128 255 255 255
-0.20905347 0.23676912 -0.00058616465 255 255 255
-0.26415703 0.37603751 -0.00024317039 255 255 255
-0.25476208 0.042538501 -0.00052252313 255 255 255
-0.24921356 -0.27720112 -0.0022944191 255 255 255
-0.44967699 -0.0057019829 -0.00071460992 255 255 255
-0.33528289 0.31045237 -0.00048805797 255 255 255
-0.41389087 0.04766161 -0.0012799294 255 255 255
-0.67408139 -4.3668938 -0.0078946361 255 255 255
-0.20234299 0.2247214 -0.00068619603 255 255 255
-0.20667346 0.30746594 -0.00047377555 255 255 255
-0.51180792 -0.066840328 -0.00076817774 255 255 255
-0.78925741 -0.18074177 -0.0011998467 255 255 255
-0.87798864 -0.47927037 -0.0013759758 255 255 255
-0.24607038 0.15964951 -0.00066546508 255 255 255
-0.24316292 0.55395705 -3.6798821e-05 255 255 255
-0.77096885 -0.79810095 -0.0015768872 255 255 255
-0.50225091 -0.049804587 -0.00079053792 255 255 255
-0.21988739 -0.10656637 -0.0010231038 255 255 255
-0.41141391 1.4204638 0.0026025211 255 255 255
-1.1286821 -1.21525 -0.0022594128 255 255 255
-0.34857759 0.18100648 -0.00080430985 255 255 255
-0.98105109 -0.89327121 -0.0018188744 255 255 255
-0.45664841 0.088887781 -0.00069713272 255 255 255
-0.30014402 -0.14785141 -0.0010331586 255 255 255
-0.4024508 -0.095015429 -0.00089660706 255 255 255
-0.23240377 0.066005722 -0.00095095125 255 255 255
-0.21157895 0.43746993 -0.00023456592 255 255 255
-0.21964808 0.17204408 -0.00068521471 255 255 255
-0.29264697 0.53156245 -0.00016189191 255 255 255
-0.23050138 -0.016504114 -0.001194326 255 255 255
-0.3811155 0.012459598 -0.00078842748 255 255 255
-0.63841486 -0.30440509 -0.0012281513 255 255 255
-0.29147416 0.9011395 0.00077737449 255 255 255
-0.24082558 0.1254843 -0.00077088323 255 255 255
0.19689474 -0.95814306 -0.0020817849 255 255 255
-0.27704871 0.78762263 0.00049031753 255 255 255
-0.1782632 -0.31403193 -0.0011862986 255 255 255
-0.98827267 -0.92451102 -0.0017959811 255 255 255
-0.49413332 -0.12962869 -0.00088134129 255 255 255
-0.41542384 0.043776993 -0.00064023823 255 255 255
-0.5368647 0.29934266 -0.00068616861 255 255 255
-0.24379927 0.059539068 -0.00097181642 255 255 255
-0.64163721 -0.27566078 -0.0010653418 255 255 255
-0.21850938 -0.18816367 -0.0017042061 255 255 255
-0.32188034 0.080668047 -0.00086527015 255 255 255
-0.25173429 -2.9873474 -0.0061220485 255 255 255
-0.16190512 0.78057361 0.0003032691 255 255 255
-0.20348893 -0.22772221 -0.0011564267 255 255 255
-0.50579828 0.048305389 -0.00072850706 255 255 255
-0.45396292 -0.27974254 -0.00093353551 255 255 255
-0.59278589 -0.14331427 -0.00092603936 255 255 255
-0.21014453 0.23362754 -0.0005833357 255 255 255
-0.45509064 -0.2518768 -0.0013202272 255 255 255
-0.22272402 0.19930871 -0.00059773162 255 255 255
-0.048186265 2.1455696 0.0042748479 255 255 255
-0.41269603 -0.11900565 -0.00070405955 255 255 255
-0.29104754 0.89893526 0.00077176292 255 255 255
-0.23891665 0.17848173 -0.00061528484 255 255 255
-0.21048053 0.25241932 -0.00053594285 255 255 255
-0.23494297 0.5459953 -4.6208388e-05 255 255 255
-0.063186869 0.69967747 0.00030818064 255 255 255
-0.45174551 0.15010291 -0.00062663737 255 255 255
-0.20979264 -0.13826177 -0.0011151917 255 255 255
-0.38102105 0.4415296 -0.00038716744 255 255 255
-0.18747838 0.61496228 0.00010832252 255 255 255
-0.35440275 1.2671835 0.0018237951 255 255 255
-0.23212123 -0.097004697 -0.00092604849 255 255 255
-0.41587701 0.16598934 -0.00052339589 255 255 255
-0.47145534 0.0426373 -0.00074214645 255 255 255
-0.21564189 -0.066158809 -0.0013329511 255 255 255
-0.24874751 -0.094997875 -0.00094747765 255 255 255
-0.623999 -0.14446399 -0.00097725773 255 255 255
-0.3338953 0.16673647 -0.00064936629 255 255 255
-0.33501923 0.010132256 -0.00058924803 255 255 255
-0.24600822 0.15992336 -0.00066463475 255 255 255
-0.22756612 -0.13309102 -0.00086515734 255 255 255
-0.31674334 0.27126485 -0.00033235588 255 255 255
-0.39363524 0.079694949 -0.00061968557 255 255 255
-0.063780822 0.038799256 -0.0010573633 255 255 255
-0.31546235 -0.18967235 -0.0012906729 255 255 255
-0.22360004 0.18957201 -0.00062197697 255 255 255
-0.21022913 0.25660494 -0.00052811624 255 255 255
-0.25176084 0.75831693 0.00040883853 255 255 255
-0.18069018 0.64439237 0.00016699276 255 255 255
-0.85481912 -1.1480756 -0.0021157442 255 255 255
-0.40241915 -0.093765184 -0.0010792023 255 255 255
-0.53445667 -0.098194502 -0.00084235624 255 255 255
-0.451244 -0.088564985 -0.00073293591 255 255 255
-0.24115264 0.10314075 -0.00083739875 255 255 255
-0.24053572 -0.094748944 -0.0014653933 255 255 255
-0.18807359 -0.078931294 -0.0013954274 255 255 255
-0.66304183 -0.18563099 -0.0010086236 255 255 255
-0.53419834 -0.28626922 -0.0012688434 255 255 255
-0.21474327 0.18036275 -0.00068500056 255 255 255
-0.40446743 0.47043541 -0.00030242375 255 255 255
-0.23342326 0.55167365 -3.6141475e-05 255 255 255
-0.42578 0.052260626 -0.00063977716 255 255 255
-0.26474968 -0.14452386 -0.00090650009 255 255 255
-0.21327712 0.22579157 -0.00057765644 255 255 255
-0.15438978 0.64286929 0.00015142794 255 255 255
-0.38552788 0.3092846 -0.00046651432 255 255 255
-0.26790357 0.033222727 -0.001131636 255 255 255
-0.34017521 -0.11926511 -0.00089951558 255 255 255
-0.41430748 0.069995187 -0.00062021799 255 255 255
-0.21992992 -0.59441245 -0.0033179363 255 255 255
-0.25059 0.18635219 -0.00066878099 255 255 255
-0.24653623 0.16395335 -0.00065199868 255 255 255
-0.20708597 0.36550587 -0.00031918095 255 255 255
-0.41992983 0.21316816 -0.00050427607 255 255 255
-0.27641323 0.78418285 0.00048144898 255 255 255
-0.2797825 0.39746079 -0.00031152013 255 255 255
-0.29012468 -0.27428544 -0.0011788295 255 255 255
-0.25821084 0.07776846 -0.00071189058 255 255 255
-0.50060809 -0.10501588 -0.00085888989 255 255 255
-0.46155852 0.12913108 -0.00070364791 255 255 255
-0.4943465 0.39919066 -0.00090003916 255 255 255
-0.39148897 -0.038640372 -0.00069374347 255 255 255
-0.14619705 -0.19921301 -0.00099424901 255 255 255
-0.51347166 0.017898032 -0.00075326412 255 255 255
-0.16229236 0.62084013 0.00012925813 255 255 255
-0.46662489 0.013927636 -0.00064362684 255 255 255
-0.30679917 0.089899071 -0.00077050622 255 255 255
-0.21113893 0.2326044 -0.00057736231 255 255 255
24.823931 45.354755 0.069335327 255 255 255
-0.60457277 -0.10540257 -0.00087092759 255 255 255
-0.24461675 0.16059196 -0.00066286849 255 255 255
-0.42696664 0.067298338 -0.00068999938 255 255 255
-0.38269651 -0.19898909 -0.0010922391 255 255 255
-0.34488869 0.067674458 -0.0005621328 255 255 255
-0.36466381 -0.23106621 -0.00086141843 255 255 255
-0.28319788 -0.17081414 -0.001032616 255 255 255
-0.27571699 0.77894419 0.00046845939 255 255 255
-0.29396266 -0.15800895 -0.001085105 255 255 255
-0.0067492318 0.91426951 0.00078219839 255 255 255
-0.19265631 0.057914283 -0.00090704893 255 255 255
-0.33564106 -0.12711354 -0.0012160473 255 255 255
-0.3772918 -0.041857067 -0.00091936736 255 255 255
-0.23925634 0.092896774 -0.00070642348 255 255 255
-0.2559126 -0.30933174 -0.0011013463 255 255 255
-0.22613394 0.14697878 -0.00073118834 255 255 255
-0.71586317 -3.0275402 -0.0041901297 255 255 255
-0.21356864 0.061267909 -0.000992232 255 255 255
-0.2204202 -0.59029198 -0.0033098811 255 255 255
-0.34146598 -0.16236198 -0.0010308386 255 255 255
-0.4395363 -0.10859098 -0.00076177873 255 255 255
-0.35917908 0.02217151 -0.00062600756 255 255 255
-0.90093422 -0.34758475 -0.0013762387 255 255 255
-0.35288751 1.2661022 0.0018131781 255 255 255
-0.35097772 0.027608296 -0.00060240162 255 255 255
-0.38525227 0.051408581 -0.00066000409 255 255 255
0.29023409 -1.2914898 -0.0021758489 255 255 255
-1.0112644 -0.94262195 -0.0019666823 255 255 255
-0.22593187 0.58126503 3.1373089e-05 255 255 255
-0.47791517 -0.062150884 -0.00080714689 255 255 255
-0.58797389 -0.24761534 -0.0010695427 255 255 255
-0.27768445 0.78981596 0.0004963461 255 255 255
-0.33112934 0.51260138 -0.00022251136 255 255 255
-0.52712357 -0.32608196 -0.0011147145 255 255 255
-0.26354745 -0.13395596 -0.0018618727 255 255 255
-0.21011239 0.2564235 -0.0005283943 255 255 255
-0.45067921 -0.01172246 -0.00089884177 255 255 255
-0.20910367 0.3069813 -0.00040961753 255 255 255
-0.37465879 0.47742453 -0.00033819987 255 255 255
-1.0084431 -0.88891774 -0.0016515289 255 255 255
-1.0291961 -1.0903431 -0.0020776081 255 255 255
-0.16707888 0.6257093 0.0001683509 255 255 255
-0.27409703 0.9559229 0.00087211339 255 255 255
-0.25177592 0.75853968 0.00040938635 255 255 255
-0.23192139 0.062906891 -0.00095986808 255 255 255
-0.2444147 -0.32784227 -0.0025048959 255 255 255
-0.21944997 0.57809097 2.1475833e-05 255 255 255
-0.27554527 0.7789036 0.00046819492 255 255 255
-0.22320506 -0.36600435 -0.0023558284 255 255 255
-0.26904392 0.37475604 -0.00028071913 255 255 255
-0.39801964 1.3347313 0.0022972808 255 255 255
-0.23752871 0.067686252 -0.00094490824 255 255 255
-0.53540903 -0.31474501 -0.0009936475 255 255 255
-0.37077117 0.057276115 -0.00053272641 255 255 255
-0.45762581 0.24165596 -0.0025661779 255 255 255
-0.14700349 0.63714945 0.00017751788 255 255 255
-0.36617562 0.15669395 -0.00072858721 255 255 255
-0.20669831 0.30960983 -0.0004705296 255 255 255
-0.33898786 0.96503949 0.0010978816 255 255 255
-0.44827712 -0.13108367 -0.0010828599 255 255 255
-0.20832597 -0.1640135 -0.0010727909 255 255 255
-0.23198542 0.066641793 -0.00094917824 255 255 255
-0.34918332 -0.25838897 -0.0011658224 255 255 255
-0.21427003 -0.043500122 -0.0012702387 255 255 255
-0.30901027 -0.015294062 -0.00061110937 255 255 255
-0.65271741 -0.3480916 -0.0011004552 255 255 255
-0.20924269 0.23533688 -0.00058858743 255 255 255
-0.27657089 0.78230846 0.00047747267 255 255 255
-0.21582232 0.21162853 -0.00059943012 255 255 255
-0.21722269 0.52347094 -6.9517519e-05 255 255 255
-0.14707278 -0.019075742 -0.0010828294 255 255 255
-0.25111905 0.22870453 -0.00034298547 255 255 255
-0.28148848 0.48872578 -0.00025006759 255 255 255
-0.24547999 0.16450763 -0.00065050903 255 255 255
-0.46695679 2.2160816 0.0044890707 255 255 255
-0.80754435 -0.79596901 -0.0015828117 255 255 255
-0.26359922 0.015148128 -0.0011758227 255 255 255
-0.27295923 0.18175118 -0.00072595221 255 255 255
-0.21167549 0.4382022 -0.00023384127 255 255 255
-0.38260907 0.071129858 -0.00065074832 255 255 255
-0.57729143 0.25842467 -0.00081157207 255 255 255
-1.1915408 -0.6736446 -0.0019309523 255 255 255
-0.62750232 -0.140652 -0.00095335941 255 255 255
-0.24603908 0.15983723 -0.00066468999 255 255 255
-0.21585953 -0.066538908 -0.0013343862 255 255 255
-0.31057149 -2.9699669 -0.0067845657 255 255 255
-0.18614578 -0.14270325 -0.0015469718 255 255 255
0.31297192 -5.5906329 -0.015341857 255 255 255
-0.51274258 -0.15758993 -0.00087229774 255 255 255
-0.27555954 0.78237057 0.00047621949 255 255 255
-0.24178101 0.68474787 0.00024389851 255 255 255
-0.8191722 -1.0970438 -0.0020274022 255 255 255
-0.37913847 0.1318174 -0.00046683513 255 255 255
-0.21203291 0.60051101 9.3077033e-05 255 255 255
-0.38649288 -0.32107645 -0.00097105146 255 255 255
-1.040676 -0.68999416 -0.0016686328 255 255 255
-0.27558237 0.9630307 0.00088974647 255 255 255
-0.21833563 -0.18777069 -0.0017029882 255 255 255
-0.21679422 0.52502912 -0.00013611228 255 255 255
-0.40705803 0.086253159 -0.00055656116 255 255 255
-0.31210971 0.52443182 -0.00016290313 255 255 255
-0.61817372 -0.1176838 -0.00090934365 255 255 255
-0.48567304 -0.065367877 -0.00076998444 255 255 255
-0.70493776 -0.71323329 -0.0014401512 255 255 255
-0.28245515 -0.14800321 -0.0011265262 255 255 255
-0.2962063 -0.28093055 -0.0010668531 255 255 255
-0.27050337 0.73287868 0.00037462846 255 255 255
-0.31921956 1.0512145 0.001196655 255 255 255
0.36181089 -6.1165066 -0.016709346 255 255 255
-0.33996654 0.96977699 0.0011149824 255 255 255
-0.20921272 0.23440111 -0.0005908343 255 255 255
-0.14605282 0.64686495 0.00020498892 255 255 255
-0.26123366 -0.10939287 -0.0010061675 255 255 255
-0.6114583 0.072036736 -0.00094876083 255 255 255
-0.84522104 -2.9363141 -0.0050388486 255 255 255
-0.22955786 0.55973577 -1.1767056e-05 255 255 255
-0.83485657 -0.46387821 -0.0014108092 255 255 255
-0.19498499 -0.37762019 -0.0022326284 255 255 255
-0.70546812 -0.48982346 -0.0013558463 255 255 255
-0.84608072 -0.68830806 -0.0017208541 255 255 255
-0.71837682 -0.74985194 -0.0014763757 255 255 255
-0.25256664 0.76291621 0.00041918011 255 255 255
-0.21018364 -0.15728012 -0.0015915455 255 255 255
-0.23442294 0.55884266 -2.0107133e-05 255 255 255
-0.54069012 0.025246006 -0.00083691865 255 255 255
-1.0720828 -1.1538037 -0.0021709865 255 255 255
-0.30622819 0.087282389 -0.00052929885 255 255 255
