ply
format ascii 1.0
comment PCL generated
element vertex 1107
property float x
property float y
property float z
property uchar red
property uchar green
property uchar blue
element face 0
element camera 0
property float view_px
property float view_py
property float view_pz
property float x_axisx
property float x_axisy
property float x_axisz
property float y_axisx
property float y_axisy
property float y_axisz
property float z_axisx
property float z_axisy
property float z_axisz
property float focal
property float scalex
property float scaley
property float centerx
property float centery
property int viewportx
property int viewporty
property float k1
property float k2
end_header
-481.50119 -1328.1261 -3.1613154 255 255 255
688.36676 1357.8107 2.6215594 255 255 255
448.17401 441.42654 0.73449218 255 255 255
-795.16333 -1888.6158 -4.5726533 255 255 255
-818.73767 -1201.3859 -2.8741996 255 255 255
839.75208 2310.3098 3.3930295 255 255 255
-3384.2729 -3848.6292 -12.407081 255 255 255
921.44019 3113.1006 3.8221483 255 255 255
2000.7841 2167.771 3.4659731 255 255 255
1128.4575 2571.4167 4.5249438 255 255 255
-509.09686 -493.97055 -1.7898353 255 255 255
-1633.9286 -3367.5945 -4.7900972 255 255 255
2127.8018 2490.5291 3.59444 255 255 255
4778.604 3094.0659 4.7137251 255 255 255
896.95746 1214.5338 3.2456717 255 255 255
1295.1373 766.414 2.551538 255 255 255
3251.0588 4752.3667 9.3514481 255 255 255
404.6358 544.93909 1.3154399 255 255 255
444.7334 1306.6968 2.5986621 255 255 255
4263.8672 5759.9658 13.526024 255 255 255
509.09772 794.61609 1.9808286 255 255 255
-378.11865 -316.84753 -1.9278713 255 255 255
1396.2832 750.74554 2.8711166 255 255 255
833.05945 1120.6777 2.4088016 255 255 255
-428.93393 -775.94965 -1.8837243 255 255 255
-1340.6416 -1839.0184 -4.551095 255 255 255
613.83344 1436.6875 2.7315626 255 255 255
-183070.61 -270994.19 -692.36475 255 255 255
-3103.7019 -6355.6128 -13.420856 255 255 255
676.2326 391.7623 0.79353303 255 255 255
-2142.3162 -3727.8757 -8.5025997 255 255 255
814.6795 4062.0642 5.6345224 255 255 255
1024.2119 1571.4806 2.860482 255 255 255
1103.6509 986.61786 2.557894 255 255 255
435.56058 356.35339 1.3962599 255 255 255
1188.5928 1769.2432 2.0312383 255 255 255
2068.344 2140.1111 3.4862831 255 255 255
-3462.0312 -5602.8296 -12.943643 255 255 255
588.50671 1017.5096 2.2645943 255 255 255
24220.406 25699.074 67.378922 255 255 255
1280.4274 777.39062 2.539974 255 255 255
660.40826 870.80377 2.1201887 255 255 255
864.71155 2446.2703 3.4791787 255 255 255
431.52112 263.06635 0.93033099 255 255 255
1265.0906 1818.8351 3.0473275 255 255 255
4792.561 3095.2268 4.7206383 255 255 255
1066.2847 681.01733 1.9712217 255 255 255
-3652.9036 -3988.6687 -10.456698 255 255 255
517.48041 699.00793 1.8654066 255 255 255
1126.4248 1994.6429 3.0892992 255 255 255
-1251.6858 -2610.0703 -5.5406613 255 255 255
452.79327 1132.674 2.3883085 255 255 255
529.92609 551.15967 1.7013921 255 255 255
-8229.7598 -12874.03 -41.475266 255 255 255
454.5947 386.36618 1.157205 255 255 255
1449.9583 1420.7069 3.791568 255 255 255
683.42627 2637.3772 3.6865382 255 255 255
6222.8833 6027.333 9.0071602 255 255 255
4908.9878 14621.283 22.129662 255 255 255
-1144.7009 -1560.0468 -3.7767203 255 255 255
1269.6136 709.79156 2.5174732 255 255 255
-663.51447 -2778.7236 -6.103364 255 255 255
1327.9912 1081.024 2.6765809 255 255 255
1280.3693 685.97864 2.5210857 255 255 255
325.67706 492.48209 2.1919312 255 255 255
1240.3827 749.37848 2.4955692 255 255 255
237.39352 1247.8522 2.6334939 255 255 255
1338.9589 994.59302 2.6346602 255 255 255
-969.41833 -1252.2336 -3.0178056 255 255 255
-4621.5469 -5365.9614 -13.091715 255 255 255
1152.6765 1620.6868 2.8683634 255 255 255
194.75908 593.33533 1.0884144 255 255 255
537.41516 863.69226 2.0717976 255 255 255
578.9892 727.31232 1.2161982 255 255 255
4651.7852 3227.344 4.6296215 255 255 255
-354.69852 -742.09387 -2.0777199 255 255 255
1496.8134 1476.6741 2.9936028 255 255 255
1415.4423 1182.6272 2.8197906 255 255 255
678.75903 2718.551 3.7393832 255 255 255
1056.7386 1239.7198 2.6389759 255 255 255
195.57809 1102.4742 2.4802413 255 255 255
1781.8224 1087.5326 3.9988956 255 255 255
1122.6008 1994.9116 3.0866838 255 255 255
337.5795 891.88074 1.1533498 255 255 255
240.2169 1294.9338 2.6902297 255 255 255
-3922.0562 -4089.9082 -7.3743339 255 255 255
-689.52515 -1493.1479 -3.5035121 255 255 255
555.77502 392.3103 1.577809 255 255 255
-306.34006 -853.35406 -2.2447908 255 255 255
-211.6288 -275.52106 -1.72944 255 255 255
2030.3909 2164.7598 3.4756873 255 255 255
1250.382 1564.3314 2.875072 255 255 255
-474.80331 -529.48212 -1.79492 255 255 255
714.78619 748.87292 1.1187179 255 255 255
-724.95062 -718.51764 -1.9387356 255 255 255
507.46344 739.61578 1.9099414 255 255 255
-2981.5417 -1851.4801 -6.3269043 255 255 255
698.21625 757.23236 2.0395207 255 255 255
1398.9945 749.52045 2.8797772 255 255 255
-1701.0188 -2348.2654 -5.5888214 255 255 255
5281.7334 5026.8638 13.932904 255 255 255
-2104.8037 -1879.2953 -5.0634303 255 255 255
20670.859 29840.357 63.944386 255 255 255
-1053.7742 -1498.8401 -3.5564332 255 255 255
-944.24194 -1077.6461 -2.3549292 255 255 255
-769.20044 -1102.5808 -2.3405337 255 255 255
525.48114 846.37573 2.0483847 255 255 255
-650.59363 -2495.2373 -5.5553703 255 255 255
233.00882 338.43704 0.78555959 255 255 255
1381.7634 984.74371 2.6741745 255 255 255
1060.7823 1235.7977 2.6376984 255 255 255
-3903.4727 -6035.3906 -13.777384 255 255 255
1083.1017 567.37695 2.1735737 255 255 255
471.94656 1782.1359 3.0847147 255 255 255
-808.51477 -1736.2595 -3.843519 255 255 255
746.01611 855.10461 2.1480918 255 255 255
-2120.3149 -2866.8125 -5.4211092 255 255 255
-282.83102 -490.862 -2.1398227 255 255 255
-1403.0017 -976.64246 -3.0882628 255 255 255
-528.30469 -636.52344 -2.0656214 255 255 255
3796.2087 3831.1196 10.945057 255 255 255
322.47507 257.37811 0.77691072 255 255 255
306.75534 683.58868 1.7848575 255 255 255
1167.8617 2333.0862 4.9492798 255 255 255
523.55756 2393.2224 3.7697537 255 255 255
1285.062 761.94928 2.5337868 255 255 255
1271.6077 1039.1304 2.5963438 255 255 255
1262.6836 715.18811 2.5094986 255 255 255
-2470.4758 -5128.7969 -10.954154 255 255 255
-22.681797 2604.8369 4.1516571 255 255 255
1259.0441 685.69037 2.4949596 255 255 255
1229.9719 1542.8911 2.8499088 255 255 255
499.50418 622.50311 1.7589599 255 255 255
-693.21802 -835.29822 -2.2718785 255 255 255
-742.18805 -1107.0341 -3.8421345 255 255 255
-1061.9614 -1794.559 -3.7835078 255 255 255
-1452.317 -3372.5081 -5.9131942 255 255 255
534.21448 839.51666 2.046268 255 255 255
5228.5229 6791.8223 10.616338 255 255 255
-5429.7017 -11193.822 -23.665703 255 255 255
1272.1089 771.86176 2.5328746 255 255 255
1256.4525 836.60223 2.5031383 255 255 255
544.9613 874.0144 2.0880222 255 255 255
-994.6463 -1222.907 -2.880795 255 255 255
385.22647 769.19659 1.9126208 255 255 255
506.59964 627.50385 1.7703998 255 255 255
-3901.0298 -10125.628 -22.417795 255 255 255
372.8335 405.50946 1.3872592 255 255 255
3114.9529 1750.6995 4.0549903 255 255 255
-862.33563 -675.71466 -2.2820272 255 255 255
4822.7236 3109.1902 4.7319894 255 255 255
-1196.34 -1127.4554 -3.0509486 255 255 255
246.42162 522.67651 0.50180662 255 255 255
632.78656 612.77673 1.8447034 255 255 255
-604.68182 -692.48743 -2.2815175 255 255 255
2260.5383 2206.8525 3.5812764 255 255 255
3062.4314 1732.8563 4.0238314 255 255 255
645.50146 2962.9719 3.8544874 255 255 255
-275.9108 -907.33356 -2.2157688 255 255 255
507.0657 1796.5393 3.0740795 255 255 255
1231.7721 655.25934 2.450388 255 255 255
711.72241 1755.5858 2.6679938 255 255 255
-732.97644 -1050.6085 -2.8155849 255 255 255
641.32635 977.22949 2.2499106 255 255 255
-1066.4938 -1377.5602 -3.1878216 255 255 255
-646.90619 -460.3125 -1.9222199 255 255 255
-1358.5635 -5829.354 -8.5969582 255 255 255
1090.8245 684.58466 1.9792452 255 255 255
665.71503 2258.0676 3.4180303 255 255 255
-545.96777 -1002.1312 -2.5728149 255 255 255
-1220.3334 -2154.8625 -5.263114 255 255 255
-2520.2593 -2027.4316 -4.2265668 255 255 255
1725.4567 2666.0417 6.4038396 255 255 255
516.31818 619.82404 1.7674011 255 255 255
2802.5879 3145.0671 10.629199 255 255 255
-1107.923 -4243.3442 -10.37358 255 255 255
-1296.2834 -1972.6333 -3.5841792 255 255 255
1212.5575 687.69073 2.4379492 255 255 255
4030.1272 7670.8281 16.906042 255 255 255
1213.8986 498.62393 2.3410313 255 255 255
784.19403 774.44128 2.1044621 255 255 255
-394.56531 -651.12018 -1.9369537 255 255 255
-503.61575 -830.46228 -2.4099329 255 255 255
335.95917 1464.0901 2.8242183 255 255 255
-669.55701 -1685.1141 -4.3065596 255 255 255
611.84906 2293.3455 3.4750314 255 255 255
-329.2308 -250.86754 -1.5495131 255 255 255
813.08496 645.59912 1.3441999 255 255 255
1215.8682 1656.4708 2.9085593 255 255 255
802.42999 1013.6909 3.0465648 255 255 255
-3725.2024 -3821.3342 -9.2753792 255 255 255
-351.62344 -475.63016 -1.5756963 255 255 255
-1221.1895 -1724.1958 -4.0761285 255 255 255
1981.4521 888.26672 4.5177593 255 255 255
1892.85 1204.2435 4.2544575 255 255 255
3139.8206 2431.4814 7.2401457 255 255 255
597.07416 539.47968 1.7446358 255 255 255
-1203.7439 -720.4245 -2.9615147 255 255 255
-1805.4297 -1295.5721 -3.1378274 255 255 255
-1840.6895 -1475.7767 -5.3871756 255 255 255
759.84326 944.61774 2.2402716 255 255 255
2995.0691 2481.137 3.9443734 255 255 255
-613.48407 -941.48999 -2.4435492 255 255 255
1134.9779 674.32129 2.3723824 255 255 255
439.1091 359.10226 1.4039152 255 255 255
1135.3807 1461.1587 2.7778428 255 255 255
1255.9275 1576.2672 2.8909807 255 255 255
536.04437 886.77557 2.0995483 255 255 255
-714.10413 -866.71771 -2.5040424 255 255 255
703.48907 846.49811 2.768774 255 255 255
1633.0598 3227.3008 4.8828311 255 255 255
1424.6027 751.90094 2.6847942 255 255 255
2181.6521 2495.8962 3.6116393 255 255 255
2637.7605 1536.2544 3.7431684 255 255 255
653.95844 2380.6433 3.5176172 255 255 255
-3646.4238 -3341.5193 -12.505029 255 255 255
1185.8922 667.33331 2.3585911 255 255 255
541.44788 578.25958 1.7386811 255 255 255
1165.0155 1993.301 3.0855017 255 255 255
-1143.3667 -2248.3044 -3.3400221 255 255 255
1080.0813 1225.845 4.1226344 255 255 255
-1599.6001 -1098.3475 -2.7300892 255 255 255
2918.4666 3226.8701 3.9404745 255 255 255
-2659.7019 -3197.8662 -6.4351091 255 255 255
549.80579 616.68127 1.7840941 255 255 255
599.43842 1389.9061 2.6750481 255 255 255
1502.884 2343.5791 3.4093378 255 255 255
-1013.3016 -1348.6854 -3.0861499 255 255 255
3087.0259 2309.6484 6.663456 255 255 255
1074.8695 2409.2412 5.0669298 255 255 255
1684.1439 2355.4641 3.0989809 255 255 255
-2840.199 -4294.4644 -8.3177805 255 255 255
-1995.2173 -4864.8853 -10.091811 255 255 255
586.89838 1025.8752 2.2720134 255 255 255
529.4295 539.64423 1.6876507 255 255 255
1718.1943 4772.8633 9.1692638 255 255 255
1703.334 2032.1643 5.1127191 255 255 255
-3015.6418 -4558.582 -10.240146 255 255 255
-611.66315 -627.89661 -2.0664856 255 255 255
-2099.8762 -14566.693 -23.381794 255 255 255
-568.31067 -1553.0072 -3.9817634 255 255 255
-1399.45 -2396.5811 -5.193152 255 255 255
584.65948 1342.5286 2.6336832 255 255 255
-1287.8347 -1805.24 -4.2581272 255 255 255
372.03561 403.58331 1.3845694 255 255 255
571.9538 1352.0754 2.7116573 255 255 255
1150.1182 1585.9775 2.8415973 255 255 255
-224.8027 -245.8895 -1.6808339 255 255 255
556.38861 902.84491 1.1991818 255 255 255
415.81815 1781.6908 3.1032987 255 255 255
2137.084 2085.6836 3.5020354 255 255 255
-964.00244 -835.89429 -2.4241507 255 255 255
-649.02527 -796.34613 -2.2780371 255 255 255
-1003.2298 -1423.9336 -3.4386699 255 255 255
2284.9971 4182.2266 9.1186666 255 255 255
4491.0825 6461.8198 15.142024 255 255 255
389.39313 430.88177 1.4332501 255 255 255
-653.4303 -824.64124 -2.9919991 255 255 255
376.34555 1788.5648 3.1347325 255 255 255
1142.0323 1490.9347 2.7832785 255 255 255
701.79175 1372.0308 2.6387675 255 255 255
526.50885 949.625 2.1767933 255 255 255
544.6676 931.03107 2.1563399 255 255 255
624.87286 996.26837 1.1295437 255 255 255
411.79572 357.40549 1.0051163 255 255 255
-739.02051 -993.62042 -2.3741429 255 255 255
583.78754 1563.8782 2.8629832 255 255 255
2838.0798 1513.6802 3.890151 255 255 255
413.19943 1750.0389 3.0741575 255 255 255
518.0954 984.28174 2.2193005 255 255 255
1651.2351 1780.3727 2.1545842 255 255 255
621.711 3252.6067 3.9991131 255 255 255
-2296.6326 -3391.887 -9.4217987 255 255 255
-564.96814 -359.85162 -1.6652114 255 255 255
733.81622 1453.3843 3.2735903 255 255 255
-1025.5947 -1343.207 -3.2723224 255 255 255
-621.35779 -693.57684 -2.040669 255 255 255
237.99887 1244.0082 2.6282148 255 255 255
1408.1339 1299.9203 4.1283703 255 255 255
1229.1821 1530.4734 2.8428257 255 255 255
-1530.5973 -2948.2559 -4.9905725 255 255 255
-3312.3545 -7212.8906 -13.65539 255 255 255
600.00659 2121.1189 3.3384447 255 255 255
1229.0725 1682.5968 2.9313023 255 255 255
2939.3169 3243.6616 3.9491978 255 255 255
1178.6527 665.15906 2.3967588 255 255 255
-537.54486 -396.41837 -2.0686603 255 255 255
1052.533 1232.7605 2.6276612 255 255 255
739.88318 447.07928 1.0360258 255 255 255
-926.22589 -693.06317 -2.5179186 255 255 255
-1155.1385 -1713.1733 -5.2642207 255 255 255
1131.7228 1665.5309 2.9083533 255 255 255
259.0961 1809.0228 3.2397718 255 255 255
631.5575 343.35037 0.85236043 255 255 255
380.37427 389.85266 1.3722872 255 255 255
-92.646965 3318.7158 4.6303182 255 255 255
218.15933 -182.74365 -0.42815942 255 255 255
496.71893 482.957 1.3905725 255 255 255
-1348.7278 -3354.8394 -4.7918305 255 255 255
643.71368 2412.1375 3.5519474 255 255 255
437.51981 356.59241 1.3983705 255 255 255
-749.69263 -970.56506 -2.3926885 255 255 255
1141.2302 639.13782 2.3458209 255 255 255
-453.04919 -393.08826 -1.7608199 255 255 255
1121.1665 1648.0096 2.8954895 255 255 255
-1594.4188 -1499.9128 -4.0852566 255 255 255
-2587.1646 -3689.8 -8.9069901 255 255 255
-432.65289 -601.76898 -1.6642126 255 255 255
-1336.2386 -2479.4011 -5.3593645 255 255 255
-1180.2498 -2527.5754 -4.400712 255 255 255
1143.8375 1633.2987 2.8777204 255 255 255
-165.37971 -615.25269 -2.0307221 255 255 255
870.97723 859.39508 1.7302428 255 255 255
607.591 655.90527 1.7190855 255 255 255
770.3266 1179.4426 2.694211 255 255 255
508.00806 515.32043 1.6399934 255 255 255
544.29474 949.72089 2.1794026 255 255 255
400.26376 378.02341 0.66842872 255 255 255
-494.98502 -640.26245 -1.82023 255 255 255
768.56903 1028.865 3.0030355 255 255 255
-110.68496 3330.2117 4.6592312 255 255 255
871.78992 2510.2319 3.5199161 255 255 255
-230.73965 -426.74594 -1.8321197 255 255 255
-802.54193 -918.49933 -2.3034458 255 255 255
-1787.1733 -1864.292 -4.4423914 255 255 255
454.74008 1769.6665 3.0713818 255 255 255
-3402.9133 -2360.0234 -10.05701 255 255 255
87.951195 481.49832 1.5936329 255 255 255
1367.4031 882.3208 2.6149893 255 255 255
-375.23383 -1137.1573 -3.8692105 255 255 255
-620.88629 -642.10815 -2.0988939 255 255 255
-93.291985 1301.6777 3.1748211 255 255 255
2907.3706 3239.3398 3.9402425 255 255 255
533.06281 554.74384 1.7065519 255 255 255
-879.8446 -1194.441 -3.5530343 255 255 255
-152.94002 -1630.2996 -3.8563418 255 255 255
16993.916 10398.248 47.339993 255 255 255
670.8634 1128.2058 2.3942308 255 255 255
504.56067 946.80103 2.1683056 255 255 255
3136.1687 2382.5405 4.0175633 255 255 255
-725.88171 -860.88922 -2.1432316 255 255 255
2738.7742 1522.8788 3.8151329 255 255 255
1759.9387 3191.396 4.897716 255 255 255
-4019.426 -3781.425 -14.407668 255 255 255
-3422.2463 -6168.2334 -13.30337 255 255 255
6525.2197 6599.165 8.8785305 255 255 255
1328.0101 3097.3616 4.5619326 255 255 255
510.16013 938.06128 2.1579463 255 255 255
555.21271 482.74026 1.6498449 255 255 255
-940.66016 -1412.6329 -2.7788706 255 255 255
-500.36478 -485.73972 -1.7338874 255 255 255
-387.52231 -564.23706 -1.9705257 255 255 255
-724.70172 -1148.4056 -2.9354157 255 255 255
195.07098 1032.2251 2.3781955 255 255 255
516.06531 704.63251 1.8698643 255 255 255
260.22382 758.1908 1.9196125 255 255 255
-2062.0315 -4966.0713 -12.433671 255 255 255
867.89429 1293.176 1.5814422 255 255 255
-766.31848 -615.27142 -2.0521846 255 255 255
1318.1361 2507.3298 2.8506689 255 255 255
-2981.3257 -4818.3843 -11.347623 255 255 255
-673.45319 -647.72797 -2.0054951 255 255 255
2114.7156 2494.6531 3.5947325 255 255 255
-1390.308 -1869.9318 -5.3000336 255 255 255
212.58997 1797.1262 3.2725527 255 255 255
-528.68115 -2023.5835 -4.3530226 255 255 255
514.27344 672.85742 1.0215316 255 255 255
-342.18103 -396.55954 -1.558753 255 255 255
582.66083 1394.2555 2.6913376 255 255 255
524.47943 1056.1814 2.3038855 255 255 255
507.67172 888.22241 2.0977974 255 255 255
66.235245 1062.3068 1.4576325 255 255 255
-258.75455 -576.40894 -1.8059733 255 255 255
-841.50806 -800.1925 -2.0046771 255 255 255
-996.72955 -1378.816 -3.4126201 255 255 255
-588.71307 -844.71503 -2.0358279 255 255 255
2326.1206 11025.709 18.359453 255 255 255
1020.9913 1527.7959 2.8275287 255 255 255
841.43951 1117.8004 1.9890448 255 255 255
-330.31412 -256.11197 -1.4356112 255 255 255
549.06091 674.4682 1.8448749 255 255 255
-601.7771 -572.88202 -2.0738757 255 255 255
736.23138 1282.106 2.5545146 255 255 255
502.23419 664.89929 1.8139563 255 255 255
-864.79401 -1256.1979 -2.3640757 255 255 255
2292.0156 2347.7188 3.6214826 255 255 255
617.13257 1235.5389 2.4986947 255 255 255
-1535.3505 -2694.262 -7.7532015 255 255 255
-358.62741 -634.05573 -1.7074735 255 255 255
604.10107 2109.3862 3.3253791 255 255 255
-560.72052 -557.75891 -1.9081867 255 255 255
611.69342 2141.2065 3.3536685 255 255 255
-464.09198 -553.29169 -1.7787377 255 255 255
5431.2124 4425.4541 8.4760847 255 255 255
2510.2842 2487.1885 3.1730952 255 255 255
1166.7671 592.80725 2.0963507 255 255 255
430.45917 1157.9332 1.8243958 255 255 255
2130.5222 2445.6414 3.5853388 255 255 255
181.54027 483.30164 0.60643101 255 255 255
-1299.6182 -1362.7711 -4.2810907 255 255 255
23532.352 22539.324 33.393501 255 255 255
-3228.7739 -3948.0383 -10.667894 255 255 255
1097.033 1650.7662 1.9301947 255 255 255
1497.3766 2347.0793 3.4172995 255 255 255
-2174.9521 -1968.7509 -7.3682013 255 255 255
-17990.689 -77864.297 -196.16652 255 255 255
-5544.1777 -16465.412 -27.227631 255 255 255
-1028.1167 -744.62158 -2.2029698 255 255 255
611.45941 1374.193 2.6613395 255 255 255
727.68585 1066.744 2.6441386 255 255 255
735.11072 1069.8993 2.3538136 255 255 255
2558.4924 3174.717 8.7044001 255 255 255
1486.4186 1469.9081 2.9863064 255 255 255
583.71179 665.68762 1.8612001 255 255 255
570.91327 1574.847 2.8696585 255 255 255
-28.112471 3462.1936 5.9295783 255 255 255
2916.873 2841.7544 3.9126246 255 255 255
-1331.358 -1529.5199 -4.4116578 255 255 255
549.92261 974.78436 2.2109604 255 255 255
379.81378 501.40958 0.69185913 255 255 255
-1258.1814 -1005.5855 -2.5766706 255 255 255
-459.31049 -891.84027 -2.4239905 255 255 255
-506.15164 -1953.1854 -3.1473243 255 255 255
-650.90015 -342.57159 -1.9008662 255 255 255
-22.520418 -999.25519 -2.5247593 255 255 255
410.17715 721.58691 1.1102757 255 255 255
-1039.1179 -3009.1287 -5.4810481 255 255 255
-704.80994 -1220.9294 -3.1060631 255 255 255
-696.61609 -3285.7312 -4.7930775 255 255 255
-750.54919 -1458.7273 -2.6898832 255 255 255
-325.33206 -516.17035 -2.8439488 255 255 255
-421.10486 -842.56146 -2.7657268 255 255 255
-815.31653 -1046.423 -2.3314896 255 255 255
6671.377 5792.4824 9.4101048 255 255 255
-623.26678 -1190.0724 -3.3701913 255 255 255
511.83316 2250.0403 3.4525361 255 255 255
1139.9152 1622.209 2.8672078 255 255 255
585.54474 662.05603 1.8588691 255 255 255
108.52523 410.0856 1.3732156 255 255 255
-2481.1089 -91603.133 -162.41544 255 255 255
-15.013214 2347.98 3.7241724 255 255 255
-1716.9343 -3346.1338 -5.2547989 255 255 255
3035.6628 7784.6426 16.354864 255 255 255
277.08295 1020.6868 1.9476782 255 255 255
1455.6943 2047.3015 3.2626729 255 255 255
840.40912 2312.551 3.3976047 255 255 255
3012.7693 3262.6086 3.9759083 255 255 255
681.97296 2683.6113 3.7148485 255 255 255
-407.98782 -467.61053 -1.6123959 255 255 255
2881.0635 3221.636 3.9295321 255 255 255
527.34485 1019.1826 2.2616611 255 255 255
617.22675 2333.2468 3.5027592 255 255 255
696.21063 1371.9279 2.6387193 255 255 255
206.88394 2747.1921 4.0241914 255 255 255
-1220.4136 -4019.7976 -7.859251 255 255 255
-1235.4731 -2258.791 -3.5052638 255 255 255
3054.9241 2898.3774 3.9708974 255 255 255
5505.9199 3004.8071 14.48674 255 255 255
10757.446 13464.284 32.99535 255 255 255
245.19806 1632.5685 3.0723751 255 255 255
2501.812 2948.9771 3.7813747 255 255 255
468.51083 2164.5369 3.4117546 255 255 255
507.58771 2329.6597 3.5115137 255 255 255
100.96759 2383.1973 4.6323581 255 255 255
-518.41217 -618.21814 -2.005054 255 255 255
651.64447 2986.8269 3.87012 255 255 255
463.42511 952.90485 2.165776 255 255 255
365.08209 1163.9735 1.7217414 255 255 255
593.2572 2121.3748 3.3380406 255 255 255
366.01648 1423.6172 1.8388985 255 255 255
1081.1427 1026.0646 1.9916358 255 255 255
1034.3402 2860.0444 5.3384686 255 255 255
493.82837 2228.0964 3.4457541 255 255 255
2306.4797 3043.8391 4.1025095 255 255 255
2492.9846 18731.324 39.228714 255 255 255
295.28607 570.41498 0.69910163 255 255 255
-702.59625 -890.25946 -2.1798131 255 255 255
804.27838 2413.8826 3.4753981 255 255 255
2372.3811 7225.5854 10.868908 255 255 255
336.42349 531.40472 1.0182805 255 255 255
-781.0152 -670.36548 -2.1931305 255 255 255
2071.8284 2142.7009 3.4875672 255 255 255
-366.29694 -2178.1016 -5.7062507 255 255 255
684.73798 1471.4836 3.8396392 255 255 255
4393.6001 5630.916 8.3258152 255 255 255
70268.656 57702.203 97.559288 255 255 255
3108.0559 2547.9636 3.9990962 255 255 255
378.96411 502.49066 1.101478 255 255 255
-8063.0288 -16826.084 -36.713589 255 255 255
-557.60748 -492.93542 -1.8267804 255 255 255
-2019.7469 -14970.98 -21.82815 255 255 255
1019.3499 1019.3332 3.6116593 255 255 255
-406.94858 -816.57532 -2.2321386 255 255 255
710.06177 2099.1682 3.2722487 255 255 255
2324.8423 1603.1709 3.5366449 255 255 255
2865.1248 3204.1265 3.9243326 255 255 255
-230.03233 1932.5226 4.0575471 255 255 255
358.27097 349.69971 0.8481831 255 255 255
1734.8108 2943.2776 4.9539042 255 255 255
3070.8655 3091.6243 15.405859 255 255 255
-156.99808 -183.45229 -1.2836164 255 255 255
340.55972 1767.0807 3.1396375 255 255 255
-377.85883 -1360.3613 -2.8628786 255 255 255
1550.1777 5486.1675 9.4859037 255 255 255
1273.2725 1516.1073 4.5306625 255 255 255
-976.15051 -1991.5363 -4.7584581 255 255 255
548.81549 902.33673 2.1221421 255 255 255
-357.50815 -878.3526 -1.9186987 255 255 255
3117.0356 3674.6917 4.8750095 255 255 255
11814.809 9559.1191 17.378077 255 255 255
275.77588 671.98853 0.90289319 255 255 255
1919.3771 1113.4497 3.1781361 255 255 255
1255.6346 1994.8997 2.4576125 255 255 255
4854.2021 4648.5088 7.295927 255 255 255
-588.63348 -810.62122 -2.2932444 255 255 255
-968.21393 -1909.2222 -4.2853713 255 255 255
3134.5298 3077.9336 3.9736218 255 255 255
-349.99524 -702.80139 -2.1001377 255 255 255
-486.79456 -325.33942 -1.6094445 255 255 255
1167.4283 1469.5149 2.2229631 255 255 255
-28186.389 -172477.8 -262.87527 255 255 255
-551.89587 -893.50745 -2.6758728 255 255 255
211.28073 1827.813 3.3014362 255 255 255
1166.6166 1402.8534 2.7784956 255 255 255
-46006.793 -33737.172 -65.784325 255 255 255
31382.578 45018.66 70.497269 255 255 255
-737.97894 -1351.6708 -2.6166737 255 255 255
1586.14 1935.7063 3.782057 255 255 255
687.73334 1363.9684 2.6281397 255 255 255
-73.048332 2186.8535 3.9431505 255 255 255
-590.10901 -820.9151 -1.9974684 255 255 255
2329.936 1605.6859 3.5398867 255 255 255
-2141.4021 -3931.313 -10.09854 255 255 255
-744.63409 -1653.9299 -4.754982 255 255 255
951.28674 3059.3164 3.7873192 255 255 255
511.88739 707.12616 1.8718103 255 255 255
-1085.1743 -1625.0193 -4.3211918 255 255 255
-509.71219 -981.80383 -2.8013084 255 255 255
639.76434 2296.0369 3.4683139 255 255 255
-471.42249 -961.16437 -2.402261 255 255 255
-256.21225 -949.40527 -2.591939 255 255 255
2116.0164 2031.0189 7.2580967 255 255 255
-3350.4734 -14285.244 -17.409407 255 255 255
1460.1578 3974.0828 6.4799914 255 255 255
6076.6299 5572.0459 8.5795889 255 255 255
2156.4189 1707.822 3.3745298 255 255 255
2222.3123 2067.2209 3.5353973 255 255 255
8671.3262 8320.2949 30.175987 255 255 255
-550.10553 -587.81177 -2.0108223 255 255 255
650.0321 2403.3638 3.541256 255 255 255
-807.58612 -809.70111 -2.3131959 255 255 255
462.83881 2269.1709 3.4951794 255 255 255
-1222.7062 -1255.8273 -3.0241272 255 255 255
524.86652 648.94897 1.6183981 255 255 255
571.61395 1454.8741 2.6162324 255 255 255
-151.90448 -213.27232 -1.4772221 255 255 255
-986.66315 -2875.5112 -6.397222 255 255 255
826.85138 1352.2386 1.8640113 255 255 255
-486.20081 -601.19843 -1.8399615 255 255 255
588.91394 1398.6245 2.6918092 255 255 255
2739.3906 3338.1155 4.3135924 255 255 255
1318.1069 2203.1584 2.413368 255 255 255
-3751.5383 -5795.2017 -12.746363 255 255 255
-549.29681 -458.59821 -1.814189 255 255 255
284.74692 329.77429 0.4715355 255 255 255
-968.76422 -591.54608 -3.5569854 255 255 255
-1172.3992 -509.32343 -2.3624132 255 255 255
1247.5093 1557.198 2.8633893 255 255 255
-538.05853 -855.61774 -2.2654924 255 255 255
1498.6744 826.27942 2.7686965 255 255 255
491.47388 954.09607 2.1756451 255 255 255
-76010.32 -68872.188 -182.68066 255 255 255
1282.7507 703.68591 2.5231755 255 255 255
1316.3771 855.34003 2.5598733 255 255 255
722.33118 2945.4043 3.8374794 255 255 255
550.12482 963.30035 2.196348 255 255 255
2067.8601 2140.9802 3.4869027 255 255 255
1228.6763 1681.4154 2.9305058 255 255 255
1122.2869 1648.9786 2.8971798 255 255 255
-1413.1882 -2812.0432 -5.8323398 255 255 255
1242.4219 1539.3612 2.3004308 255 255 255
533.24292 837.82581 2.0414 255 255 255
1210.2671 687.04712 2.4346778 255 255 255
2638.2444 1536.9279 3.7436926 255 255 255
-2841.8159 -1008.0586 -4.2660499 255 255 255
2322.3516 1982.0895 4.4990649 255 255 255
-1891.1538 -2186.3755 -5.2598763 255 255 255
-823.69226 -1291.8099 -2.7313685 255 255 255
-2878.3748 -4163.8857 -10.009646 255 255 255
773.61383 847.34479 2.1584661 255 255 255
1685.9291 1212.3212 3.0136073 255 255 255
304.43375 787.53223 1.017457 255 255 255
11000.425 9063.333 28.82085 255 255 255
-860.42615 -1277.5542 -2.9628561 255 255 255
389.47046 431.31952 1.4355592 255 255 255
-687.4859 -821.11554 -3.9741929 255 255 255
1287.9803 765.07269 2.5416222 255 255 255
1272.817 1039.2128 2.5980468 255 255 255
543.33783 843.08063 2.0457838 255 255 255
-590.47656 -905.4231 -2.2751834 255 255 255
508.49588 793.82208 1.9767755 255 255 255
-9800.3203 -7561.4341 -23.274382 255 255 255
201.474 1209.0646 1.7914077 255 255 255
508.52606 800.9054 1.9894166 255 255 255
-1738.5669 -3442.1714 -8.9994335 255 255 255
1987.6577 1187.8972 4.2296906 255 255 255
177.09372 1308.3507 1.7191031 255 255 255
893.21655 343.15106 1.5958869 255 255 255
3207.7822 2504.1543 7.4229689 255 255 255
-2480.7393 -2718.1372 -7.2275381 255 255 255
3207.5188 2509.1907 7.4316373 255 255 255
259.10953 1807.7526 3.2374394 255 255 255
589.69653 1018.4906 2.2666464 255 255 255
2645.7844 1541.5149 3.7496862 255 255 255
1042.8718 1809.0103 4.059895 255 255 255
1931.6417 1123.2629 3.1927214 255 255 255
440.87189 461.96252 1.5153878 255 255 255
-2392.3818 -1809.4231 -6.763361 255 255 255
13307.043 20891.006 43.806641 255 255 255
431.40329 497.05475 0.669967 255 255 255
813.39026 536.9267 1.9637812 255 255 255
-512.30725 -622.08368 -1.8360276 255 255 255
1076.0056 1618.7456 5.1928887 255 255 255
583.69879 662.51605 1.8570865 255 255 255
376.59732 1790.8887 3.1394956 255 255 255
640.63855 2400.9844 3.5355279 255 255 255
-650.23334 -340.81851 -1.834577 255 255 255
1146.4811 1482.9052 2.7814574 255 255 255
507.32407 1006.7784 2.2436051 255 255 255
526.55237 817.02869 2.0122404 255 255 255
9818.3506 10894.335 25.224218 255 255 255
507.13547 628.18304 1.7712083 255 255 255
-433.72668 -880.03479 -2.6085095 255 255 255
1096.3727 2058.2546 5.1205192 255 255 255
-3507.2031 -6738.3013 -20.075575 255 255 255
898.76788 830.94098 1.5977857 255 255 255
203.84154 1239.4159 1.8629472 255 255 255
-984.62091 -849.64148 -3.7411859 255 255 255
4791.541 3092.751 4.7186646 255 255 255
437.01871 357.12491 1.3997496 255 255 255
1485.1293 1468.8307 2.9830036 255 255 255
791.35919 4374.2769 7.476789 255 255 255
-1171.3898 -1775.2577 -3.7767937 255 255 255
760.9079 946.10425 2.2440567 255 255 255
439.37 358.86768 1.4057204 255 255 255
-391.61487 -769.61255 -2.1607623 255 255 255
601.23511 1392.3293 2.6804938 255 255 255
535.39783 885.9209 2.0982008 255 255 255
569.19958 611.88135 1.6315368 255 255 255
1060.8431 1236.8379 2.6373384 255 255 255
-948.38458 -1587.5808 -3.0471618 255 255 255
659.92352 841.56366 1.8408217 255 255 255
341.08109 1766.7679 3.1373482 255 255 255
1145.7809 1634.9175 2.8799279 255 255 255
841.50616 1118.2144 1.9893287 255 255 255
1283.1824 730.98206 2.1043298 255 255 255
509.12265 1800.3627 3.0814693 255 255 255
2360.1077 2066.615 2.7121327 255 255 255
-1351.3386 -1091.439 -2.6352024 255 255 255
-6006.3384 -22939.422 -52.613674 255 255 255
-858.6701 -1691.5663 -3.5868819 255 255 255
1270.5083 684.29034 2.5096574 255 255 255
1202.7557 645.54803 2.4220197 255 255 255
-7395.3516 -6779.3125 -12.252105 255 255 255
734.89423 1270.5161 2.5501096 255 255 255
1278.1594 684.6402 2.5168135 255 255 255
284.05035 1515.4917 2.9060779 255 255 255
636.36908 1418.4764 2.7035468 255 255 255
1150.5897 2075.7092 3.154243 255 255 255
1386.6697 556.98193 2.7183201 255 255 255
1047.5687 558.77899 2.104326 255 255 255
1234.2167 659.91687 2.4556353 255 255 255
-8294.8125 -8540.8477 -23.436745 255 255 255
-1369.5551 -1116.4688 -2.6995435 255 255 255
-503.74103 -723.81879 -1.9907508 255 255 255
-931.79395 -870.01801 -2.6518035 255 255 255
1219.6254 676.42609 2.4418664 255 255 255
326.82059 1404.3843 2.7651074 255 255 255
4765.9771 3109.0146 4.7042565 255 255 255
-994.18524 -1222.3247 -2.8795822 255 255 255
3362.2034 2677.0928 7.8045893 255 255 255
671.20752 1128.465 2.3951135 255 255 255
489.07806 878.63995 2.081979 255 255 255
3108.8328 2333.9927 6.7160163 255 255 255
616.78381 1536.1221 2.8315179 255 255 255
415.88379 1778.7086 3.0979786 255 255 255
-1039.0012 -970.77606 -2.8609245 255 255 255
-6209.8438 -5341.0391 -12.903207 255 255 255
-1554.8495 -2146.4421 -5.6993785 255 255 255
2031.421 2164.8311 3.4772925 255 255 255
-780.8056 -667.68555 -2.0626028 255 255 255
2919.7666 3228.2595 3.9426334 255 255 255
-75.028893 2207.6619 3.9654117 255 255 255
506.80038 513.89246 1.6351343 255 255 255
218.28542 -146.94301 -0.37649471 255 255 255
599.25415 2118.9062 3.3365233 255 255 255
344.702 657.91742 1.2455919 255 255 255
-1608.9612 -1614.2181 -5.6189942 255 255 255
1272.8552 1064.7144 2.1666017 255 255 255
1264.0879 1754.5399 3.0055516 255 255 255
269.8204 851.47498 1.3837726 255 255 255
-89.859573 3329.3276 4.6426973 255 255 255
-847.19318 -1159.139 -3.9422321 255 255 255
547.52216 617.23053 1.78231 255 255 255
1163.2507 1320.943 2.5891945 255 255 255
541.25775 905.03131 2.1214302 255 255 255
2848.1843 1499.4639 3.8974304 255 255 255
545.38867 879.88647 2.0928338 255 255 255
-8433.6416 -13552.139 -38.47876 255 255 255
525.02496 612.81494 1.7659743 255 255 255
-921.89789 -1130.0239 -2.8918207 255 255 255
7804.2251 7502.1743 20.683779 255 255 255
1212.6008 686.31476 2.4444063 255 255 255
1339.4208 994.71063 2.6348665 255 255 255
3630.3342 5080.7061 11.891981 255 255 255
649.6142 867.5592 2.112484 255 255 255
590.07855 670.84161 1.8695384 255 255 255
-8411.498 -11037.862 -35.416542 255 255 255
1177.1278 659.91235 2.396569 255 255 255
-3348.4775 -4616.4512 -10.995456 255 255 255
1174.3201 643.72162 2.3883109 255 255 255
1869.8741 3102.4033 5.4227858 255 255 255
1109.4596 1986.8331 3.0866737 255 255 255
1267.1111 708.31055 2.5124655 255 255 255
-601.73651 -2585.8611 -3.9139891 255 255 255
-313.37302 -1029.3275 -2.7207625 255 255 255
-4645.9937 -2502.4417 -7.4731588 255 255 255
1261.636 714.21741 2.5080762 255 255 255
-609.18121 -696.04266 -2.1204038 255 255 255
-746.31024 -607.99786 -2.2433133 255 255 255
871.19189 2510.1934 3.5199237 255 255 255
645.42944 860.82941 2.1037087 255 255 255
-1004.8304 -878.12573 -2.5930638 255 255 255
-743.09863 -696.85474 -2.9562352 255 255 255
413.20898 1748.8621 3.0717256 255 255 255
-545.04999 -1087.7001 -3.0173583 255 255 255
681.06232 2649.8259 3.696378 255 255 255
550.56085 617.21979 1.7864081 255 255 255
486.68317 508.62271 1.6168469 255 255 255
675.47754 938.59784 1.2338705 255 255 255
-1229.0127 -1067.8462 -2.9195421 255 255 255
1966.0181 3721.2661 5.2819281 255 255 255
-666.58978 -717.69659 -1.9397488 255 255 255
-515.48022 -2587.7866 -4.3651328 255 255 255
1233.3108 1534.3169 2.8486769 255 255 255
755.99164 1423.1007 1.9306858 255 255 255
-268.96432 -273.60709 -1.7377675 255 255 255
3074.7556 1754.5487 4.0280814 255 255 255
2840.657 1514.5814 3.8932085 255 255 255
300.51956 1786.2357 3.1821275 255 255 255
610.69159 2293.9387 3.4754441 255 255 255
536.06116 503.55737 1.6545469 255 255 255
3266.7725 6236.1846 13.76137 255 255 255
-990.8183 -1415.788 -3.3484247 255 255 255
5598.1753 7346.0151 17.831865 255 255 255
-21260.82 -22898.99 -59.578529 255 255 255
919.22552 2036.2424 3.1400325 255 255 255
961.09473 566.53003 2.0447636 255 255 255
419.47672 1430.0043 2.7403278 255 255 255
-9347.041 -11544.349 -37.306168 255 255 255
1158.4629 1628.2875 2.8815117 255 255 255
-1382.3441 -1079.557 -3.3803687 255 255 255
245.05136 -163.21762 -0.36295834 255 255 255
632.09283 612.10822 1.8437245 255 255 255
3017.783 3267.3135 3.9838536 255 255 255
-1683.603 -1856.3876 -4.1791644 255 255 255
1136.6533 1474.4589 2.7693276 255 255 255
1212.6844 1623.1729 2.8871121 255 255 255
-714.89948 -866.08899 -2.5038657 255 255 255
-845.91113 -771.59418 -2.2163391 255 255 255
988.35248 673.95624 1.6699896 255 255 255
3277.8835 2166.9792 7.1465101 255 255 255
-2656.7644 -3194.5803 -6.4287 255 255 255
-793.74182 -626.6897 -2.1040096 255 255 255
-391.66153 -1295.673 -3.1370656 255 255 255
1227.7524 1528.7649 2.840277 255 255 255
-769.2157 -1027.3593 -2.2874949 255 255 255
1493.4159 1473.498 2.9864497 255 255 255
742.84503 850.39001 2.1383061 255 255 255
679.42426 2737.9126 3.7495739 255 255 255
4821.0571 3107.6504 4.7312551 255 255 255
3021.5662 1728.6721 3.9886458 255 255 255
-435.84299 -1280.5719 -3.4371457 255 255 255
510.59601 725.36499 1.8936207 255 255 255
-2512.8606 -4152.9087 -6.0116415 255 255 255
1822.5732 1858.3851 4.7128024 255 255 255
474.07483 320.4332 1.1399107 255 255 255
3228.7229 2892.4221 8.0709677 255 255 255
586.94214 1025.5444 2.2719481 255 255 255
597.55664 539.34003 1.7460001 255 255 255
-533.85339 -537.02557 -1.7912015 255 255 255
1157.2893 635.11847 2.3717029 255 255 255
589.95044 565.34924 0.94898289 255 255 255
1256.3842 772.89124 2.5122569 255 255 255
536.229 846.42554 2.0552442 255 255 255
537.36902 846.47125 2.0502934 255 255 255
547.16644 1661.1378 2.9474483 255 255 255
1180.981 756.61823 3.2453082 255 255 255
-1617.7568 -1948.6637 -4.3496847 255 255 255
532.50073 887.16663 2.099194 255 255 255
1885.3855 1403.7577 4.4206643 255 255 255
1262.5336 1797.3754 3.5840042 255 255 255
1338.2559 874.75446 2.5843918 255 255 255
1228.2522 3083.738 6.2812324 255 255 255
590.28485 1626.8821 2.9239688 255 255 255
-814.50745 -687.34546 -2.574954 255 255 255
-858.7724 -961.60321 -3.2594841 255 255 255
696.42957 1372.3074 2.639133 255 255 255
513.62891 977.93646 2.2071309 255 255 255
439.46594 355.2225 0.65682358 255 255 255
1253.9016 1574.0059 2.8864706 255 255 255
-531.04089 -569.50885 -1.7061014 255 255 255
544.83124 931.92072 2.1582482 255 255 255
-1908.3604 -1988.8159 -7.0347729 255 255 255
1117.4197 630.72742 2.3195829 255 255 255
702.42859 1371.4534 2.63888 255 255 255
13.29675 2066.3218 3.7088044 255 255 255
931.27216 1481.7179 3.539952 255 255 255
540.3963 951.24109 2.1789997 255 255 255
2355.1306 5532.3477 9.1201792 255 255 255
3176.4805 2870.3547 4.0149732 255 255 255
634.99615 856.67651 2.094753 255 255 255
9275.0186 27583.137 65.397797 255 255 255
-749.2149 -2998.9768 -5.696382 255 255 255
-1116.4541 -2250.4531 -4.0903339 255 255 255
-3489 -5699.7656 -15.17844 255 255 255
455.46912 1771.1636 3.074868 255 255 255
-28006.67 -26173.215 -49.531872 255 255 255
1125.1021 2568.999 3.3466978 255 255 255
393.30865 710.23615 1.0337291 255 255 255
-1203.5128 -1127.3553 -3.0619972 255 255 255
562.84198 983.83685 2.2186306 255 255 255
6988.7393 17784.098 37.23138 255 255 255
-1326.755 -1915.5806 -5.8675022 255 255 255
-726.78522 -504.94196 -1.9706255 255 255 255
778.34351 245.94254 1.133534 255 255 255
-548.26062 -1011.2132 -2.7179906 255 255 255
504.47488 946.31952 2.1670842 255 255 255
-3731.3765 -6120.3589 -19.984678 255 255 255
276.9837 832.90704 2.0255041 255 255 255
384.52609 767.57861 1.9085033 255 255 255
-583.10217 -840.06665 -2.3940995 255 255 255
1727.8994 1632.6317 5.3288369 255 255 255
694.85364 2805.9873 3.7734487 255 255 255
3910.6079 2730.3413 4.3623109 255 255 255
-592.26904 -889.06396 -2.4886398 255 255 255
651.59998 876.04846 2.1204855 255 255 255
247.5175 725.91077 0.87624127 255 255 255
501.38239 339.02286 1.4677895 255 255 255
744.93536 1369.4525 2.6404512 255 255 255
-915.96692 -1242.5482 -2.7954021 255 255 255
-12041.355 -10701.683 -20.778023 255 255 255
-19148.738 -19698.732 -53.586441 255 255 255
-10423.428 -21709.893 -38.072861 255 255 255
753.51257 2573.2803 3.5883806 255 255 255
-677.35602 -686.56024 -2.7804468 255 255 255
-5276.0405 -6787.2427 -16.854269 255 255 255
2188.7715 2502.405 3.6223831 255 255 255
-598.16406 -603.09814 -2.0656226 255 255 255
-309.67017 -866.5047 -2.2346027 255 255 255
305.71188 495.15182 0.60091776 255 255 255
249.41656 -147.53926 -0.43451017 255 255 255
-1784.7572 -1788.5344 -4.3338132 255 255 255
6441.7061 5018.1304 14.446157 255 255 255
887.3476 2476.845 3.0564325 255 255 255
-844.44232 -635.26685 -2.3095305 255 255 255
686.7121 2642.7039 3.6838605 255 255 255
687.80298 1364.093 2.6289227 255 255 255
-468.51486 -1135.3613 -2.5854099 255 255 255
-316.33957 -1222.0413 -2.6999741 255 255 255
630.70697 2116.1421 3.31933 255 255 255
2214.625 2504.5154 3.6259968 255 255 255
1785.5763 3232.7678 4.9780855 255 255 255
-474.01102 -943.29364 -2.2654541 255 255 255
1547.0618 2948.3833 3.9311876 255 255 255
369.3064 468.46616 1.4675617 255 255 255
867.01416 1364.4576 2.3834591 255 255 255
1.7664157 1919.9034 3.4089735 255 255 255
-555.88959 -314.71338 -1.6749743 255 255 255
-580.43066 -476.58459 -1.9795649 255 255 255
-803.51782 -913.7887 -2.1964045 255 255 255
-148.97736 3330.7905 4.7065616 255 255 255
1426.1282 849.63409 2.7052391 255 255 255
597.3233 1663.9865 2.954159 255 255 255
2023.8036 2127.4158 3.4685588 255 255 255
412.67325 2632.3911 4.1432304 255 255 255
191.37094 230.20308 0.36317578 255 255 255
762.76617 2474.5767 3.5238955 255 255 255
2574.4358 2842.0566 3.800209 255 255 255
804.49915 2007.0327 4.9127769 255 255 255
2169.9961 4176.8457 9.144845 255 255 255
-361.45001 -895.48236 -2.338969 255 255 255
-718.6507 -840.85168 -2.491128 255 255 255
937.20642 3064.1313 6.2802577 255 255 255
2116.3716 2496.0503 3.5968502 255 255 255
594.28387 2124.228 3.3437598 255 255 255
223.58386 2549.0503 4.9572606 255 255 255
632.12292 2278.1072 3.4561779 255 255 255
-719.67035 -1109.7284 -2.7986076 255 255 255
-1182.1028 -3017.7703 -8.0290871 255 255 255
511.41318 744.10181 3.8826931 255 255 255
-406.44049 -570.14331 -1.9106245 255 255 255
334.55646 404.99603 0.5695352 255 255 255
1235.7191 1745.3474 2.9909222 255 255 255
205.05154 646.15631 0.96410155 255 255 255
802.85181 1195.9889 3.0684137 255 255 255
491.68585 2169.3647 3.3944554 255 255 255
647.16956 2238.4414 3.4230206 255 255 255
359.70023 -234.80807 -0.55864853 255 255 255
-466.94516 -266.68915 -1.5920317 255 255 255
560.10291 852.02155 2.0610437 255 255 255
1144.1487 1492.7998 2.7872517 255 255 255
612.83502 2144.7317 3.3594694 255 255 255
-548.49506 -1369.7037 -3.314518 255 255 255
-437.89426 -487.94766 -1.6896923 255 255 255
445.55508 527.74481 0.75704956 255 255 255
5591.2939 4080.5359 7.9154477 255 255 255
202.29616 371.8938 0.41328692 255 255 255
-368.85538 -1018.5837 -2.4387455 255 255 255
-91.866165 -428.96011 -1.9884613 255 255 255
1431.7234 855.79266 2.709166 255 255 255
720.86469 2948.7485 3.8493414 255 255 255
-661.3396 -825.99341 -2.6560369 255 255 255
336.25943 306.2861 0.57111162 255 255 255
583.48956 1383.9171 2.681988 255 255 255
-1080.5146 -1230.681 -3.5673275 255 255 255
-3199.3816 -3940.5349 -11.005823 255 255 255
1266.0457 1820.1704 3.0498312 255 255 255
-699.39124 -894.09766 -2.1570306 255 255 255
1021.1014 1440.3746 2.8175366 255 255 255
4936.8574 5176.9399 7.4191375 255 255 255
864.76038 2444.4866 3.4777472 255 255 255
634.85175 672.44739 2.3345339 255 255 255
332.36993 260.11426 1.1643819 255 255 255
655.98206 2745.011 3.7617619 255 255 255
-2010.9188 -1233.5723 -6.5251422 255 255 255
-572.07977 -550.42969 -1.9179925 255 255 255
751.61871 1379.9683 2.6535425 255 255 255
-120.10732 3296.887 4.661582 255 255 255
3288.3242 3057.3052 4.2969189 255 255 255
1452.5741 1690.6118 3.0770714 255 255 255
837.91309 2305.7219 3.3881307 255 255 255
-765.96533 -1281.3495 -3.1665802 255 255 255
205.92395 2744.2852 4.0211182 255 255 255
-4059.0996 -10258.345 -19.135857 255 255 255
1401.7961 823.51025 2.7476099 255 255 255
-672.85095 -826.32184 -2.3920476 255 255 255
-954.92889 -674.74347 -2.0724115 255 255 255
516.20764 707.48181 1.8717327 255 255 255
614.75897 1153.21 2.4121251 255 255 255
-632.92975 -2219.5271 -4.5542502 255 255 255
-575.93909 -586.08569 -2.0521681 255 255 255
1444.725 1686.2692 3.0748932 255 255 255
-21123.018 -12231.962 -60.961151 255 255 255
3052.6526 2895.7227 3.967294 255 255 255
2308.3135 2147.011 3.2065766 255 255 255
-996.86218 -924.04224 -2.2775593 255 255 255
619.71619 1283.1077 3.519989 255 255 255
726.14136 265.42361 1.1716385 255 255 255
3029.9031 3263.583 3.9799657 255 255 255
1254.6329 2123.8123 3.2539625 255 255 255
247.79031 1334.1469 2.7317278 255 255 255
2789.7576 2570.656 3.8487051 255 255 255
387.73672 1392.9445 2.7199252 255 255 255
2326.7 1603.8325 3.5357244 255 255 255
3247.6509 2697.2495 4.058013 255 255 255
-561.49646 -955.83612 -3.2226706 255 255 255
1726.1022 2034.5953 2.6760495 255 255 255
11072.264 11238.428 18.547094 255 255 255
-524.01678 -1070.2035 -2.9886653 255 255 255
803.22137 2410.3777 3.4703608 255 255 255
613.0368 1537.6764 2.8330479 255 255 255
419.02374 566.07983 1.635538 255 255 255
499.67459 851.87665 2.049367 255 255 255
1458.5853 2052.3728 3.2697525 255 255 255
-435.73303 -738.16248 -2.1872373 255 255 255
-641.09778 -358.46979 -1.7108213 255 255 255
1963.7106 2643.6152 4.085361 255 255 255
1497.0337 2345.9875 3.4144602 255 255 255
11875.396 13949.24 18.990662 255 255 255
-22.933594 2253.5708 3.5143137 255 255 255
-446.59695 -583.06683 -2.1792552 255 255 255
-396.59924 -983.5705 -2.3059726 255 255 255
222.41092 1371.7679 2.8007078 255 255 255
-903.32581 -1284.5986 -3.2916386 255 255 255
4011.6819 5037.1685 10.858923 255 255 255
-278.20972 -566.4519 -1.6844642 255 255 255
952.9339 3062.7368 3.7920978 255 255 255
611.61584 1373.8971 2.6612899 255 255 255
-1017.421 -1098.6855 -3.9380009 255 255 255
573.50543 1342.046 2.633703 255 255 255
728.41943 1385.2755 2.653985 255 255 255
3645.4485 3146.4644 4.2081451 255 255 255
-1141.9019 -1110.5096 -2.8362861 255 255 255
650.9986 2984.696 3.8682637 255 255 255
-651.56378 -1907.2843 -4.0548606 255 255 255
679.073 2728.5344 3.7477131 255 255 255
1544.2703 1861.6235 6.0778685 255 255 255
8635.9541 10981.947 17.837589 255 255 255
-525.25311 -627.73773 -2.1325824 255 255 255
39282.82 34917.344 55.391876 255 255 255
579.97498 1548.7927 2.8464513 255 255 255
515.26233 703.70892 1.8670264 255 255 255
490.37637 1477.4873 2.7588041 255 255 255
-832.32874 -1694.6102 -3.8089669 255 255 255
-1320.9785 -2192.4441 -3.3718364 255 255 255
692.13123 456.08969 2.1186965 255 255 255
1482.7059 885.70856 1.4141175 255 255 255
1052.1978 347.88425 1.9005852 255 255 255
528.34918 1020.5473 2.2659788 255 255 255
584.49011 1378.0414 2.6701126 255 255 255
1622.6375 529.45471 2.9358723 255 255 255
-406.47678 -734.67938 -1.8907231 255 255 255
752.7608 1212.9735 2.4947968 255 255 255
2927.126 2787.8064 4.179215 255 255 255
3267.8025 2659.0859 4.0614991 255 255 255
4517.7026 3880.0417 6.3875651 255 255 255
652.48816 2792.3608 3.7754498 255 255 255
1115.3907 3612.4856 4.4654527 255 255 255
643.29242 847.4975 2.08553 255 255 255
1211.2029 687.26367 2.4421644 255 255 255
1217.8486 677.00598 2.4415035 255 255 255
1124.2262 661.48102 2.3363988 255 255 255
-401.97653 -553.38605 -1.9936649 255 255 255
1145.5818 639.65442 2.3588457 255 255 255
-1041.5612 -1948.1577 -3.0729489 255 255 255
610.23138 386.84079 1.6438141 255 255 255
541.38458 953.63324 2.1862364 255 255 255
4012.4885 4274.3999 10.438178 255 255 255
1223.473 656.46985 2.4462068 255 255 255
1154.7698 1622.1244 2.8721318 255 255 255
-4118.7041 -6517.5454 -13.929334 255 255 255
-26781.449 -25901.557 -54.989323 255 255 255
383.32819 442.01425 1.1086966 255 255 255
-147.14784 -177.5984 -1.2578589 255 255 255
649.17108 865.41638 2.107115 255 255 255
-1078.2123 -887.92389 -2.6564438 255 255 255
1484.6193 1468.4976 2.9812412 255 255 255
-472.39508 -542.65692 -1.7399412 255 255 255
1502.2382 2343.0964 3.4095438 255 255 255
1684.8544 1211.2593 3.0107284 255 255 255
-2923.7412 -1785.1704 -6.2188492 255 255 255
2865.9968 1512.5752 3.9076962 255 255 255
408.26056 429.58176 1.1150527 255 255 255
311.67426 551.76831 0.85879797 255 255 255
-23.217564 2435.7441 3.863359 255 255 255
1166.0735 2072.2505 3.2862825 255 255 255
282.96463 1517.9883 2.9123638 255 255 255
-1144.4098 -977.49182 -2.85622 255 255 255
1260.6251 774.61859 2.5190008 255 255 255
636.47076 857.4776 2.0983915 255 255 255
-2135.9185 -2289.6814 -5.8192592 255 255 255
-2830.9021 -1015.3309 -4.2411485 255 255 255
1252.02 1569.2493 2.8822095 255 255 255
1284.3776 716.95038 2.532896 255 255 255
-641.38861 -262.00394 -1.7326148 255 255 255
1855.8481 3572.3013 7.7198625 255 255 255
681.15759 2648.9167 3.6943362 255 255 255
534.94568 886.00476 2.0985157 255 255 255
-910.5387 -1285.5599 -3.0269196 255 255 255
-413.35046 -495.51425 -2.2028384 255 255 255
372.88907 2243.1414 3.5337894 255 255 255
-858.36951 -1230.691 -2.9179847 255 255 255
-1889.7836 -2184.6042 -5.2579041 255 255 255
21618.697 31232.189 66.893852 255 255 255
1262.3031 686.63538 2.5020869 255 255 255
-456.01596 -450.86508 -2.81497 255 255 255
827.66461 596.46252 2.0113182 255 255 255
656.31085 423.37933 1.6949332 255 255 255
-1718.3387 -2043.4242 -4.8546853 255 255 255
1210.8022 1620.6588 2.8807611 255 255 255
517.65381 984.21771 2.2179284 255 255 255
413.13068 1747.8987 3.0700161 255 255 255
1202.7025 644.82782 2.4207659 255 255 255
-942.27686 -1047.0504 -4.3246117 255 255 255
535.40863 503.49258 1.6520979 255 255 255
847.6543 716.66064 1.976092 255 255 255
2131.6882 2448.2983 3.5867491 255 255 255
-310.67682 -327.66748 -1.8675524 255 255 255
-7408.876 -6795.5317 -12.264807 255 255 255
1347.3248 1401.0869 3.3092966 255 255 255
1150.6158 1585.618 2.8405845 255 255 255
-1229.2036 -856.18915 -2.6036913 255 255 255
-1753.3781 -2028.2747 -4.8703146 255 255 255
-1887.1436 -3421.9231 -6.9524918 255 255 255
821.47894 1068.7069 2.7010288 255 255 255
-1555.8187 -3237.8542 -8.4009047 255 255 255
814.34082 2894.5842 3.6473205 255 255 255
-3771.801 -6180.0483 -20.18368 255 255 255
599.19873 442.6326 1.6659708 255 255 255
377.34061 1789.4514 3.1364076 255 255 255
-2096.7781 -2842.5649 -6.8984938 255 255 255
1320.2957 853.15668 2.5634186 255 255 255
1237.5588 748.51581 2.4877784 255 255 255
-860.86743 -2082.1404 -4.1264429 255 255 255
1147.4508 1482.4668 2.7822518 255 255 255
835.51483 971.78815 1.7596873 255 255 255
-347.71503 -429.33325 -1.9488429 255 255 255
-972.65729 -1076.4797 -2.7074571 255 255 255
933.59967 1138.0538 3.6003058 255 255 255
1231.3192 1676.2385 2.9277828 255 255 255
1269.3284 770.58081 2.5264835 255 255 255
452.50815 430.86935 1.1307657 255 255 255
-1384.903 -5853.8486 -8.6702938 255 255 255
1928.5811 955.6048 4.3998137 255 255 255
241.91699 1713.4767 3.1590979 255 255 255
17146.113 24009.463 51.404392 255 255 255
