ply
format ascii 1.0
comment PCL generated
element vertex 1119
property float x
property float y
property float z
property uchar red
property uchar green
property uchar blue
element face 0
element camera 0
property float view_px
property float view_py
property float view_pz
property float x_axisx
property float x_axisy
property float x_axisz
property float y_axisx
property float y_axisy
property float y_axisz
property float z_axisx
property float z_axisy
property float z_axisz
property float focal
property float scalex
property float scaley
property float centerx
property float centery
property int viewportx
property int viewporty
property float k1
property float k2
end_header
764.76538 617.81659 2.0410457 255 255 255
3333.4448 3803.1929 8.4344778 255 255 255
-485.88318 -500.03601 -1.6947885 255 255 255
1858.7034 1155.5601 3.692663 255 255 255
525.36951 475.40897 1.0710791 255 255 255
1547.9922 1248.8804 3.1522861 255 255 255
775.76501 217.78059 1.640191 255 255 255
1234.6085 958.76892 2.8268487 255 255 255
909.71747 539.62708 2.3824723 255 255 255
1617.3663 1237.6033 3.2566881 255 255 255
1582.8223 1219.4688 3.2070584 255 255 255
-2748.9993 -1778.1399 -5.4279666 255 255 255
898.16431 535.45679 2.3546684 255 255 255
-18476.734 -25028.074 -39.865475 255 255 255
-2021.3402 -1498.5126 -4.3577199 255 255 255
4369.623 1868.6327 7.9688201 255 255 255
247.26833 448.23026 0.91007429 255 255 255
1283.4342 559.98993 2.0125349 255 255 255
446.03101 533.15283 1.0592602 255 255 255
602.47864 788.16962 1.5735205 255 255 255
705.75305 554.53314 1.9303695 255 255 255
-1868.0624 -1019.0994 -5.1319141 255 255 255
1723.9749 1422.3578 3.3318877 255 255 255
-6424.2021 -15370.035 -25.416874 255 255 255
1799.0962 988.74829 4.5631938 255 255 255
1163.1849 1419.4543 2.6503775 255 255 255
-762.47681 -257.89697 -1.9360718 255 255 255
2680.8115 1058.7897 5.2576752 255 255 255
760.11639 574.78168 2.566309 255 255 255
3802.6855 1472.9781 8.1116009 255 255 255
3654.2944 1796.8242 5.9022961 255 255 255
2680.3303 1671.9021 5.8557081 255 255 255
-24197.076 -13638.757 -48.56427 255 255 255
298.78796 507.76791 1.2196534 255 255 255
2711.2017 1424.1276 4.8560505 255 255 255
2626.2085 1427.7981 4.710845 255 255 255
2077.9377 2574.0703 3.438724 255 255 255
707.60205 1081.5563 2.0527909 255 255 255
300.76282 541.36932 1.2526168 255 255 255
2464.8884 1804.5823 5.2469535 255 255 255
3763.0051 3178.645 5.072 255 255 255
678.40057 511.85345 1.6099125 255 255 255
-412.45575 -490.89746 -1.900357 255 255 255
-501.3934 -1596.9337 -3.5187378 255 255 255
-1376.2028 -1356.2407 -2.9249153 255 255 255
1202.7841 741.11493 3.4748583 255 255 255
1480.1053 853.63763 2.6314938 255 255 255
1463.2837 1396.5602 3.0180526 255 255 255
2945.1982 1815.0735 6.1272364 255 255 255
1611.6335 1219.6361 3.2542224 255 255 255
1645.2682 1854.4841 3.22803 255 255 255
1171.5153 1972.3273 3.5679746 255 255 255
6359.6748 4111.77 7.0445771 255 255 255
759.2793 1083.1021 2.1225238 255 255 255
3728.636 3162.752 5.0503416 255 255 255
794.44049 1206.8109 2.1984642 255 255 255
522.20258 286.67621 1.0623183 255 255 255
976.76636 1353.6263 2.4376903 255 255 255
281.86182 587.03754 1.2737851 255 255 255
-1555.3225 -953.11212 -4.4720016 255 255 255
346.38553 264.4686 0.44647178 255 255 255
-1080.7679 -1030.312 -2.7876217 255 255 255
7231.7261 4175.4497 7.7731252 255 255 255
3103.6245 1231.9548 5.8778582 255 255 255
6873.7583 4066.8308 7.5103774 255 255 255
-1221.2878 -1581.1324 -3.6170826 255 255 255
6374.7852 3083.5459 7.9304137 255 255 255
3631.0598 3177.6936 4.960556 255 255 255
-6482.7944 -1834.8035 -14.632284 255 255 255
689.39471 1169.9331 2.0779207 255 255 255
250.32234 314.76263 0.80264544 255 255 255
-13507.196 -6566.0088 -29.743521 255 255 255
1726.8813 888.07568 5.157793 255 255 255
-4235.8667 -1566.9319 -9.6595144 255 255 255
6796.9302 4069.9001 7.4565449 255 255 255
421.19763 463.35574 0.98294473 255 255 255
2112.5916 2802.7734 5.2521057 255 255 255
6716.4565 4096.3179 7.3617492 255 255 255
1286.5411 1745.0862 3.3016133 255 255 255
917.90436 1584.4825 3.1709383 255 255 255
5119.8647 2478.3179 5.4201269 255 255 255
904.75769 1149.7722 2.2682824 255 255 255
-18131.152 -25199.48 -51.495586 255 255 255
6673.3779 4083.3101 7.3313727 255 255 255
4162.8022 1849.7487 5.9127192 255 255 255
18675.543 7658.7417 22.154547 255 255 255
-998.7002 -535.12756 -3.0474055 255 255 255
6856.5615 4269.5796 7.3802037 255 255 255
-2227.7761 -1174.9746 -3.6701109 255 255 255
-26604.486 -13380.227 -60.865089 255 255 255
-473.04428 -386.07352 -2.2283797 255 255 255
312.11505 232.27716 0.42825922 255 255 255
8351.083 4041.9575 9.0036707 255 255 255
1224.9956 1309.7524 2.7304962 255 255 255
668.23376 613.42908 1.4365261 255 255 255
6578.9897 4177.7412 7.1957345 255 255 255
10518.155 4070.3525 11.264986 255 255 255
940.30768 1041.7402 1.7957242 255 255 255
584.09009 335.12274 0.86245883 255 255 255
1853.2935 1290.5608 3.6058078 255 255 255
-18261.494 -23143.832 -45.694439 255 255 255
1560.4941 1326.9277 3.1524475 255 255 255
1793.7969 1908.7125 3.824337 255 255 255
1721.389 606.81891 2.072253 255 255 255
2042.6813 1042.1689 3.9824383 255 255 255
251823.06 45960.754 533.29785 255 255 255
851.86914 512.578 0.97469163 255 255 255
2626.0803 1237.3335 4.9676127 255 255 255
904.02771 656.44196 1.0512266 255 255 255
2251.8975 854.93445 5.0769196 255 255 255
-1624.4631 -2097.4253 -5.5708308 255 255 255
748.2666 1113.007 2.1060405 255 255 255
4140.8525 2411.2078 4.5092139 255 255 255
8284.5869 4020.4502 8.9337568 255 255 255
-15363.82 -20935.129 -41.664783 255 255 255
227.86841 154.3502 0.27684808 255 255 255
92.11042 1103.8265 1.7001398 255 255 255
-1855.7335 -1466.8429 -3.4560831 255 255 255
472.65628 333.12195 0.87509477 255 255 255
2285.7778 955.29559 5.4503527 255 255 255
2872.5784 1147.0514 5.8219442 255 255 255
1206.2898 1239.2639 2.5017276 255 255 255
2622.0127 1785.2903 4.4171791 255 255 255
2969.5098 3644.3179 9.9025316 255 255 255
3079.8127 1790.708 9.9308109 255 255 255
3441.5986 933.8324 7.8733058 255 255 255
1037.9821 803.98615 3.0599196 255 255 255
-7823.1724 -6974.6753 -19.356676 255 255 255
3123.6868 1432.8949 5.548655 255 255 255
2616.1873 1780.993 4.3970604 255 255 255
-1176.6401 -454.2897 -2.3511636 255 255 255
556.53894 788.19763 1.7207845 255 255 255
-3632.2725 -6555.1172 -11.094326 255 255 255
540.00354 624.90533 1.6414596 255 255 255
1147.2783 869.63251 3.4472609 255 255 255
6282.4482 2058.1091 9.5748434 255 255 255
1246.514 879.12561 3.0057743 255 255 255
1239.5044 960.5332 3.798975 255 255 255
440.55475 595.57751 1.3469919 255 255 255
-757.04852 -434.57773 -2.3522816 255 255 255
686.94525 1132.0029 2.0526927 255 255 255
8310.8223 2173.9133 13.035445 255 255 255
2211.7905 2003.4492 3.8236012 255 255 255
26856.848 5163.6455 29.905245 255 255 255
5245.7539 4151.4263 6.7084637 255 255 255
63815.238 37508.043 147.73515 255 255 255
1700.7402 1168.2334 5.3547997 255 255 255
1145.1703 807.12476 3.3871882 255 255 255
3988.1611 480.93591 7.7868791 255 255 255
-639.08734 -1023.7403 -3.0613956 255 255 255
236.02534 478.71515 1.1020346 255 255 255
2671.281 1878.7196 4.4237027 255 255 255
1455.7155 808.94434 3.7113042 255 255 255
1653.8667 1919.6415 6.2296085 255 255 255
1140.7604 845.6319 3.4071534 255 255 255
7789.1143 2059.3108 12.474525 255 255 255
8546.6973 2132.8352 13.685436 255 255 255
856.56818 577.26617 2.1284671 255 255 255
64.337006 158.67349 0.28669265 255 255 255
996.53937 555.18353 2.5060863 255 255 255
1124.8383 1029.6049 2.1955533 255 255 255
2590.3994 1109.8611 5.7418542 255 255 255
1303.1135 598.22949 3.4148192 255 255 255
-1748.8359 -1082.0244 -3.0578718 255 255 255
1569.3663 759.08453 3.6331005 255 255 255
1435.3702 1413.3988 2.9826837 255 255 255
-1879.0724 -1696.3661 -3.7448163 255 255 255
8118.562 4143.7803 8.6816263 255 255 255
-1789.4674 -626.85913 -3.24383 255 255 255
1549.1514 886.75867 3.713011 255 255 255
3305.8894 1574.0416 8.8232393 255 255 255
1642.4414 1217.4347 3.3062117 255 255 255
10027.59 5660.6616 11.286869 255 255 255
1399.6644 900.86359 4.2431049 255 255 255
2659.5361 1825.2056 5.3036356 255 255 255
25071.283 4916.792 28.202513 255 255 255
26270.576 5071.1401 29.22658 255 255 255
38332.645 22843.867 88.262291 255 255 255
-1490.2162 -1357.3685 -3.945199 255 255 255
2745.5332 1286.4564 5.1103206 255 255 255
150.85855 425.97699 0.97014278 255 255 255
259.436 474.01038 1.0859839 255 255 255
-499.97537 -504.42694 -2.0823715 255 255 255
2577.5996 1373.0682 5.5661311 255 255 255
-2018.6548 -1249.582 -3.5540447 255 255 255
1039.6935 583.88141 2.7578347 255 255 255
9313.0742 10111.503 19.797411 255 255 255
1389.3865 1407.0659 2.9291444 255 255 255
-16553.1 -7600.1284 -37.296959 255 255 255
1157.4503 752.14923 3.3649356 255 255 255
-2222.6736 -1975.2688 -7.9180765 255 255 255
556.06555 772.61371 1.4556292 255 255 255
1207.5845 649.01385 2.9549174 255 255 255
29592.799 9417.7412 60.127125 255 255 255
-412.4223 -488.15375 -1.5869472 255 255 255
3111.1602 1660.5593 7.0422196 255 255 255
25481.352 4956.769 28.410805 255 255 255
2439.084 1724.9148 4.2691088 255 255 255
25700.766 4979.1758 28.617378 255 255 255
16986.225 18852.996 39.144001 255 255 255
1001.4882 576.93671 2.6430523 255 255 255
-653.84583 -485.93671 -1.8339527 255 255 255
837.57941 523.8833 2.0547085 255 255 255
1590.3239 1236.568 3.2189558 255 255 255
-2619.9338 -2794.7759 -9.557147 255 255 255
887.89929 939.64056 2.1867454 255 255 255
1145.1577 1120.3866 2.5712683 255 255 255
-16951.521 -7732.3345 -38.17358 255 255 255
1688.667 1187.9448 3.3894882 255 255 255
1520.2863 989.61914 2.8593204 255 255 255
3443.4351 1172.6115 6.6924987 255 255 255
23312.359 4791.4067 26.002195 255 255 255
2432.5647 4193.6436 10.115372 255 255 255
23380.252 4800.4604 26.05352 255 255 255
1330.2516 1388.0332 2.8506954 255 255 255
-2013.1351 -2240.3523 -4.6286998 255 255 255
5844.9419 1931.399 9.1552639 255 255 255
-1285.6309 -2311.9946 -5.3570042 255 255 255
-3519.6155 -1347.0917 -9.2477751 255 255 255
4870.7202 2004.1622 12.461823 255 255 255
16307.268 3881.5044 19.817225 255 255 255
-1587.3035 -1845.0049 -4.8437262 255 255 255
-1002.5098 -569.71338 -3.4577458 255 255 255
7972.8389 4381.7798 12.232864 255 255 255
1684.952 1179.132 3.3858771 255 255 255
1305.6604 701.64215 3.752351 255 255 255
-1808.0718 -1531.6865 -3.4468198 255 255 255
1273.1957 1523.6007 4.6033258 255 255 255
2210.2656 1727.2526 4.5240393 255 255 255
790.68201 1008.0599 1.9547662 255 255 255
1745.744 1179.5916 3.487298 255 255 255
442.34625 1014.9615 2.4078166 255 255 255
700.96216 1080.1233 2.0421114 255 255 255
2355.6113 762.40356 4.84269 255 255 255
4068.2234 3622.408 8.3001766 255 255 255
3105.72 1989.5283 5.4376769 255 255 255
727.10181 490.56009 1.6705456 255 255 255
3727.6184 1811.9974 6.0225253 255 255 255
1315.8872 1456.5902 2.9155898 255 255 255
8756.7188 4625.0225 24.030233 255 255 255
2655.1086 2078.5627 5.2602139 255 255 255
544.29059 629.52087 1.6501615 255 255 255
854.97882 486.3779 1.9603132 255 255 255
320.49756 565.72424 1.2974296 255 255 255
2091.0918 908.64661 3.8034956 255 255 255
1193.5911 737.99445 3.4582644 255 255 255
2014.9542 1370.1375 3.8176494 255 255 255
-641.61108 -1163.2882 -2.6563246 255 255 255
-736.9472 -176.82132 -1.8370225 255 255 255
1164.951 1420.743 2.6510689 255 255 255
9096.9453 3104.1162 11.518554 255 255 255
2860.8264 1423.6832 5.109118 255 255 255
1608.3047 1237.2855 3.2479382 255 255 255
-2893.7197 -1658.2466 -7.6489248 255 255 255
-26262.355 -7962.1641 -46.574265 255 255 255
2653.8586 2554.0378 5.7868972 255 255 255
2051.6331 1044.1886 6.3591194 255 255 255
1576.1617 928.22186 4.8088808 255 255 255
4475.7017 1216.3602 9.4436216 255 255 255
6917.9746 3531.0381 8.0112991 255 255 255
2850.7324 2438.0288 6.5888038 255 255 255
-1329.5542 -1298.5599 -2.852335 255 255 255
149.92004 413.27341 0.95363277 255 255 255
2561.449 1793.3573 4.3213315 255 255 255
2274.1111 939.30103 4.1805897 255 255 255
2707.6929 1421.9862 4.8502021 255 255 255
1984.7501 1156.5601 3.9081378 255 255 255
2077.1638 1857.0526 4.1785049 255 255 255
2340.5229 1910.526 3.9912491 255 255 255
119.94863 370.01837 0.87022185 255 255 255
129.86736 488.40588 1.0353795 255 255 255
3929.9937 1211.35 7.6480689 255 255 255
1160.2532 903.83929 3.5142047 255 255 255
1764.2655 1164.5513 3.5251725 255 255 255
-2209.0037 -751.0838 -5.6327963 255 255 255
876.13519 945.98267 2.0761769 255 255 255
1529.9679 594.85541 3.7841315 255 255 255
2630.2048 1428.2032 4.7196722 255 255 255
3148.6887 1774.8446 5.1672454 255 255 255
690.2254 1078.4285 2.0279794 255 255 255
2169.2449 920.69647 3.9454567 255 255 255
2355.1377 1914.5891 4.0117674 255 255 255
1793.9854 623.17004 5.0481558 255 255 255
5653.0312 6899.5918 16.933142 255 255 255
2544.2769 1789.8971 4.2749147 255 255 255
1369.6019 910.65662 3.0551989 255 255 255
224.60966 478.21469 1.0864989 255 255 255
2548.958 1415.4773 4.8849492 255 255 255
3801.2642 1494.6021 8.1349525 255 255 255
260.11566 495.16183 1.1477301 255 255 255
2516.5205 1208.4601 4.8028021 255 255 255
999.06183 1099.611 2.4154005 255 255 255
682.24164 1131.1229 2.0465188 255 255 255
-3687.3972 -2727.0625 -8.7558012 255 255 255
-2915.0591 -1622.5746 -6.7847004 255 255 255
2135.6482 1514.3804 4.0656967 255 255 255
3831.9131 2918.5366 6.0713978 255 255 255
10004.099 3482.4524 11.845175 255 255 255
6360.0483 4111.1401 7.0451665 255 255 255
6320.6582 3062.7297 7.8781519 255 255 255
6368.2354 4116.1191 7.0457201 255 255 255
2654.2358 1426.0017 4.7564192 255 255 255
-2031.4307 -1930.7682 -4.9938803 255 255 255
688.60443 556.18292 0.98669511 255 255 255
1914.5619 3854.2014 5.2502131 255 255 255
1132.14 753.3905 3.169812 255 255 255
4208.8496 3231.1821 5.4657154 255 255 255
1712.5402 1525.9088 3.5360651 255 255 255
1004.9472 486.31223 1.2811991 255 255 255
2835.0476 5173.791 9.4216337 255 255 255
7523.187 2203.8 11.354628 255 255 255
-565.42468 -401.95691 -1.8477677 255 255 255
8011.082 2050.3792 12.942612 255 255 255
769.85248 1169.677 2.2489629 255 255 255
8068.9829 3332.1765 9.67589 255 255 255
822.34308 465.33041 0.89764416 255 255 255
7422.686 4148.9868 7.9897561 255 255 255
8535.4932 3300.2671 21.656475 255 255 255
1412.6881 933.52051 2.968889 255 255 255
5257.7676 3814.6875 12.25908 255 255 255
1921.3457 899.40704 3.3281908 255 255 255
4564.3115 3126.0229 5.8483443 255 255 255
-25418.494 -13434.015 -58.469257 255 255 255
7324.1108 2574.4968 14.506861 255 255 255
3228.6892 1447.1401 5.7146573 255 255 255
2636.7629 1790.9324 4.4294009 255 255 255
-22723.811 -14031.776 -43.374493 255 255 255
5417.8955 3059.3455 6.8122692 255 255 255
693.33191 378.54227 0.99030995 255 255 255
4079.3613 1487.015 7.1731009 255 255 255
-7040.6372 -3187.0085 -9.8587971 255 255 255
16410.803 3906.5542 19.859623 255 255 255
2443.9688 2734.4819 5.4485555 255 255 255
2729.4175 1802.9414 4.54704 255 255 255
4088.7075 1217.7522 7.9458919 255 255 255
9840.6221 3438.3135 11.753794 255 255 255
9070.3398 5315.5371 9.8352556 255 255 255
-1333.7896 -579.9425 -3.8693442 255 255 255
300.71802 540.91565 1.251613 255 255 255
8499.8438 4041.8252 9.1342239 255 255 255
-471.81339 -326.64667 -1.9542576 255 255 255
-2702.4976 -3963.0295 -9.5354795 255 255 255
1755.1218 1353.7875 3.4217091 255 255 255
8296.4434 4696.6382 18.637156 255 255 255
-1058.6136 -838.11066 -4.0981274 255 255 255
1268.3048 641.43359 1.4117498 255 255 255
5963.5381 2818.3975 12.96098 255 255 255
2339.0161 1074.9979 4.4238968 255 255 255
-10160.718 -2994.9387 -12.025517 255 255 255
-3918.6733 -1381.1998 -9.1998186 255 255 255
1304.4921 1599.527 3.2148106 255 255 255
3160.2251 1774.6692 5.1783104 255 255 255
-508.13123 -534.42889 -1.9532826 255 255 255
-609.78247 -380.44974 -2.0505583 255 255 255
732.22449 1112.0807 2.0918319 255 255 255
-2386.6653 -1187.7612 -4.1173472 255 255 255
2560.7153 1799.7938 4.3165236 255 255 255
457.1373 260.70773 0.55058074 255 255 255
748.04218 892.91626 1.7715148 255 255 255
738.42664 561.93738 0.90088779 255 255 255
970.62634 995.28174 2.3050334 255 255 255
583.80493 1452.7327 2.5519202 255 255 255
6350.5386 3535.156 7.405736 255 255 255
6072.7568 3009.4688 12.909897 255 255 255
456.12787 162.99742 0.54452896 255 255 255
850.19318 1685.2689 2.4758053 255 255 255
942.04883 481.94507 1.0333675 255 255 255
7097.6182 4116.8682 7.7129555 255 255 255
1411.5281 999.47473 3.9195747 255 255 255
-3824.0303 -8265.2002 -16.172628 255 255 255
1543.5122 1816.313 3.71228 255 255 255
338.37158 468.37198 0.73635232 255 255 255
988.39417 912.46838 2.4336159 255 255 255
-63651.434 -60316.477 -107.56852 255 255 255
863.65356 492.65063 2.0137622 255 255 255
-1197.2666 -1139.4602 -2.5941834 255 255 255
7255.0425 4086.3416 7.858418 255 255 255
-465.01566 -456.50204 -1.6509159 255 255 255
1241.3234 746.26959 3.5560112 255 255 255
246.70102 581.71405 1.2813268 255 255 255
22477.188 4726.2183 25.116549 255 255 255
3723.1223 3160.3442 5.0451241 255 255 255
697.88416 1178.8754 2.0896864 255 255 255
604.20239 548.43219 1.4003724 255 255 255
1985.911 1027.5941 4.3267803 255 255 255
6647.877 4097.939 7.305584 255 255 255
1875.0028 1476.4337 3.6243453 255 255 255
9862.9385 3459.3958 11.717915 255 255 255
25832.238 37998.797 83.776283 255 255 255
6784.6772 4062.6553 7.4446716 255 255 255
4237.2056 3249.0767 5.4913468 255 255 255
403.69748 705.07312 2.1623814 255 255 255
702.85864 1181.302 2.0967481 255 255 255
3067.5112 2005.3575 6.8075132 255 255 255
1191.4912 963.29578 3.8836088 255 255 255
2907.8994 1030.3525 5.5713472 255 255 255
2737.2175 1862.0128 4.5206132 255 255 255
1319.5566 1729.7136 3.2840745 255 255 255
7233.2661 3544.5205 8.3425179 255 255 255
2029.3574 1139.413 4.1068573 255 255 255
1853.1311 1371.01 3.5589001 255 255 255
8380.8896 3188.2563 10.323578 255 255 255
1151.4794 1120.731 2.5770631 255 255 255
3762.478 3182.1538 5.0746431 255 255 255
1552.3114 1322.5074 3.1381192 255 255 255
-2253.5762 -5851.7319 -9.9246998 255 255 255
8567.8066 4059.6985 9.6535311 255 255 255
692.43256 1122.1069 2.0555105 255 255 255
5816.0815 7731.9985 18.191427 255 255 255
686.93073 1122.2476 2.0478957 255 255 255
-1262.4945 -1197.8567 -2.5437515 255 255 255
6358.1104 3080.1301 7.9100676 255 255 255
2629.1379 1128.1621 5.3077674 255 255 255
-1650.4469 -977.07861 -2.8890872 255 255 255
2463.4402 1137.6196 4.9839382 255 255 255
3727.4626 1461.3618 6.5748501 255 255 255
911.61377 1152.5374 2.2785976 255 255 255
-1163.8171 -906.02722 -3.8905566 255 255 255
5184.3125 2181.7876 7.6533351 255 255 255
-3120.0264 -2575.6482 -5.7994261 255 255 255
6684.5083 4083.0232 7.3483133 255 255 255
7014.3408 3769.863 7.924376 255 255 255
1569.8285 900.02856 4.7591071 255 255 255
1721.4767 3030.6726 4.5172081 255 255 255
2951.5046 3253.7871 7.2946615 255 255 255
761.04272 1373.2908 2.2453187 255 255 255
1390.942 1314.6938 2.9286351 255 255 255
7878.272 13568.521 23.317188 255 255 255
1753.2224 786.36285 3.1184139 255 255 255
1645.7889 1874.3788 3.2323935 255 255 255
-5577.835 -7533.2905 -17.95315 255 255 255
700.61963 1303.3204 2.1550097 255 255 255
1559.033 1252.7021 3.167721 255 255 255
-1883.1494 -99.827026 -4.228168 255 255 255
530.63269 550.17853 1.2435819 255 255 255
573.70929 599.09515 1.683501 255 255 255
1369.2869 1394.5819 2.9015174 255 255 255
-1749.2236 -630.35059 -3.1828258 255 255 255
9347.4678 9512.8203 15.294806 255 255 255
1735.396 1829.9082 4.2301908 255 255 255
6942.7144 4025.937 7.5991349 255 255 255
293.72809 595.46472 1.2932689 255 255 255
976.93134 1354.6385 2.4384632 255 255 255
715.21191 297.54578 1.2379271 255 255 255
1821.7319 1629.2211 3.4327583 255 255 255
-165.04871 -354.59903 -1.5560403 255 255 255
1170.8223 1098.0496 2.6029351 255 255 255
6700.2666 4087.4343 7.3449559 255 255 255
1050.9174 554.44995 1.5735607 255 255 255
65.478905 381.2709 0.85334522 255 255 255
794.65143 355.82602 1.0003439 255 255 255
174.02156 138.85371 0.40476358 255 255 255
2597.4075 1854.3745 6.2419515 255 255 255
507.12479 559.05005 1.1698438 255 255 255
-2398.4954 -3213.0813 -6.6220651 255 255 255
6639.9585 3123.2717 14.805117 255 255 255
849.47803 1689.5879 2.4786515 255 255 255
2297.6978 2645.9187 5.1946936 255 255 255
150.52701 425.37088 0.96939826 255 255 255
690.60968 1079.2156 2.0258305 255 255 255
2661.6812 1430.1989 4.7705011 255 255 255
6676.9854 4065.5222 7.3480048 255 255 255
4579.6948 3133.8782 5.8581266 255 255 255
1645.2413 1218.5363 3.3132713 255 255 255
1723.0619 396.96933 4.5338492 255 255 255
1204.2166 1184.1844 5.0972071 255 255 255
4560.0215 3123.5828 5.8420858 255 255 255
917.42377 693.19171 1.1174167 255 255 255
2376.9866 1449.7762 4.3007264 255 255 255
-2242.0149 -1243.229 -5.2752466 255 255 255
1412.6284 1408.614 2.958369 255 255 255
1717.416 663.99457 4.791563 255 255 255
3651.4521 844.69586 10.802087 255 255 255
872.24634 1070.4755 2.2484202 255 255 255
2632.8169 1428.4756 4.7251062 255 255 255
646.6676 606.42316 1.6649824 255 255 255
770.19446 754.88062 1.4932698 255 255 255
-698.44733 -1791.3965 -3.6996527 255 255 255
-19246.354 -25628.238 -41.369534 255 255 255
1689.4824 1186.9261 3.3923981 255 255 255
838.23999 390.58978 1.1003209 255 255 255
6367.5669 4115.9517 7.0451136 255 255 255
711.36938 512.8233 1.6989092 255 255 255
-484.86658 -492.86691 -1.678666 255 255 255
1852.46 1163.9622 3.6718056 255 255 255
1931.2462 887.22388 3.4631155 255 255 255
-925.3916 -979.52496 -2.2344179 255 255 255
4278.0342 1189.6565 8.7119846 255 255 255
1938.9004 1865.1909 4.2745085 255 255 255
-1933.5137 -1171.3759 -3.4465444 255 255 255
860.41064 695.90857 2.4187481 255 255 255
901.83337 350.75061 1.0804477 255 255 255
440.50113 591.45514 1.3411025 255 255 255
2015.0085 1120.218 6.2872472 255 255 255
1643.3081 2114.6985 5.3724041 255 255 255
1602.0697 1232.6189 3.2350938 255 255 255
-12243.174 -8753.2676 -17.933016 255 255 255
23566.273 4837.9175 26.262642 255 255 255
9955.0654 3427.386 11.893508 255 255 255
1181.9724 579.83282 2.0627589 255 255 255
281.21924 589.20996 1.2725916 255 255 255
755.83179 677.02716 0.95122355 255 255 255
6332.1855 3065.6411 7.8918715 255 255 255
2565.4844 1571.7708 8.2295942 255 255 255
1724.9552 1173.0231 3.454361 255 255 255
6800.8545 4054.4646 7.4583397 255 255 255
1426.9901 1332.7494 4.8629618 255 255 255
-694.09351 -1222.5867 -2.7112966 255 255 255
-2019.4077 -2182.676 -6.2153497 255 255 255
-3604.6553 -1909.0782 -9.4002733 255 255 255
8394.7676 3191.8955 10.318474 255 255 255
-992.17035 -502.8356 -2.3441343 255 255 255
7737.3496 2201.9714 11.703031 255 255 255
224.73035 478.71198 1.0872906 255 255 255
1434.1473 1412.233 2.9796767 255 255 255
2599.5422 1277.6157 4.8540578 255 255 255
3658.7649 1797.3575 5.9257736 255 255 255
183.03877 564.63867 1.4990926 255 255 255
130.27718 488.77475 1.0364449 255 255 255
3282.1729 1453.1978 5.8024516 255 255 255
2634.3262 1130.5494 5.3215222 255 255 255
-3869.8933 -6068.1802 -11.878454 255 255 255
4682.1885 1401.0674 9.9801617 255 255 255
1862.1335 1616.5107 4.06848 255 255 255
-7322.3447 -12537.349 -30.459358 255 255 255
-10697.225 -6757.0469 -24.632906 255 255 255
3717.9253 1808.5461 6.0001407 255 255 255
6347.5552 3073.2068 7.9007463 255 255 255
6819.9028 4082.0571 7.4832482 255 255 255
6124.501 1403.8033 6.9994473 255 255 255
-1186.3053 -1307.2113 -3.2133927 255 255 255
8363.3447 3180.7922 10.299462 255 255 255
1131.4611 1105.1392 2.5241234 255 255 255
20480.434 9147.4521 39.256088 255 255 255
9412.0029 15463.974 27.245733 255 255 255
227.07104 432.99515 0.73725289 255 255 255
700.95129 1184.2942 2.0975969 255 255 255
3825.0676 5652.8193 10.247551 255 255 255
1145.8564 1120.7902 2.5714507 255 255 255
2363.6521 2126.0315 5.37289 255 255 255
2522.7456 1050.2411 4.9517503 255 255 255
1141.8424 733.81232 1.3246559 255 255 255
19300.971 22262.668 57.233471 255 255 255
267.93011 530.44147 1.2343494 255 255 255
243.23329 475.0108 1.1098931 255 255 255
351.39606 343.203 0.92317069 255 255 255
683.4397 784.37585 1.989724 255 255 255
1726.4984 658.94788 4.8437896 255 255 255
966.14276 649.44666 2.5550005 255 255 255
-2686.0635 -2907.1377 -6.9843173 255 255 255
1354.7725 1419.4597 2.8884885 255 255 255
2563.2939 1793.0975 4.3239288 255 255 255
540.52197 722.388 1.2319393 255 255 255
-695.62427 -809.34192 -2.1206379 255 255 255
2639.1292 1342.1997 5.9800448 255 255 255
4224.3726 3239.2803 5.484292 255 255 255
-736.92316 -176.23114 -1.8369702 255 255 255
939.13403 966.51007 2.2619979 255 255 255
-4773.8237 -5541.0156 -11.429099 255 255 255
-440.09378 -284.23181 -1.5511909 255 255 255
1103.8383 636.24731 3.053884 255 255 255
1166.6305 755.47302 3.3866329 255 255 255
1171.2412 1097.3523 2.6055546 255 255 255
368.61398 311.56696 0.47144717 255 255 255
2783.1011 1415.5804 4.9987516 255 255 255
-987.26245 -1853.246 -4.5141277 255 255 255
8486.2021 2113.2324 13.579751 255 255 255
-1523.006 -614.90607 -3.8345127 255 255 255
1599.7849 1214.7275 3.2397282 255 255 255
3354.2771 2315.8567 7.3571796 255 255 255
-1107.5283 -1185.9761 -3.005455 255 255 255
3016.3083 1263.5651 6.7853742 255 255 255
36668.926 22492.084 66.537384 255 255 255
2487.3147 1105.4121 4.8660297 255 255 255
-1420.0946 -3270.7122 -7.2446966 255 255 255
283.15146 255.51511 0.83450693 255 255 255
1607.4288 935.9469 4.8947978 255 255 255
788.48175 874.45685 2.3200929 255 255 255
122.53869 486.19537 1.0280747 255 255 255
4066.2229 1210.7932 7.8991299 255 255 255
635.51343 596.38159 1.6466923 255 255 255
5437.3984 3066.7737 6.8387289 255 255 255
2725.5366 1984.8555 6.5840807 255 255 255
1033.2966 614.36475 2.8069398 255 255 255
16139.112 3836.9978 19.509176 255 255 255
33772.996 25740.842 91.701439 255 255 255
1920.0533 1249.0229 3.6078043 255 255 255
1775.5582 1143.6931 5.5658879 255 255 255
1666.5726 1171.7358 3.3564212 255 255 255
1772.8729 1167.7466 3.5379016 255 255 255
1724.7076 1199.9011 3.4460335 255 255 255
248.27243 419.63287 0.94331306 255 255 255
897.03577 939.99561 2.2015634 255 255 255
119.85335 369.15689 0.86908299 255 255 255
897.22607 379.71127 0.99396348 255 255 255
996.55133 412.51892 2.4966674 255 255 255
4985.7124 6184.7114 12.54875 255 255 255
-7390.8403 -5847.4526 -13.56523 255 255 255
1035.921 368.34613 1.720409 255 255 255
-444.82892 -842.47577 -2.4357603 255 255 255
2390.2507 953.71283 4.4124436 255 255 255
1298.9089 1360.8121 2.7949796 255 255 255
-11076.649 -3252.1177 -13.705791 255 255 255
1033.436 546.17316 2.5359089 255 255 255
2007.1969 1035.2373 6.2091274 255 255 255
1800.1262 1015.2371 3.497468 255 255 255
8076.2676 2063.7539 13.045631 255 255 255
345.72369 230.67767 0.62231278 255 255 255
2760.1101 1415.7537 4.9470835 255 255 255
25311.988 4975.1733 28.47327 255 255 255
8495.9268 4039.7456 9.1304102 255 255 255
38031.395 22652.729 87.524849 255 255 255
-2376.8406 -990.54407 -4.0045667 255 255 255
1509.9843 1041.433 1.9025602 255 255 255
551.04993 630.04651 1.6621108 255 255 255
6908.3857 3525.7341 7.9982338 255 255 255
2431.9795 1230.7238 4.6300187 255 255 255
385.21521 755.69055 1.5128598 255 255 255
959.61481 526.74261 1.1506776 255 255 255
-2990.2742 -1499.1268 -10.062686 255 255 255
1215.9104 898.40338 2.1599994 255 255 255
5138.9878 1275.4399 10.735506 255 255 255
9085.665 3098.9231 11.501282 255 255 255
1151.3724 804.2002 3.4016218 255 255 255
4096.6177 1489.3821 7.2030549 255 255 255
-977.16638 -1083.1128 -2.8468378 255 255 255
912.08435 897.22974 2.2162371 255 255 255
-711.72504 -959.42786 -2.7536328 255 255 255
2740.4937 1422.1931 4.9173512 255 255 255
15282.509 1612.2767 32.634869 255 255 255
1551.1906 977.79364 2.8395035 255 255 255
1980.2416 1152.2783 3.8990974 255 255 255
1435.5135 565.14404 3.8563182 255 255 255
7809.2578 4038.759 8.4718657 255 255 255
1259.8232 753.7771 3.5832427 255 255 255
239.63329 484.33157 1.1129221 255 255 255
2056.335 913.0061 3.7425761 255 255 255
1597.8666 929.92383 2.8098986 255 255 255
797.15814 560.13367 2.0343673 255 255 255
1239.8844 404.80136 2.8401208 255 255 255
1349.0765 1427.7505 2.8853972 255 255 255
47.454315 169.92354 0.35995647 255 255 255
2718.4832 1426.9113 4.8689904 255 255 255
1685.0055 1449.2073 3.6379099 255 255 255
1793.1146 623.42645 5.0421467 255 255 255
1323.8218 1640.8359 3.1013274 255 255 255
2357.6162 1915.7687 4.0165024 255 255 255
2614.5298 1784.1492 4.4038281 255 255 255
319.62512 564.03851 1.2943023 255 255 255
1373.173 1364.8282 1.9167702 255 255 255
693.85284 1124.1887 2.0600474 255 255 255
881.8855 925.95789 2.1763635 255 255 255
16247.687 3867.4009 19.741652 255 255 255
987.11102 633.76874 2.7088184 255 255 255
1316.3506 650.19916 3.7009721 255 255 255
-1122.3894 -559.90784 -3.1147718 255 255 255
963.81604 928.16138 2.2947371 255 255 255
-56.821739 -53.169498 -1.1520023 255 255 255
33207.77 16003.964 55.864933 255 255 255
-615.93262 -337.53629 -1.8574582 255 255 255
5165.395 2171.2822 7.6309838 255 255 255
2006.8094 1899.7241 3.4090352 255 255 255
3441.3206 1442.5059 6.0920539 255 255 255
3214.373 1440.5126 5.690793 255 255 255
3217.614 1166.2385 6.2522907 255 255 255
3790.3391 3185.0613 5.0916557 255 255 255
-570.54413 -181.59474 -1.6238062 255 255 255
3756.5205 3175.209 5.0640516 255 255 255
3534.3801 1181.0828 6.8376613 255 255 255
216.78093 475.33606 1.0733721 255 255 255
3949.3564 1214.2474 7.685678 255 255 255
3389.9705 1151.0161 6.6265326 255 255 255
2104.9458 829.39612 3.9255002 255 255 255
917.73206 481.55209 1.4724746 255 255 255
2509.9443 1253.4061 4.7309618 255 255 255
1403.098 887.92511 4.2432547 255 255 255
1160.8379 765.24982 3.3799958 255 255 255
1138.8524 844.76404 3.3997552 255 255 255
3508.0945 1185.6412 6.8041024 255 255 255
3432.4385 1167.6605 6.6738081 255 255 255
6715.3931 1984.6954 10.699265 255 255 255
-999.75391 -400.6344 -1.9848698 255 255 255
-993.5437 -398.37454 -1.978783 255 255 255
1991.0721 639.32196 5.7049689 255 255 255
-1075.5852 -439.90637 -2.2630973 255 255 255
1057.0675 742.8407 3.0550067 255 255 255
2418.9888 1224.1847 4.614048 255 255 255
894.99811 939.13806 2.1946344 255 255 255
1080.699 1002.4395 2.6104033 255 255 255
2572.2832 1043.8533 5.048089 255 255 255
12408.277 14766.444 37.122616 255 255 255
-2766.2427 -939.36578 -5.5092602 255 255 255
538.05756 772.59644 1.4620217 255 255 255
2856.8489 1421.8724 5.1006498 255 255 255
794.47504 554.95746 2.015902 255 255 255
9811.1943 3423.9343 11.731574 255 255 255
968.90564 932.83307 2.2988741 255 255 255
8362.7002 2187.9382 13.113135 255 255 255
700.62427 1222.6244 2.1152077 255 255 255
806.94873 528.85522 2.1578813 255 255 255
3086.021 1153.7424 5.9913478 255 255 255
16166.027 14002.87 40.848129 255 255 255
-212385.48 -105011.47 -352.36285 255 255 255
-49.325989 -50.330563 -1.0697042 255 255 255
320.5412 700.18567 1.3791338 255 255 255
1905.4989 675.01312 3.7743931 255 255 255
2284.5779 1458.6102 4.1478009 255 255 255
2027.9226 1072.6094 4.0317349 255 255 255
6738.0273 4056.4167 7.409688 255 255 255
7227.3003 3539.4609 8.334198 255 255 255
10016.515 3484.9675 11.860538 255 255 255
-1753.7327 -1083.3065 -3.0639665 255 255 255
-1310.9753 -1071.7662 -3.3107257 255 255 255
-2084.2483 -1334.3579 -5.9221344 255 255 255
1029.967 703.49908 2.2079649 255 255 255
2586.7139 3229.2383 10.380179 255 255 255
426.74051 966.81958 2.6760807 255 255 255
5014.2778 4020.0383 11.621093 255 255 255
851.38293 1201.0641 1.3735988 255 255 255
683.06757 1132.5377 2.0494151 255 255 255
822.32721 1262.3462 1.98189 255 255 255
797.34204 749.16821 1.9839047 255 255 255
9814.1475 3438.9307 11.659361 255 255 255
2558.2776 1042.4492 3.2500353 255 255 255
337.51138 199.04475 0.4193359 255 255 255
2160.3628 1962.8407 3.5101013 255 255 255
-2631.0676 -2860.3418 -6.9368234 255 255 255
749.48285 323.68365 0.84228748 255 255 255
376.77283 351.88419 0.97674745 255 255 255
1045.3447 878.32629 1.6030645 255 255 255
2038.908 1333.9437 4.9783263 255 255 255
-3395.2742 -2581.1899 -6.65518 255 255 255
947.91449 728.91217 1.7427229 255 255 255
-30651.283 -16970.807 -93.772385 255 255 255
675.3916 301.21155 0.87298548 255 255 255
946.37366 476.48157 1.1530437 255 255 255
2835.9167 2166.1458 5.6656909 255 255 255
4672.6934 1244.973 9.6705484 255 255 255
-765.26447 -301.22284 -1.8687514 255 255 255
13345.523 2019.8706 27.694948 255 255 255
241.66127 574.50842 1.2646127 255 255 255
8297.9551 4037.4487 8.9286613 255 255 255
3129.8699 1437.8091 5.5613399 255 255 255
1260.7629 639.58002 2.1751828 255 255 255
-2127.0242 -5508.2046 -9.3700371 255 255 255
268.91763 596.28748 1.273123 255 255 255
-631.89758 -1004.1522 -3.1522586 255 255 255
-3210.2966 -1438.6896 -4.0122538 255 255 255
-975.46045 -1438.452 -3.922893 255 255 255
-1008.3629 -45.952522 -2.1569161 255 255 255
2737.5725 1803.8217 4.5589447 255 255 255
833.9165 429.2149 1.0522407 255 255 255
3714.6387 3149.8691 5.0471263 255 255 255
1289.6438 471.29025 1.8467152 255 255 255
767.2027 1324.6289 2.2285037 255 255 255
664.55316 459.52383 0.84018892 255 255 255
-7716.0864 -7816.875 -20.975491 255 255 255
3505.9341 2795.6699 7.887404 255 255 255
7340.2148 3554.2102 8.4628162 255 255 255
3189.0757 2026.4777 7.5144444 255 255 255
954.3269 656.37854 2.5898297 255 255 255
1274.6898 595.27466 3.3526559 255 255 255
-738.87451 -30.446306 -1.8271453 255 255 255
663.75653 584.01959 1.7099835 255 255 255
141871.72 337774.97 584.69995 255 255 255
-445.02518 -1592.2026 -3.3602178 255 255 255
700.76947 1183.4843 2.0990365 255 255 255
-14500.188 -16173.937 -40.445503 255 255 255
2768.1343 1408.2665 4.9740748 255 255 255
-591.83105 -703.02301 -2.2854216 255 255 255
3080.0852 1152.4497 5.9779139 255 255 255
3546.0789 1184.95 6.8671861 255 255 255
8409.9346 3196.5933 10.345007 255 255 255
1293.8489 1368.4722 2.8104246 255 255 255
1351.0177 1431.1337 2.8911562 255 255 255
1729.8798 1174.6674 3.4662433 255 255 255
901.33173 535.70593 2.3626182 255 255 255
2571.1143 1796.8755 4.3407345 255 255 255
-1448.2209 -3086.4792 -6.9910755 255 255 255
569.81201 618.85211 1.1576678 255 255 255
941.76917 972.76654 2.269949 255 255 255
2781.4807 1423.0934 4.9906073 255 255 255
1169.9489 1095.2843 2.6025758 255 255 255
845.63116 392.24512 1.1096672 255 255 255
545.04059 623.15411 1.6456146 255 255 255
539.96777 623.07672 1.6375364 255 255 255
2657.3652 1427.7286 4.7624822 255 255 255
2630.6838 1426.1982 4.723083 255 255 255
1686.8032 1178.848 3.3936923 255 255 255
271.35623 101.37006 0.35464016 255 255 255
120.95306 370.94806 0.87457514 255 255 255
4658.1294 3087.6428 8.6952858 255 255 255
3490.6802 1181.0973 6.7736583 255 255 255
9734.459 20157.43 35.430157 255 255 255
-1649.1515 -2063.553 -5.5338492 255 255 255
1718.3047 1195.7806 3.4327855 255 255 255
10220.113 4851.2256 19.048677 255 255 255
1693.3257 1187.4656 3.3984268 255 255 255
2190.5303 2025.5793 3.8023226 255 255 255
-587.92932 -1820.0695 -4.1737885 255 255 255
1163.3517 1097.7634 2.6016464 255 255 255
3670.0615 1801.5311 5.9468789 255 255 255
766.75922 995.93323 1.943884 255 255 255
702.49243 641.45172 1.8924583 255 255 255
1112.399 542.20374 2.8375227 255 255 255
-626.9599 -377.60501 -1.7771838 255 255 255
2531.1204 1130.7668 4.923636 255 255 255
127.58377 490.68088 1.0367262 255 255 255
394.20526 227.85313 0.50577134 255 255 255
821.34015 479.8739 1.2182825 255 255 255
3949.6272 1212.1692 7.6876268 255 255 255
34241.617 5706.0425 38.776402 255 255 255
2614.6091 1281.7905 4.8801947 255 255 255
-4213.1909 -6203.8979 -14.112725 255 255 255
-446.1553 -1609.4513 -3.3807683 255 255 255
1431.7083 917.68091 4.3534474 255 255 255
229.94823 318.28036 0.78878427 255 255 255
1149.6088 658.48297 2.7566795 255 255 255
-1586.1689 -692.5639 -4.8128362 255 255 255
811.35046 464.12534 1.735955 255 255 255
7031.2134 2975.8208 8.9286613 255 255 255
288.90891 557.46075 1.3214083 255 255 255
10668.563 12037.935 22.99048 255 255 255
8072.5361 2031.2562 13.007529 255 255 255
8539.6797 2129.7771 13.669746 255 255 255
-1220.4066 -2929.8945 -6.731884 255 255 255
9924.2061 3419.1877 11.862268 255 255 255
-9653.415 -6264.8584 -20.24366 255 255 255
250.33875 278.8895 0.72393745 255 255 255
2895.281 1813.7821 5.7385454 255 255 255
-2351.4141 -2083.675 -4.830987 255 255 255
151.07027 425.70151 0.97127527 255 255 255
1613.2919 1971.3055 4.0400724 255 255 255
1675.4678 831.31598 2.88729 255 255 255
315.97623 320.53571 0.4440383 255 255 255
244.46346 478.19952 1.117445 255 255 255
16175.394 3849.823 19.553568 255 255 255
24960.584 4927.4873 28.085054 255 255 255
-4940.75 -6718.4292 -16.621582 255 255 255
1761.0234 1340.9011 3.2141521 255 255 255
-362.26694 -549.73474 -1.7463697 255 255 255
1988.5626 1166.1041 4.0653195 255 255 255
2617.448 1777.0638 4.4006686 255 255 255
795.28674 554.06335 2.0175688 255 255 255
189.0204 446.2496 1.0185677 255 255 255
12195.852 7487.7227 28.122908 255 255 255
234.97198 476.0556 1.0959592 255 255 255
1162.4275 906.62543 3.5196996 255 255 255
-5073.9883 -8222.8076 -19.588514 255 255 255
-1209.8149 -776.0495 -2.4354084 255 255 255
3719.604 3159.4844 5.0446172 255 255 255
8053.7676 3322.0217 9.661027 255 255 255
231.1274 478.51434 1.0961823 255 255 255
-5310.0693 -9398.3672 -17.245678 255 255 255
-878.71942 -1117.9758 -3.3318088 255 255 255
238.84682 481.67795 1.1044503 255 255 255
5176.085 2173.804 7.6449852 255 255 255
286.98099 532.80579 1.2306991 255 255 255
13535.564 15558.466 39.233665 255 255 255
1184.5463 543.91852 3.0222805 255 255 255
2837.239 1423.62 5.0846677 255 255 255
225.11169 479.81418 1.0903159 255 255 255
3699.554 3135.9092 5.0246229 255 255 255
-884.04413 -1991.1439 -4.1674886 255 255 255
6834.4585 4068.8394 7.5000086 255 255 255
-3689.0535 -7273.1113 -14.394786 255 255 255
-421.74738 -610.00037 -1.6788534 255 255 255
2946.3049 1146.4043 5.9779286 255 255 255
218.20953 480.42267 1.0841014 255 255 255
2721.0007 1424.6925 4.8720255 255 255 255
-2647.8052 -2035.4573 -7.5750351 255 255 255
320.168 565.2583 1.2977023 255 255 255
1795.2003 624.26056 5.0512948 255 255 255
1147.5315 836.35803 3.4197555 255 255 255
1022.4514 612.30499 2.7756636 255 255 255
2205.864 1994.142 3.8122299 255 255 255
7814.7627 2065.3787 12.525573 255 255 255
2722.7493 1415.5555 4.8873196 255 255 255
3915.145 1368.1021 8.2829609 255 255 255
548.8009 706.53094 1.6763973 255 255 255
243.74495 337.10223 0.61984372 255 255 255
322.10202 234.922 0.44314244 255 255 255
3861.3652 2136.7156 5.7881465 255 255 255
40727.316 70887.656 129.75314 255 255 255
1320.4082 1380.5945 2.8301971 255 255 255
2665.7144 1147.4854 5.1803193 255 255 255
591.25476 374.4057 1.3658516 255 255 255
1610.5497 837.87646 2.9692981 255 255 255
962.4812 927.43616 2.2932057 255 255 255
971.35809 934.62317 2.3055828 255 255 255
2610.3374 1784.6862 4.3959103 255 255 255
3981.1421 3433.9214 7.7221494 255 255 255
1605.3503 1512.4176 2.114444 255 255 255
491.59338 212.78477 0.62034279 255 255 255
1066.4353 561.46149 2.5987475 255 255 255
1761.9586 664.81079 4.898726 255 255 255
1016.2914 410.89871 1.357412 255 255 255
2032.0552 956.06165 3.8336482 255 255 255
2349.5659 2070.0916 5.1510954 255 255 255
13367.094 14300.224 33.517952 255 255 255
6392.5625 4124.7451 7.0725546 255 255 255
-65689.977 -30835.598 -85.564178 255 255 255
5435.8101 3061.2642 6.8348341 255 255 255
7446.5376 4154.8096 8.0234718 255 255 255
-851.59418 -382.88806 -2.5716164 255 255 255
58.541649 201.54799 0.5527181 255 255 255
1668.8673 1172.9329 3.3632491 255 255 255
1639.5601 1211.97 3.3017843 255 255 255
4213.0557 3230.8691 5.47189 255 255 255
9781.6846 3410.8123 11.694518 255 255 255
1188.8456 621.81482 1.6204617 255 255 255
1390.2345 2267.3721 4.0932703 255 255 255
327.94525 308.40457 0.78179991 255 255 255
-1563.3671 -983.30627 -4.5383954 255 255 255
7755.5215 4012.0486 8.4135685 255 255 255
8138.5469 4155.1113 8.7054415 255 255 255
7698.0103 4002.0505 8.3667231 255 255 255
5527.9785 5678.8413 15.157608 255 255 255
1363.2054 1390.6069 2.8922596 255 255 255
6347.8521 3076.2451 7.9106956 255 255 255
2610.3479 1780.5966 4.3816648 255 255 255
864.04132 696.50116 2.4280221 255 255 255
7050.0674 2984.6812 8.9383383 255 255 255
-2429.9385 -5979.769 -10.067299 255 255 255
2192.5686 224.49796 2.560874 255 255 255
-26222.684 -33259.746 -67.58445 255 255 255
18037.496 4278.5918 20.629826 255 255 255
3207.1707 1156.3735 6.2314067 255 255 255
1070.1919 1610.744 1.8396584 255 255 255
608.11249 350.82312 1.2121291 255 255 255
523.58209 519.48669 0.7261197 255 255 255
1175.7346 1015.0295 2.1483259 255 255 255
406.61792 246.87849 0.60450321 255 255 255
970.10883 995.69653 2.3065257 255 255 255
8501.7012 4041.5503 9.139451 255 255 255
714.02777 399.2247 1.0601919 255 255 255
519.24792 474.83868 0.68252373 255 255 255
2730.2786 1280.7175 5.082788 255 255 255
855.29926 197.33594 0.96548992 255 255 255
2278.5398 1837.9592 2.9246697 255 255 255
6687.1768 4072.5813 7.3629036 255 255 255
-951.92944 -554.37177 -2.5691435 255 255 255
4106.3154 1491.5338 7.2189178 255 255 255
-1575.6578 -679.96082 -4.783885 255 255 255
-2779.2185 -1597.4272 -4.1003008 255 255 255
-1073.1906 -589.72107 -3.4198315 255 255 255
6934.0322 4027.2441 7.596961 255 255 255
265.58856 394.98282 0.74933451 255 255 255
9987.21 3470.2578 11.827227 255 255 255
2482.2117 3400.4546 7.2374949 255 255 255
5861.4966 1771.5076 9.2441511 255 255 255
-4085.8547 -6177.5884 -12.786222 255 255 255
23651.137 4850.1602 26.384747 255 255 255
3055.0266 2198.0562 3.9136443 255 255 255
47202.445 37953.832 92.263367 255 255 255
4039.3901 1480.1152 7.0907497 255 255 255
2669.4241 1876.8918 4.4244347 255 255 255
7903.2456 2239.3943 11.958833 255 255 255
4920.7837 5629.8447 13.398874 255 255 255
-2933.4294 -4273.439 -8.2896395 255 255 255
758.9682 431.40765 1.9157367 255 255 255
15226.809 3990.5229 32.389107 255 255 255
275.99649 430.17865 1.1828815 255 255 255
4662.7031 5093.5776 9.4787502 255 255 255
-3038.7236 -1561.501 -6.938848 255 255 255
3719.1069 1821.6378 5.9832268 255 255 255
960.40637 1275.4894 1.567611 255 255 255
1080.0037 1036.4315 3.7501512 255 255 255
35789.672 21153.832 67.859833 255 255 255
-1799.988 -922.9928 -3.2724111 255 255 255
457.73944 268.14789 0.83597416 255 255 255
3247.1714 2114.5437 4.1114898 255 255 255
2168.542 1545.1919 4.1973433 255 255 255
9732.0332 3226.9617 10.280783 255 255 255
2279.0139 1700.4194 4.4503212 255 255 255
58.966434 389.06653 0.86187446 255 255 255
34672.59 51480.922 116.12604 255 255 255
937.7345 965.93005 2.2610223 255 255 255
-659.00012 -2066.9722 -4.6758809 255 255 255
346.16919 698.71375 1.4293194 255 255 255
879.09277 924.24927 2.1726637 255 255 255
-2709.7075 -1625.3284 -4.862802 255 255 255
-347.24295 -560.87317 -1.8885043 255 255 255
1360.8923 1567.1704 6.2172995 255 255 255
2251.7598 1055.4841 4.4442787 255 255 255
183.02193 284.91385 0.51644135 255 255 255
1308.3015 658.49127 3.5377896 255 255 255
1822.0654 1371.7229 3.2384243 255 255 255
2601.7788 1287.5813 4.856401 255 255 255
-33393.902 -8891.9102 -88.35025 255 255 255
699.32758 1233.5028 2.1219616 255 255 255
336.88214 158.50546 0.76428741 255 255 255
26401.5 46178.77 84.261665 255 255 255
1419.8501 1394.4133 2.958437 255 255 255
2352.3083 1923.3093 4.0122514 255 255 255
15926.562 6317.6025 34.609329 255 255 255
4144.7671 1491.2659 7.2795486 255 255 255
1254.973 1304.1265 2.6746392 255 255 255
-953.92773 -481.88715 -2.1315444 255 255 255
3303.343 2439.7207 7.9365416 255 255 255
934.36041 1518.7343 2.4607956 255 255 255
6017.2041 2064.4758 9.1431246 255 255 255
9424.3604 4011.1758 10.140742 255 255 255
1654.507 3179.7397 4.3527455 255 255 255
4306.624 5240.0557 8.4525919 255 255 255
2418.7415 1911.667 6.1004663 255 255 255
1273.7866 1251.9497 2.6472647 255 255 255
5910.272 12442.701 25.440741 255 255 255
5829.7544 3586.1765 6.860949 255 255 255
-951.21075 -598.17792 -2.4297469 255 255 255
6750.6807 4065.53 7.4255443 255 255 255
2345.45 1906.2729 3.9959981 255 255 255
2511.4011 1098.2839 5.304265 255 255 255
3205.4207 6366.209 10.844607 255 255 255
-1149.5249 -703.17902 -2.6486464 255 255 255
286.67798 318.01151 1.0381294 255 255 255
182.80484 529.53076 1.1684103 255 255 255
879.67285 925.84259 2.1766958 255 255 255
-1551.7173 -2464.7991 -4.8746729 255 255 255
-1095.093 -709.00995 -2.7437778 255 255 255
3408.564 1157.7556 6.6201963 255 255 255
3502.3564 1183.4404 6.7900581 255 255 255
-612.0401 -585.48401 -2.5264299 255 255 255
-184105.3 -91511.219 -305.68433 255 255 255
151.24979 414.34155 0.95625818 255 255 255
1280.7576 1621.5625 3.1495519 255 255 255
3709.856 1744.0767 6.0569296 255 255 255
1468.0529 1808.2467 3.6297698 255 255 255
2781.1987 1295.413 5.1580758 255 255 255
9798.249 3414.8162 11.711642 255 255 255
1238.2493 1036.0355 3.0982008 255 255 255
44185.344 12890.149 48.177765 255 255 255
-15846.752 -8078.8716 -21.142321 255 255 255
1609.9839 1297.4874 3.9320736 255 255 255
-940.11938 -771.48016 -2.3957944 255 255 255
-1297.5725 -326.54849 -3.2118645 255 255 255
3525.4202 1176.8942 6.8215752 255 255 255
1373.2797 1530.96 3.1727681 255 255 255
1220.87 1243.243 3.3302562 255 255 255
4135.085 5057.7339 11.851681 255 255 255
7732.8262 2048.8406 12.394615 255 255 255
1722.672 1199.9556 3.44028 255 255 255
16170.768 3854.2217 19.65391 255 255 255
341.96323 314.03168 0.44898611 255 255 255
288.11542 558.14532 1.3191661 255 255 255
155.75548 312.61005 0.56744885 255 255 255
760.54761 585.31744 1.9324526 255 255 255
17558.029 7144.1304 20.86631 255 255 255
899.21399 942.26135 2.2053437 255 255 255
1389.085 901.06305 4.213161 255 255 255
1168.7017 1095.2963 2.602854 255 255 255
-2653.8513 -4006.5627 -12.226269 255 255 255
563.17908 701.68652 1.6883982 255 255 255
-1428.2039 -1099.3199 -2.8798819 255 255 255
3714.6934 1804.754 5.9965 255 255 255
271.31805 553.59924 1.2577721 255 255 255
541.41174 625.7583 1.6427246 255 255 255
251.73232 485.18314 1.1303395 255 255 255
534.27295 380.78156 0.63024914 255 255 255
3391.845 3881.0508 12.223505 255 255 255
6373.123 4116.1533 7.0569396 255 255 255
4232.0161 3243.8975 5.4893432 255 255 255
938.16272 967.60419 2.2656817 255 255 255
574.90234 384.34332 0.71255416 255 255 255
-4538.6221 -2511.5571 -6.5536051 255 255 255
1012.5789 542.11084 2.4899752 255 255 255
820.95599 545.90338 2.0706069 255 255 255
6721.1396 1992.9537 10.713521 255 255 255
702.36731 640.44312 1.8912094 255 255 255
305.22266 182.53708 0.38184097 255 255 255
5975.1304 2061.1235 9.0472441 255 255 255
2759.0203 1866.4176 4.5458317 255 255 255
246.38789 475.52274 1.1088709 255 255 255
412.2243 284.38544 0.78242075 255 255 255
2823.5242 1418.6503 5.0547395 255 255 255
1155.6511 1093.0953 2.5854077 255 255 255
2852.3506 1424.7948 5.0947361 255 255 255
9968.0791 3469.1423 11.809546 255 255 255
-803.95447 -430.21796 -2.47966 255 255 255
6684.7041 4082.2319 7.3494797 255 255 255
-1298.6882 -1696.0813 -4.1761203 255 255 255
3716.2009 3155.175 5.0365057 255 255 255
1937.3359 1698.666 4.1556606 255 255 255
910.71326 1093.0691 1.3551301 255 255 255
5459.3696 3078.0708 6.8688674 255 255 255
857.03485 541.62402 2.1519718 255 255 255
542.47577 501.46127 0.72955978 255 255 255
8418.6562 3198.5586 10.354445 255 255 255
2644.2012 1423.9639 4.7396288 255 255 255
1780.6422 1192.342 3.5395405 255 255 255
45493.621 35686.879 57.460812 255 255 255
2621.9766 1779.8961 4.4078898 255 255 255
1176.8159 761.50421 3.4146829 255 255 255
661.55499 755.24445 2.5006666 255 255 255
234.03801 474.79971 1.0912069 255 255 255
897.7998 534.5683 2.3544519 255 255 255
548.151 707.08807 1.6747991 255 255 255
-1441.8081 -1117.897 -2.9017684 255 255 255
-1491.2369 -684.91473 -3.7251163 255 255 255
836.10779 542.69684 2.1056206 255 255 255
6800.6968 4049.0405 7.4632049 255 255 255
171.99083 428.04556 0.98071003 255 255 255
268.0603 490.86401 1.1530178 255 255 255
-805.3725 -1614.8048 -4.386045 255 255 255
222.36433 217.08661 0.45836356 255 255 255
1297.1213 1385.2117 2.8289795 255 255 255
715.24292 399.98618 1.0622076 255 255 255
246.79758 482.00827 1.1172532 255 255 255
-1718.6783 -1556.8418 -3.3609366 255 255 255
1188.4906 543.99457 3.026778 255 255 255
2558.8235 1808.0989 4.3149114 255 255 255
-503.8331 -845.67639 -1.955073 255 255 255
1225.4324 733.66669 3.4861968 255 255 255
6366.165 3086.6782 7.9303575 255 255 255
804.51147 606.59479 2.02039 255 255 255
1169.6718 977.27148 2.1546288 255 255 255
6928.6714 4035.386 7.5909948 255 255 255
2620.5288 1284.5034 4.8951297 255 255 255
1143.0522 1535.672 2.8159397 255 255 255
