ply
format ascii 1.0
comment PCL generated
element vertex 1059
property float x
property float y
property float z
property uchar red
property uchar green
property uchar blue
element face 0
element camera 0
property float view_px
property float view_py
property float view_pz
property float x_axisx
property float x_axisy
property float x_axisz
property float y_axisx
property float y_axisy
property float y_axisz
property float z_axisx
property float z_axisy
property float z_axisz
property float focal
property float scalex
property float scaley
property float centerx
property float centery
property int viewportx
property int viewporty
property float k1
property float k2
end_header
-4.7218556 -8.5076561 -1.0112218 255 255 255
-5.2552085 -4.9900398 -1.007755 255 255 255
-4.5539098 -9.8426867 -1.0182308 255 255 255
-3.3088191 -18.223001 -1.0254468 255 255 255
-3.7701974 -15.572161 -1.0363414 255 255 255
-5.3463664 -4.3757887 -1.0086138 255 255 255
-5.6409779 -2.0980825 -1.006341 255 255 255
-4.6211557 -9.137085 -1.017045 255 255 255
-4.7297168 -8.2843409 -1.010664 255 255 255
-4.6965151 -8.6132383 -1.0106581 255 255 255
-4.9037194 -7.3408251 -1.0121241 255 255 255
-4.2334943 -11.963523 -1.0174516 255 255 255
-4.7685537 -8.3151636 -1.0149806 255 255 255
-4.8046284 -7.7744155 -1.0097528 255 255 255
-3.8072569 -15.719336 -1.0283016 255 255 255
-5.1130919 -6.0565305 -1.0108318 255 255 255
-5.160912 -5.7817745 -1.013293 255 255 255
-5.3675985 -4.2519069 -1.0083505 255 255 255
-5.238986 -5.1482201 -1.0092391 255 255 255
-5.0438948 -6.7180638 -1.0118568 255 255 255
-4.1367435 -12.2847 -1.0146407 255 255 255
-4.774972 -8.4412031 -1.0157779 255 255 255
-4.4459949 -10.142788 -1.0120395 255 255 255
-4.8325324 -7.7994847 -1.0105295 255 255 255
-4.1508923 -12.073462 -1.0140718 255 255 255
-5.0744047 -6.5647407 -1.0202123 255 255 255
-5.1277022 -6.0153432 -1.0109596 255 255 255
-4.9773173 -6.8115907 -1.0097085 255 255 255
-5.0577631 -6.6561742 -1.0106789 255 255 255
-5.0602531 -6.2803493 -1.0116975 255 255 255
-4.7584081 -8.7134619 -1.0155289 255 255 255
-5.0500026 -6.3528399 -1.0118928 255 255 255
-2.4734566 -24.100313 -1.0499281 255 255 255
-4.9989314 -6.4519644 -1.0082217 255 255 255
-5.3254585 -5.0329213 -1.0182421 255 255 255
-4.7450752 -8.8854465 -1.0128582 255 255 255
-5.0104513 -7.04217 -1.0114505 255 255 255
-4.458415 -10.479192 -1.0137942 255 255 255
-5.6245193 -2.5359254 -1.0078436 255 255 255
-5.2340074 -4.8602457 -1.0086561 255 255 255
-4.5988822 -9.3358517 -1.0119592 255 255 255
-3.8633428 -14.831286 -1.0250152 255 255 255
-4.7061639 -8.5864887 -1.0126965 255 255 255
-4.4772029 -9.9701948 -1.0122429 255 255 255
-3.2894626 -18.520035 -1.0287642 255 255 255
-4.9553428 -6.8512301 -1.0075841 255 255 255
-4.6011925 -9.1442709 -1.0132377 255 255 255
-4.9515533 -7.5000067 -1.0135105 255 255 255
-5.3898354 -4.1582985 -1.0090057 255 255 255
-4.9537978 -7.2635226 -1.0132028 255 255 255
-2.3022645 -24.698616 -1.0413867 255 255 255
-3.2252357 -18.443731 -1.0240079 255 255 255
-5.5050049 -3.5898137 -1.0104182 255 255 255
-4.3444123 -11.305737 -1.022447 255 255 255
-5.0289173 -6.3387408 -1.0093412 255 255 255
-5.3805494 -4.6887345 -1.0168588 255 255 255
-9.6551924 25.418451 -0.94993275 255 255 255
-3.8168914 -14.421274 -1.0182707 255 255 255
-2.3225417 -24.561855 -1.0411483 255 255 255
-2.1906359 -26.829603 -1.0571104 255 255 255
-4.8915491 -7.5812054 -1.0101784 255 255 255
-3.7151513 -15.682178 -1.027662 255 255 255
-4.6015787 -9.379262 -1.0145307 255 255 255
-4.861474 -7.608892 -1.0124391 255 255 255
-5.2132564 -5.2052264 -1.0088872 255 255 255
-4.8088717 -7.7896285 -1.0107157 255 255 255
-4.5264678 -9.9084454 -1.0119109 255 255 255
-4.7210612 -8.640461 -1.0108681 255 255 255
-5.0368352 -6.3078327 -1.0096289 255 255 255
-9.8700104 26.897591 -0.96511835 255 255 255
-3.2602093 -18.268688 -1.0254314 255 255 255
-4.767942 -8.5795183 -1.0126022 255 255 255
-3.6809783 -15.225547 -1.0201772 255 255 255
-2.4619877 -23.871012 -1.0290954 255 255 255
-4.1023355 -12.694299 -1.0183861 255 255 255
-4.0359797 -13.147684 -1.0172464 255 255 255
-5.1682549 -5.7775955 -1.0088172 255 255 255
-4.5181613 -10.120879 -1.0152401 255 255 255
-4.1723347 -12.130339 -1.0169502 255 255 255
-5.024436 -6.4380298 -1.0106163 255 255 255
-4.8069053 -8.0689583 -1.0146757 255 255 255
-4.4654574 -10.077362 -1.0118251 255 255 255
-5.2306318 -5.215795 -1.0109919 255 255 255
-5.2298594 -5.2222366 -1.0110261 255 255 255
-4.8694873 -7.6919141 -1.0117459 255 255 255
-2.7461839 -21.286882 -1.0229594 255 255 255
-3.8667197 -13.912313 -1.0162488 255 255 255
-4.5781431 -9.3593693 -1.0145235 255 255 255
-5.2071853 -5.4233932 -1.0067087 255 255 255
-3.8262763 -14.917349 -1.0281186 255 255 255
-5.0890512 -6.3571148 -1.0089132 255 255 255
-5.1341119 -6.261652 -1.0144601 255 255 255
-4.0993338 -12.886211 -1.0182045 255 255 255
-3.6432185 -16.371157 -1.0241244 255 255 255
-4.5624056 -9.7489471 -1.016534 255 255 255
-5.0454464 -6.5908051 -1.0097747 255 255 255
-4.6122322 -9.0785427 -1.0088583 255 255 255
-3.7394581 -14.82234 -1.0189841 255 255 255
-5.8415155 -1.132134 -1.0088162 255 255 255
11.582278 -117.10699 -1.1625911 255 255 255
-4.9194274 -7.3885231 -1.0110954 255 255 255
-3.6964035 -15.568339 -1.0205832 255 255 255
-4.6938024 -8.7524281 -1.0129293 255 255 255
-4.7060289 -9.0569954 -1.0136479 255 255 255
-3.4628234 -17.258821 -1.0254294 255 255 255
-4.6365805 -9.0677557 -1.0116626 255 255 255
-4.6026406 -9.0344076 -1.0088267 255 255 255
-4.8988409 -7.2051997 -1.0099605 255 255 255
-3.7995284 -14.854922 -1.0231104 255 255 255
-4.4723177 -10.273148 -1.0151156 255 255 255
-4.6534424 -8.891449 -1.0119067 255 255 255
-4.7158046 -8.7945862 -1.0131302 255 255 255
-4.5686274 -10.004745 -1.0168258 255 255 255
-4.8486404 -7.7544651 -1.0119665 255 255 255
-4.1788983 -12.094261 -1.014587 255 255 255
-4.1013927 -13.151827 -1.0153362 255 255 255
-3.2503018 -18.499556 -1.0258296 255 255 255
-4.9926286 -7.2825346 -1.0246549 255 255 255
-3.7886424 -14.930148 -1.0223064 255 255 255
-4.7579746 -8.362627 -1.0155706 255 255 255
-5.1517501 -5.9922457 -1.0103472 255 255 255
-4.5570221 -9.6296816 -1.0121782 255 255 255
-5.2531509 -5.1285377 -1.0078318 255 255 255
-5.4125762 -4.3819752 -1.0075626 255 255 255
-4.493978 -9.8997574 -1.0091906 255 255 255
0.3676208 -42.83823 -1.0614164 255 255 255
-4.0026941 -13.095791 -1.0167078 255 255 255
-4.8365288 -7.8993578 -1.0120591 255 255 255
-4.1492105 -12.039717 -1.0143681 255 255 255
-4.575521 -9.3085165 -1.0133938 255 255 255
-4.6865325 -8.8492098 -1.0121118 255 255 255
-4.5710716 -9.4910641 -1.0128725 255 255 255
-4.2432203 -11.437 -1.0139318 255 255 255
-4.6921792 -8.6555738 -1.0143771 255 255 255
-5.4671907 -4.0209708 -1.0147282 255 255 255
-5.2902832 -4.9535217 -1.0098274 255 255 255
-4.466249 -9.9882517 -1.0124547 255 255 255
-3.0665205 -19.759075 -1.0364158 255 255 255
-4.8062749 -8.3568439 -1.0130281 255 255 255
-4.7218852 -8.5885248 -1.0145806 255 255 255
-3.9185243 -13.998786 -1.0187454 255 255 255
-3.5534172 -16.170925 -1.0199339 255 255 255
-5.0367551 -6.5407043 -1.0108777 255 255 255
-4.6521463 -8.9198303 -1.0130119 255 255 255
-4.2591224 -11.112788 -1.0100273 255 255 255
-4.3538785 -10.864024 -1.0146176 255 255 255
11.488417 -125.05066 -1.2694566 255 255 255
-4.5614071 -9.454402 -1.0144658 255 255 255
-4.8671632 -7.3754997 -1.0104078 255 255 255
-5.0140138 -6.7452726 -1.0109714 255 255 255
-4.6131749 -9.362236 -1.0121925 255 255 255
-0.80674386 -35.262875 -1.0517505 255 255 255
-4.3765268 -11.152774 -1.0183028 255 255 255
-4.2301679 -12.202501 -1.0170842 255 255 255
-4.1868668 -12.072929 -1.0172673 255 255 255
-5.1435571 -5.6977477 -1.0095077 255 255 255
-4.6423512 -9.424037 -1.0135225 255 255 255
-4.94628 -7.1489763 -1.0131516 255 255 255
-4.3893118 -10.89852 -1.0181633 255 255 255
-4.9629111 -6.9689345 -1.0111613 255 255 255
-4.5023909 -9.9243231 -1.0107327 255 255 255
-5.2006712 -5.8082051 -1.0134498 255 255 255
-14.832282 59.437878 -0.91425276 255 255 255
-20.603264 99.827118 -0.80698043 255 255 255
-5.1418567 -6.117734 -1.0089816 255 255 255
-4.618751 -9.3987293 -1.0177019 255 255 255
-4.1882477 -11.985533 -1.0207077 255 255 255
-4.9783683 -6.8009648 -1.0108931 255 255 255
-4.9763274 -6.6739635 -1.0096544 255 255 255
-3.9050903 -14.178199 -1.0200565 255 255 255
-5.2547865 -5.341722 -1.0101197 255 255 255
-0.70529026 -35.483551 -1.0561287 255 255 255
-3.0047569 -19.862356 -1.0290251 255 255 255
-4.9368806 -7.5216126 -1.0160619 255 255 255
-5.0095086 -6.3078351 -1.0069371 255 255 255
-4.5655975 -9.803997 -1.0169553 255 255 255
-5.4144764 -3.7570231 -1.0050594 255 255 255
-4.2536311 -11.77583 -1.017344 255 255 255
-4.366632 -10.928408 -1.0151703 255 255 255
-2.4297228 -24.46653 -1.0439887 255 255 255
-3.8369694 -14.293775 -1.0214424 255 255 255
-2.6733363 -22.743036 -1.033075 255 255 255
-3.9475999 -14.839246 -1.0206935 255 255 255
-5.4703608 -3.465776 -1.0056632 255 255 255
-4.9663835 -6.8164258 -1.0076323 255 255 255
-5.2580891 -5.6402559 -1.0069941 255 255 255
-4.4944754 -10.004478 -1.0129424 255 255 255
-4.9840288 -6.5424409 -1.0082353 255 255 255
-4.4807887 -9.9029636 -1.0139471 255 255 255
-3.9427154 -13.585312 -1.0186312 255 255 255
-5.3028979 -4.8858094 -1.0076615 255 255 255
-4.7015567 -8.4525175 -1.0117697 255 255 255
-4.7323179 -8.8851328 -1.0149714 255 255 255
-4.006125 -12.893074 -1.0134598 255 255 255
-4.605123 -10.262733 -1.0150567 255 255 255
-5.0422688 -6.7485023 -1.0092679 255 255 255
-5.0016041 -6.5575356 -1.0096072 255 255 255
-5.1362467 -6.2786164 -1.0104848 255 255 255
-4.4339352 -10.311825 -1.0154154 255 255 255
-4.4471874 -10.042037 -1.0114719 255 255 255
-3.9838805 -13.384814 -1.0156929 255 255 255
-3.6520782 -15.842585 -1.0277721 255 255 255
-4.8444662 -7.7521729 -1.0123541 255 255 255
-3.2639954 -18.78303 -1.0379817 255 255 255
4.3913207 -70.10466 -1.1150472 255 255 255
3.4225874 -63.788887 -1.1150608 255 255 255
-4.8138871 -8.0454168 -1.0122222 255 255 255
-4.62672 -9.1938877 -1.0117699 255 255 255
-4.9501519 -7.2060962 -1.0127004 255 255 255
-3.9333479 -14.035297 -1.0233476 255 255 255
-4.7535915 -8.3358498 -1.0124414 255 255 255
-4.1119919 -12.561057 -1.0156995 255 255 255
-5.7066603 -1.6572844 -1.0063126 255 255 255
-5.101192 -5.7946391 -1.0079812 255 255 255
-4.5711865 -9.572854 -1.0137831 255 255 255
-4.8715658 -7.5809731 -1.011711 255 255 255
-4.8746309 -7.7756929 -1.0129678 255 255 255
-3.8947759 -14.279357 -1.0222359 255 255 255
-4.7599545 -8.0154963 -1.0103027 255 255 255
-4.6346526 -9.1285286 -1.0132186 255 255 255
-4.8248053 -8.3157845 -1.0151794 255 255 255
-4.9248633 -6.9727769 -1.0113478 255 255 255
-3.8817203 -14.511543 -1.0209726 255 255 255
-4.597609 -9.137989 -1.0127527 255 255 255
-4.1529374 -12.244743 -1.0163739 255 255 255
-4.9429712 -7.3893504 -1.0104759 255 255 255
-5.6354837 -1.9677219 -1.004505 255 255 255
-4.5895119 -10.107823 -1.0259745 255 255 255
-4.8471308 -7.6899419 -1.0081121 255 255 255
-3.8740547 -14.310125 -1.0182316 255 255 255
-4.6986427 -8.5914412 -1.0127425 255 255 255
18.751501 -164.74014 -1.2335974 255 255 255
-4.6553478 -9.4147758 -1.0138059 255 255 255
-5.6039619 -2.3639369 -1.006218 255 255 255
-4.9048996 -7.1712756 -1.0108272 255 255 255
-4.7771893 -7.8907561 -1.00995 255 255 255
-5.0772333 -6.2855196 -1.0138268 255 255 255
-4.2925062 -11.26843 -1.0179154 255 255 255
51.453835 -396.16849 -1.5040423 255 255 255
-4.8963175 -7.4397955 -1.0102226 255 255 255
-4.7607188 -8.3985062 -1.0128267 255 255 255
-4.9799342 -7.6045089 -1.0140324 255 255 255
-4.0291486 -12.90426 -1.0158849 255 255 255
-4.7813592 -8.3633871 -1.0125937 255 255 255
-4.9344096 -7.0976229 -1.0078522 255 255 255
-4.5912781 -9.6272755 -1.0175005 255 255 255
-1.0024471 -33.31971 -1.0505283 255 255 255
-4.9779835 -6.8457546 -1.0113802 255 255 255
-4.5729213 -9.3760834 -1.0143188 255 255 255
-4.7450247 -8.4403353 -1.0083318 255 255 255
-5.6505346 -2.3988037 -1.0095938 255 255 255
-5.2184496 -5.3637586 -1.010128 255 255 255
-5.0582294 -6.2290373 -1.0071033 255 255 255
-4.5225806 -9.627326 -1.009441 255 255 255
-8.2094374 18.21979 -0.90901166 255 255 255
-4.4836092 -10.333334 -1.012602 255 255 255
-5.061789 -6.2939506 -1.0135339 255 255 255
-4.8081741 -7.7579007 -1.0106661 255 255 255
-5.1333847 -6.0054474 -1.0096238 255 255 255
-4.6123352 -8.9305582 -1.0089902 255 255 255
8.4977694 -99.866753 -1.2148908 255 255 255
-5.5172167 -3.953011 -1.0148388 255 255 255
-5.103796 -5.7838092 -1.0069085 255 255 255
-4.9483051 -7.122685 -1.0162485 255 255 255
-4.729073 -8.5225229 -1.0128533 255 255 255
-0.0038626827 -40.484669 -1.0735831 255 255 255
-3.5108519 -16.782831 -1.0237603 255 255 255
-4.5287452 -10.017868 -1.0140454 255 255 255
-4.5620694 -9.4468594 -1.0134224 255 255 255
-4.4332986 -10.540537 -1.0155861 255 255 255
-4.9240537 -7.2432399 -1.0112278 255 255 255
-5.0354209 -6.5182676 -1.0073721 255 255 255
-3.6780274 -17.092546 -1.0215691 255 255 255
-4.7066784 -9.2666674 -1.0134025 255 255 255
-4.0411367 -12.974043 -1.0196508 255 255 255
-4.6534042 -9.6274681 -1.0164088 255 255 255
-4.7071929 -8.4160595 -1.0111386 255 255 255
-4.8806777 -7.5898376 -1.0160531 255 255 255
-4.5941815 -9.8214121 -1.0132247 255 255 255
-4.7238264 -8.2691431 -1.0083236 255 255 255
-5.1762166 -5.926651 -1.0176992 255 255 255
-5.358963 -4.8884835 -1.0164036 255 255 255
-4.8812575 -7.9383116 -1.0138214 255 255 255
7.8189731 -97.445618 -1.1931452 255 255 255
-5.1639833 -5.4021087 -1.006681 255 255 255
-4.7829876 -8.4088354 -1.0127236 255 255 255
0.16697921 -43.105644 -1.0805001 255 255 255
-2.4018836 -26.552479 -1.0489291 255 255 255
1.7913858 -54.784454 -1.1160702 255 255 255
-3.79019 -14.607153 -1.0176271 255 255 255
-5.6161723 -2.2437921 -1.0048335 255 255 255
-0.71385926 -35.424507 -1.0497134 255 255 255
-1.954399 -27.144646 -1.0393109 255 255 255
-4.5008574 -9.8188639 -1.0134242 255 255 255
-4.3242955 -11.465548 -1.0144517 255 255 255
-4.9749312 -7.1480622 -1.0078094 255 255 255
-3.4481194 -16.696455 -1.0208393 255 255 255
-3.6425877 -16.216312 -1.030316 255 255 255
-4.5626225 -9.5438995 -1.0125965 255 255 255
-4.1821575 -12.71811 -1.0194128 255 255 255
-4.6590023 -8.9591465 -1.0122505 255 255 255
-3.3584967 -17.583763 -1.0260946 255 255 255
-4.929739 -7.0743532 -1.011917 255 255 255
-5.0221562 -7.0050306 -1.0104746 255 255 255
-5.0815225 -6.3109503 -1.0093719 255 255 255
-5.0793133 -6.6080742 -1.010566 255 255 255
-5.4234009 -3.641016 -1.0081798 255 255 255
-4.4171958 -10.710931 -1.0177385 255 255 255
-4.9684658 -6.7681475 -1.0103399 255 255 255
-4.8432484 -7.8199234 -1.0131975 255 255 255
-0.89633369 -34.351437 -1.0518817 255 255 255
0.23699978 -40.728592 -1.0442266 255 255 255
-4.7373772 -8.7080317 -1.0133064 255 255 255
-4.5629106 -9.4272051 -1.0141442 255 255 255
-2.5921459 -22.70908 -1.03169 255 255 255
-5.4933 -3.1835933 -1.0077777 255 255 255
-5.1078606 -5.9587073 -1.0081738 255 255 255
-4.8538623 -7.9368997 -1.015056 255 255 255
-5.1160631 -6.1005387 -1.0092226 255 255 255
-4.816566 -7.8761497 -1.0147146 255 255 255
-16.997837 75.576385 -0.89081079 255 255 255
-5.9795213 0.11853807 -1.0041498 255 255 255
6.4519057 -83.257355 -1.1039075 255 255 255
-3.5134556 -16.692179 -1.0224444 255 255 255
-4.9414692 -6.8651171 -1.0093422 255 255 255
-4.6572042 -8.9669657 -1.0131725 255 255 255
-4.3119173 -11.281386 -1.015736 255 255 255
-5.3839226 -4.5706139 -1.018117 255 255 255
-3.2483232 -18.918369 -1.0319926 255 255 255
-4.671267 -8.8646231 -1.0107673 255 255 255
-4.8226967 -7.6603999 -1.0106884 255 255 255
-5.3997064 -4.104115 -1.0090925 255 255 255
-2.9847684 -20.752151 -1.0368592 255 255 255
-5.1950026 -5.5313053 -1.010397 255 255 255
-5.0843554 -6.1937819 -1.0108622 255 255 255
-5.0276499 -6.8794227 -1.0107257 255 255 255
0.4185805 -43.107368 -1.0715696 255 255 255
-3.7672598 -15.021507 -1.0213327 255 255 255
-4.4393692 -10.742294 -1.0164543 255 255 255
18.696972 -165.42711 -1.2280772 255 255 255
-4.8748202 -7.5687652 -1.0116765 255 255 255
-4.7950177 -8.1740637 -1.0133466 255 255 255
-5.4450278 -4.2331333 -1.0162202 255 255 255
-5.2709517 -5.3995562 -1.0134509 255 255 255
-5.380682 -4.5905938 -1.0181139 255 255 255
-5.000104 -6.4441009 -1.0082091 255 255 255
-4.6399002 -9.2363567 -1.0151117 255 255 255
-4.4836831 -10.083356 -1.0126667 255 255 255
-5.093658 -5.9267311 -1.0089544 255 255 255
-4.0725412 -12.934053 -1.018468 255 255 255
-5.2941694 -4.9712143 -1.0112586 255 255 255
2.0876105 -53.59911 -1.0722481 255 255 255
2.0575078 -55.24593 -1.0795834 255 255 255
-5.0384593 -6.5502853 -1.0108849 255 255 255
-4.6622238 -9.0819893 -1.0112334 255 255 255
-2.9553528 -20.753408 -1.0427985 255 255 255
-4.9300823 -7.1647606 -1.010491 255 255 255
-4.5183177 -9.9732733 -1.0166538 255 255 255
-4.3745494 -10.583384 -1.0121574 255 255 255
-4.5008116 -10.287699 -1.0200469 255 255 255
-5.1831841 -5.6234736 -1.0107827 255 255 255
-4.2347274 -11.885258 -1.0162989 255 255 255
-4.1178493 -12.431506 -1.0160464 255 255 255
-4.8978682 -7.4011922 -1.0113057 255 255 255
-4.9682331 -7.0197082 -1.0142345 255 255 255
-4.040451 -12.875247 -1.0178715 255 255 255
-4.9876485 -7.1876307 -1.0126894 255 255 255
-4.1169748 -12.2288 -1.0143096 255 255 255
-3.3466079 -18.500134 -1.0358242 255 255 255
-4.8049884 -8.0211096 -1.0119393 255 255 255
-5.0575061 -6.5924129 -1.0107952 255 255 255
-3.9188812 -13.67555 -1.0189679 255 255 255
-4.9617777 -6.8257623 -1.0109447 255 255 255
-4.391438 -10.415186 -1.0099821 255 255 255
-4.8454747 -7.6232529 -1.0079752 255 255 255
-5.0683417 -6.4730906 -1.0111172 255 255 255
-3.9957023 -13.109444 -1.0143539 255 255 255
-4.5951672 -9.3662519 -1.0153511 255 255 255
-4.5546141 -9.8545227 -1.01991 255 255 255
-4.1436009 -12.670845 -1.0222834 255 255 255
-4.8770914 -7.570117 -1.012364 255 255 255
-5.0028882 -6.42766 -1.008214 255 255 255
-4.1365457 -12.783777 -1.0196162 255 255 255
-4.4940481 -10.485401 -1.0140039 255 255 255
-2.6770041 -22.332794 -1.0349457 255 255 255
-5.575418 -2.8576941 -1.00577 255 255 255
-4.79386 -7.8518548 -1.0083876 255 255 255
-5.5682101 -3.1749296 -1.0091972 255 255 255
-4.997447 -6.4618521 -1.0082392 255 255 255
-1.6277595 -29.877275 -1.0437173 255 255 255
-4.4224534 -10.877763 -1.02246 255 255 255
-5.2722349 -4.9663124 -1.0065206 255 255 255
-4.5799313 -10.357236 -1.0143777 255 255 255
-5.019341 -7.2732124 -1.0168424 255 255 255
-5.1303253 -6.3766112 -1.0207802 255 255 255
-4.6773963 -9.3555622 -1.0140914 255 255 255
-4.9336538 -6.9731779 -1.010376 255 255 255
-4.2419686 -12.253516 -1.0226706 255 255 255
-3.7279556 -14.942911 -1.0213625 255 255 255
-3.8084862 -14.425517 -1.0179664 255 255 255
-4.6404395 -8.8726768 -1.012643 255 255 255
-4.3586941 -11.177708 -1.0127591 255 255 255
-3.6801236 -15.753446 -1.0232642 255 255 255
-4.8929253 -7.2607946 -1.0111331 255 255 255
-3.5523171 -16.924479 -1.0327703 255 255 255
-14.998389 61.24366 -0.92685449 255 255 255
-5.03689 -6.3074565 -1.0096287 255 255 255
-5.3750377 -4.5303745 -1.0122902 255 255 255
-5.1867547 -5.5790505 -1.0119039 255 255 255
-5.0976901 -5.8546495 -1.0081538 255 255 255
-5.16113 -5.9238844 -1.013068 255 255 255
-4.8509493 -7.7610331 -1.0141861 255 255 255
-5.0696363 -6.1289005 -1.0099384 255 255 255
-3.8015804 -14.660346 -1.0181284 255 255 255
-10.825927 33.553631 -0.93848968 255 255 255
2.2806737 -55.449867 -1.0863496 255 255 255
-8.7422094 21.897541 -0.90160578 255 255 255
-5.1948085 -5.6344008 -1.0110768 255 255 255
-4.7655082 -8.2797203 -1.0124148 255 255 255
-4.7673178 -8.6556568 -1.0128437 255 255 255
-4.884234 -7.516274 -1.0115895 255 255 255
-5.5183678 -6.5781155 -1.0143319 255 255 255
-4.8599253 -7.6161714 -1.0109309 255 255 255
-5.0333595 -6.6848531 -1.009032 255 255 255
-4.9542933 -7.0304794 -1.0095093 255 255 255
-4.9195542 -7.0002451 -1.0093977 255 255 255
-4.8258071 -8.1614037 -1.0111481 255 255 255
-4.9932747 -6.7902241 -1.0111729 255 255 255
-5.4167948 -3.9913013 -1.0088906 255 255 255
-5.0097141 -6.6910181 -1.0097084 255 255 255
-1.3817292 -30.833471 -1.0414302 255 255 255
-5.0542746 -6.1256766 -1.0070693 255 255 255
-4.6244369 -9.034338 -1.008642 255 255 255
-4.7694678 -8.4629164 -1.012628 255 255 255
-4.8267994 -7.8412476 -1.0118929 255 255 255
-4.8828006 -8.0989523 -1.016111 255 255 255
-5.0957737 -6.2184024 -1.0132366 255 255 255
-3.6666219 -16.182016 -1.0252178 255 255 255
-4.3949795 -10.970217 -1.0149701 255 255 255
-4.6013303 -9.143589 -1.0132401 255 255 255
-5.1623316 -5.7855649 -1.0102636 255 255 255
-5.0373197 -6.4628439 -1.0112709 255 255 255
-4.2818627 -11.249192 -1.0141369 255 255 255
-1.2411412 -31.606634 -1.0452036 255 255 255
-5.2763553 -5.1585774 -1.0103338 255 255 255
-5.1529403 -5.9754252 -1.0121293 255 255 255
-5.2299643 -5.2783103 -1.0066684 255 255 255
-4.8548145 -8.0317059 -1.0112673 255 255 255
-5.1180792 -6.1051121 -1.012434 255 255 255
-4.0612726 -13.003049 -1.0171152 255 255 255
-3.8116059 -15.053658 -1.0324922 255 255 255
-4.6991425 -8.3374128 -1.0082231 255 255 255
-4.506402 -10.130405 -1.0185102 255 255 255
-4.9941583 -6.4815373 -1.0082355 255 255 255
-5.386754 -4.1781974 -1.0090344 255 255 255
-3.846648 -14.484929 -1.0182809 255 255 255
-4.9725642 -7.1488795 -1.013129 255 255 255
-5.220963 -5.2478881 -1.0105011 255 255 255
-4.9495883 -7.1872315 -1.0112716 255 255 255
-5.2961502 -4.781189 -1.0056177 255 255 255
-4.9618111 -7.2304602 -1.010692 255 255 255
-5.0096383 -6.541657 -1.0073792 255 255 255
-5.2435966 -5.5553985 -1.0099709 255 255 255
-2.9870088 -20.858913 -1.0465405 255 255 255
-4.9891086 -6.7670836 -1.0104913 255 255 255
-4.0874152 -12.949255 -1.0222378 255 255 255
-3.8350351 -15.575074 -1.0272094 255 255 255
5.6203561 -79.692497 -1.1447159 255 255 255
-4.3052287 -11.902933 -1.0212548 255 255 255
-4.2245975 -11.67944 -1.015107 255 255 255
-5.4110951 -3.9939992 -1.0105087 255 255 255
-5.3678889 -4.250114 -1.0083486 255 255 255
-4.9771605 -6.6217074 -1.011344 255 255 255
-5.2005239 -5.1773 -1.0067091 255 255 255
-4.6911435 -8.7684593 -1.0133792 255 255 255
-4.9225531 -7.425632 -1.0098881 255 255 255
-2.2802551 -24.725784 -1.0367639 255 255 255
-4.4454007 -10.414119 -1.0139797 255 255 255
-4.7123551 -8.6518488 -1.0124593 255 255 255
-5.3286185 -4.4333129 -1.007512 255 255 255
-4.333436 -11.187223 -1.0162865 255 255 255
-4.7920957 -8.0133343 -1.0103899 255 255 255
-1.3592628 -30.830708 -1.0440663 255 255 255
-4.7127223 -8.8011942 -1.0141258 255 255 255
-3.7256551 -15.005686 -1.022804 255 255 255
-5.0551949 -6.1212554 -1.007104 255 255 255
-5.3978252 -4.1162591 -1.009106 255 255 255
-4.0021892 -13.433306 -1.0240538 255 255 255
-5.0941548 -5.879529 -1.0069244 255 255 255
-3.2725332 -18.497519 -1.0286965 255 255 255
-4.5791321 -9.9626007 -1.0128127 255 255 255
-5.1646938 -5.9146748 -1.009688 255 255 255
-4.4013877 -10.500309 -1.0147772 255 255 255
-4.455502 -10.255919 -1.0160832 255 255 255
-2.8072035 -21.334101 -1.0362097 255 255 255
-5.1108303 -5.9574637 -1.0100179 255 255 255
-4.9369059 -7.1701407 -1.010458 255 255 255
-5.0603151 -6.5466008 -1.0085086 255 255 255
-4.0832 -12.522937 -1.0150416 255 255 255
-4.2597113 -11.532496 -1.0132917 255 255 255
-4.7098641 -8.543395 -1.0110717 255 255 255
-5.2164736 -5.0077839 -1.0094688 255 255 255
-1.7396255 -28.471087 -1.0430487 255 255 255
-4.954237 -7.1773815 -1.0132666 255 255 255
-4.348546 -11.43041 -1.0205905 255 255 255
-2.9878561 -19.898979 -1.0262105 255 255 255
-4.4785132 -10.532232 -1.0161141 255 255 255
-4.9930944 -7.2787075 -1.0246339 255 255 255
-5.4378929 -3.848937 -1.0085928 255 255 255
-4.9540653 -7.4466343 -1.0116737 255 255 255
-5.4478374 -4.0502262 -1.0101846 255 255 255
-4.9155602 -7.3811898 -1.0109363 255 255 255
-4.8787594 -7.8537607 -1.0141307 255 255 255
2.3208365 -57.598839 -1.1011194 255 255 255
-4.4975219 -10.253585 -1.0176412 255 255 255
-5.1959167 -5.4534135 -1.0065677 255 255 255
-4.6495337 -9.0129328 -1.016225 255 255 255
-4.584619 -9.2190151 -1.0089927 255 255 255
-3.9752347 -13.499686 -1.0203425 255 255 255
-5.1818452 -5.5859194 -1.0097392 255 255 255
-4.5613875 -9.4543934 -1.0144662 255 255 255
-5.2152023 -5.4852362 -1.0104747 255 255 255
-4.9628296 -6.7885003 -1.0102191 255 255 255
-5.0060134 -6.8695397 -1.0076901 255 255 255
-5.3253284 -4.9439626 -1.0132215 255 255 255
-4.6479182 -9.2635078 -1.0131688 255 255 255
-5.1711612 -5.7638154 -1.0070581 255 255 255
-4.9606514 -7.0313964 -1.0115722 255 255 255
-0.97419626 -34.693054 -1.0622004 255 255 255
-5.416131 -4.5142517 -1.0102363 255 255 255
-3.8254278 -14.698643 -1.0196905 255 255 255
-4.826829 -8.0592117 -1.010816 255 255 255
-4.6296959 -8.905406 -1.0111232 255 255 255
-4.5436635 -9.7322121 -1.0129871 255 255 255
-3.1368327 -20.158224 -1.0378038 255 255 255
-4.5555649 -9.4329281 -1.0108422 255 255 255
-5.412683 -4.3334985 -1.0074924 255 255 255
-3.9932005 -14.356755 -1.0225226 255 255 255
-4.7227702 -8.6768284 -1.0112336 255 255 255
-4.8475451 -8.0230408 -1.012941 255 255 255
-5.4748483 -3.8706427 -1.0084729 255 255 255
-5.370831 -4.6553278 -1.0099442 255 255 255
-1.6930431 -29.386831 -1.0423435 255 255 255
-4.9212875 -7.375124 -1.0110664 255 255 255
-2.3176212 -24.594812 -1.0412046 255 255 255
-4.4356484 -10.166051 -1.0124609 255 255 255
-5.0658154 -6.3235807 -1.0122334 255 255 255
-4.5757766 -9.5825233 -1.0157876 255 255 255
-3.9265139 -13.519562 -1.0146375 255 255 255
-5.5125079 -3.2096519 -1.0084974 255 255 255
-5.038187 -6.6785212 -1.0132898 255 255 255
-3.8606005 -14.038445 -1.0189753 255 255 255
-2.3803079 -23.855059 -1.0277147 255 255 255
-5.1561341 -5.4642444 -1.0077623 255 255 255
-4.6270108 -9.108737 -1.0168957 255 255 255
-4.5977669 -9.1369991 -1.0127521 255 255 255
-5.0377603 -6.3761096 -1.0063661 255 255 255
-5.2648439 -5.2284784 -1.0097035 255 255 255
-2.6455112 -22.470718 -1.0389619 255 255 255
-11.000178 34.767391 -0.94217753 255 255 255
-5.0357075 -6.3587403 -1.0073788 255 255 255
-4.7012596 -8.560998 -1.0140989 255 255 255
-4.5881338 -9.0453625 -1.0088993 255 255 255
-4.3213062 -11.455516 -1.0229468 255 255 255
-5.3511515 -4.7552934 -1.0158508 255 255 255
-3.5545177 -15.880042 -1.0176202 255 255 255
-1.8738412 -28.529243 -1.067765 255 255 255
-5.0462008 -6.4903436 -1.0107502 255 255 255
-4.4958439 -10.024954 -1.013997 255 255 255
-4.9218879 -7.4270148 -1.0124524 255 255 255
-4.0770168 -13.205065 -1.021998 255 255 255
-4.3714952 -10.613974 -1.0128802 255 255 255
-4.9335241 -7.1759067 -1.0094295 255 255 255
-5.0946722 -5.9595857 -1.0081221 255 255 255
-5.0392795 -6.5647297 -1.0129939 255 255 255
-4.9925776 -6.7552867 -1.0073256 255 255 255
-3.8909426 -13.769037 -1.0154247 255 255 255
-5.2053027 -5.3543472 -1.0068083 255 255 255
-3.6264944 -15.573605 -1.019118 255 255 255
-3.6271751 -16.293995 -1.0201784 255 255 255
-4.7022638 -8.6537991 -1.0154797 255 255 255
-5.0086508 -7.0483546 -1.0107355 255 255 255
-3.8140016 -14.381255 -1.0213497 255 255 255
-3.8054082 -14.460391 -1.0218353 255 255 255
-4.2980766 -11.084123 -1.0134917 255 255 255
-4.8652892 -7.395359 -1.0105444 255 255 255
-1.6265614 -29.466427 -1.0356704 255 255 255
-5.3613162 -4.6140008 -1.0136832 255 255 255
-3.5015841 -16.341616 -1.0216023 255 255 255
-4.9553132 -7.4043002 -1.0131288 255 255 255
0.017990341 -40.181057 -1.0637619 255 255 255
-5.1885004 -5.6449594 -1.0100682 255 255 255
-4.8112197 -8.0421476 -1.0142021 255 255 255
-4.2485795 -11.515357 -1.0173522 255 255 255
-4.6002855 -9.264266 -1.0108627 255 255 255
-4.2646766 -11.366379 -1.0137429 255 255 255
-5.1660419 -5.2760172 -1.0085692 255 255 255
-2.0626712 -26.296824 -1.0438768 255 255 255
-3.8846087 -14.173587 -1.0195409 255 255 255
-8.0610657 16.921534 -0.91709757 255 255 255
-4.1261649 -12.137533 -1.0133111 255 255 255
-4.9558702 -7.3005815 -1.0121688 255 255 255
-4.7254524 -8.4892988 -1.0120462 255 255 255
-4.7221532 -8.4430628 -1.0145766 255 255 255
-5.3451653 -4.4930396 -1.0076129 255 255 255
-3.6773462 -15.723813 -1.0271928 255 255 255
-4.7532277 -8.048748 -1.0080972 255 255 255
-4.0098329 -12.926883 -1.0142524 255 255 255
-5.3014393 -5.0900922 -1.0121289 255 255 255
-4.0754333 -13.085424 -1.0175905 255 255 255
-4.0082622 -13.01882 -1.0143276 255 255 255
-4.6244326 -9.2814131 -1.0151044 255 255 255
-5.1169491 -6.2689304 -1.0114343 255 255 255
-5.2322345 -5.0201344 -1.0064477 255 255 255
-4.9661765 -6.9898834 -1.0118587 255 255 255
-4.6913891 -8.9672709 -1.0158023 255 255 255
-4.8636994 -7.6302361 -1.0124365 255 255 255
0.65274823 -46.515705 -1.0921917 255 255 255
-5.0219784 -6.4434624 -1.009397 255 255 255
-5.3582091 -4.1634893 -1.0060778 255 255 255
-4.7311573 -8.2198095 -1.0122111 255 255 255
-4.7847528 -8.4323187 -1.0123725 255 255 255
-4.6982942 -8.6972923 -1.0128983 255 255 255
-4.8543525 -8.1267109 -1.0123737 255 255 255
-4.5275478 -10.113865 -1.0150011 255 255 255
-4.7103128 -8.5589514 -1.0125949 255 255 255
-4.724472 -8.3583136 -1.008507 255 255 255
-1.6274582 -30.292128 -1.0611786 255 255 255
-4.5521593 -9.679863 -1.0129704 255 255 255
-3.5997653 -16.295465 -1.023885 255 255 255
-4.2964845 -11.236849 -1.0166527 255 255 255
-5.0365958 -6.2326837 -1.0071107 255 255 255
-4.3914933 -10.538554 -1.0162243 255 255 255
-4.6118736 -9.0900154 -1.0088495 255 255 255
-4.7645698 -8.7801332 -1.0133392 255 255 255
-4.447216 -10.928225 -1.019364 255 255 255
-5.401125 -4.6147246 -1.0161746 255 255 255
-4.223465 -11.97942 -1.0180751 255 255 255
-3.7263989 -14.990616 -1.0210836 255 255 255
-5.4500909 -6.8011422 -1.0099523 255 255 255
-5.1592216 -5.4763265 -1.0066952 255 255 255
-5.0982857 -6.228868 -1.0102798 255 255 255
-5.2087636 -5.5259466 -1.0098457 255 255 255
-5.5951629 -2.5238726 -1.0064474 255 255 255
-2.3023186 -24.885504 -1.0336568 255 255 255
-4.0676403 -12.866494 -1.0187978 255 255 255
-4.6525559 -9.0618019 -1.013569 255 255 255
-4.8209352 -7.7442117 -1.0116992 255 255 255
-4.7589307 -8.1467438 -1.0111907 255 255 255
-4.7161808 -8.4287224 -1.0126629 255 255 255
-4.7694936 -8.1643419 -1.0122736 255 255 255
-5.0114741 -6.5597711 -1.0112877 255 255 255
-4.8018909 -8.1544056 -1.0124875 255 255 255
-5.0025339 -6.5905814 -1.0112983 255 255 255
-4.3256326 -11.13238 -1.015595 255 255 255
-4.300354 -11.672457 -1.0214977 255 255 255
-1.9150217 -27.161314 -1.0384669 255 255 255
-3.5737941 -16.238306 -1.0213356 255 255 255
-4.3197465 -11.438073 -1.0178152 255 255 255
-4.9908028 -6.898838 -1.0118073 255 255 255
-2.9722526 -20.401434 -1.0376407 255 255 255
-4.1926184 -11.968946 -1.0187491 255 255 255
-4.3863959 -10.668356 -1.0130051 255 255 255
-4.7969956 -7.8921304 -1.0110463 255 255 255
1.608095 -51.223606 -1.0884918 255 255 255
-4.3950362 -10.724045 -1.0146824 255 255 255
-5.1287122 -6.0351725 -1.0103234 255 255 255
-5.1645708 -5.4685454 -1.0118746 255 255 255
-4.8914514 -8.1054373 -1.0121107 255 255 255
-2.9206977 -20.898237 -1.0364704 255 255 255
-4.6957817 -9.1029301 -1.0128561 255 255 255
-5.206305 -5.4374857 -1.0070173 255 255 255
-4.0926027 -12.550981 -1.0171919 255 255 255
-4.2786222 -11.288566 -1.0147467 255 255 255
-3.8050833 -15.463838 -1.0227545 255 255 255
-2.2891076 -26.928921 -1.0501349 255 255 255
-3.8144538 -14.43377 -1.0150691 255 255 255
-5.083931 -6.5258164 -1.011815 255 255 255
-3.6969495 -15.477212 -1.0198356 255 255 255
-3.9199605 -13.995855 -1.0206231 255 255 255
-5.0490146 -6.5754457 -1.0094661 255 255 255
-4.752913 -8.1412249 -1.0082242 255 255 255
-4.5917063 -9.2017384 -1.013239 255 255 255
-0.43833166 -42.237717 -1.0517482 255 255 255
-4.9082074 -7.5675669 -1.0113037 255 255 255
0.14230713 -42.7743 -1.0917643 255 255 255
-3.9359603 -14.029327 -1.0238284 255 255 255
-41.163971 233.22546 -0.72310936 255 255 255
-4.7158198 -9.0828857 -1.0134801 255 255 255
-4.9226794 -7.2827187 -1.0107018 255 255 255
-4.3779755 -10.922065 -1.0135629 255 255 255
-5.1380043 -5.8145113 -1.0077132 255 255 255
-4.2701364 -11.211624 -1.0124699 255 255 255
-4.7147412 -8.3313437 -1.008468 255 255 255
-2.2472866 -24.958488 -1.0347109 255 255 255
-5.1824741 -5.7145762 -1.0091895 255 255 255
-3.7151175 -15.552468 -1.0314653 255 255 255
-2.5866663 -23.20977 -1.0330338 255 255 255
-4.8011055 -7.8354812 -1.0073966 255 255 255
-5.2064748 -5.5382824 -1.0099612 255 255 255
-4.2602401 -11.470509 -1.0134473 255 255 255
-4.9139466 -7.7190142 -1.0135069 255 255 255
-4.3640165 -12.225723 -1.017838 255 255 255
-3.6872413 -15.836023 -1.0241106 255 255 255
-4.9354639 -6.9463367 -1.0090162 255 255 255
-3.4487472 -16.578974 -1.0174901 255 255 255
-5.0451932 -6.2904162 -1.0102062 255 255 255
-5.0118599 -6.864037 -1.009079 255 255 255
-4.8857961 -7.4624181 -1.0102336 255 255 255
-3.0660107 -19.763008 -1.0364304 255 255 255
-4.9672427 -6.9678416 -1.0107739 255 255 255
-4.6670351 -8.8845415 -1.0136207 255 255 255
-29.621794 186.56842 -0.71678895 255 255 255
-4.7163029 -8.6162891 -1.0145317 255 255 255
-5.1552382 -5.9437566 -1.0080591 255 255 255
-5.0276265 -6.8393502 -1.0141435 255 255 255
-4.468462 -9.9568415 -1.01315 255 255 255
-4.0576181 -13.315058 -1.0191797 255 255 255
-4.6630177 -9.0421333 -1.0183609 255 255 255
-5.0705843 -6.704556 -1.0112916 255 255 255
-4.1695113 -12.330698 -1.0165306 255 255 255
-5.4145551 -3.7566404 -1.00506 255 255 255
-4.6407571 -9.4293737 -1.0149643 255 255 255
-5.0094457 -6.3083634 -1.0069388 255 255 255
-2.1548195 -25.339327 -1.0301194 255 255 255
-5.3109756 -4.8200383 -1.0092301 255 255 255
-4.4240918 -10.425221 -1.0168591 255 255 255
-4.8809876 -7.5460496 -1.0102361 255 255 255
-4.8889031 -8.1723757 -1.0123054 255 255 255
-4.2422018 -11.604363 -1.0159239 255 255 255
-4.7268825 -8.447607 -1.0149084 255 255 255
-3.9480481 -13.386435 -1.0155051 255 255 255
-4.9864702 -6.9412074 -1.012005 255 255 255
-5.5350943 -2.8462098 -1.0078807 255 255 255
-2.7258699 -22.579357 -1.0336558 255 255 255
-4.697433 -8.5542135 -1.01185 255 255 255
-4.5754824 -9.1538649 -1.0087221 255 255 255
-5.1270499 -5.952632 -1.0125244 255 255 255
-5.258122 -4.8597093 -1.0064048 255 255 255
-4.6836152 -9.060648 -1.0191343 255 255 255
-4.7210598 -8.336791 -1.0123147 255 255 255
-5.107183 -5.8702374 -1.0080286 255 255 255
-4.023068 -12.977826 -1.0161525 255 255 255
-5.0519614 -6.5722537 -1.0118508 255 255 255
-5.2918248 -4.4132957 -1.0062597 255 255 255
-4.6411986 -9.0480204 -1.0127449 255 255 255
-2.3282101 -24.808437 -1.0412661 255 255 255
-4.8793058 -7.6512914 -1.0126384 255 255 255
-9.7532864 25.974251 -0.96096945 255 255 255
-4.8131356 -7.9275117 -1.0117462 255 255 255
-4.6670413 -9.0054331 -1.0133381 255 255 255
-3.048645 -20.78874 -1.0482681 255 255 255
-4.877018 -7.637959 -1.0137469 255 255 255
-5.0463653 -7.0220871 -1.0161619 255 255 255
-4.3005338 -11.902538 -1.0175434 255 255 255
-3.9180753 -13.662407 -1.017732 255 255 255
-4.6026263 -9.2199268 -1.0120218 255 255 255
-4.8541236 -8.0524035 -1.0130243 255 255 255
-5.1334949 -6.3612628 -1.0117294 255 255 255
-5.1989288 -5.538486 -1.0168158 255 255 255
-4.8840299 -7.7760611 -1.0225738 255 255 255
-4.7716742 -8.6793928 -1.0109959 255 255 255
-4.8377872 -7.4852858 -1.0079784 255 255 255
-4.6516461 -9.0100775 -1.0126687 255 255 255
-4.1701746 -12.25634 -1.0174798 255 255 255
-2.5473025 -23.053734 -1.0386511 255 255 255
-4.5729156 -9.3757954 -1.014313 255 255 255
0.95735246 -46.984993 -1.0817127 255 255 255
8.9392757 -100.11446 -1.1280032 255 255 255
-4.7526875 -8.4196205 -1.013749 255 255 255
-5.1782794 -5.6676474 -1.0144812 255 255 255
-4.943975 -6.915638 -1.0108799 255 255 255
-4.6085081 -9.0875187 -1.012876 255 255 255
-3.081862 -19.717695 -1.0268925 255 255 255
-4.5946484 -9.3281164 -1.0110976 255 255 255
-5.6797295 -2.2688763 -1.0103761 255 255 255
-4.2233806 -12.126785 -1.0251732 255 255 255
-5.2331948 -5.4200201 -1.0089741 255 255 255
-4.6169038 -9.1283903 -1.0130229 255 255 255
0.74220377 -44.562542 -1.0527096 255 255 255
-4.5810347 -10.267844 -1.0214852 255 255 255
-5.0831141 -6.3156371 -1.0073507 255 255 255
-3.0701237 -21.373978 -1.0304122 255 255 255
-2.4043038 -25.17758 -1.0433613 255 255 255
-5.0955935 -6.0487709 -1.0100257 255 255 255
-4.482348 -10.455856 -1.0189886 255 255 255
-3.2023592 -18.225943 -1.0208613 255 255 255
-5.0808811 -6.5090981 -1.0117445 255 255 255
-4.6929803 -8.9212179 -1.0121702 255 255 255
-4.2902322 -11.277215 -1.0122956 255 255 255
-4.7820816 -7.9589567 -1.0103316 255 255 255
-5.0819502 -6.5681043 -1.0125508 255 255 255
-5.0588522 -6.1806922 -1.0070876 255 255 255
-4.5647221 -9.6554203 -1.0147326 255 255 255
-5.310215 -4.880702 -1.0082161 255 255 255
-4.3825665 -10.472632 -1.011897 255 255 255
-4.6799078 -8.575964 -1.0120424 255 255 255
-4.2922707 -11.204967 -1.016539 255 255 255
-5.2138414 -5.4972334 -1.009154 255 255 255
-1.4214859 -30.494627 -1.0433519 255 255 255
-4.0504122 -12.710137 -1.0151095 255 255 255
-4.8259802 -8.4455452 -1.0085837 255 255 255
-4.4646406 -10.499429 -1.0205384 255 255 255
-4.2473011 -11.707932 -1.0150684 255 255 255
-4.9537654 -7.2776971 -1.013057 255 255 255
-4.3847122 -10.510717 -1.0121187 255 255 255
-4.8838415 -7.2260084 -1.008593 255 255 255
-4.7319188 -8.4763079 -1.0119294 255 255 255
-4.4077811 -11.459742 -1.0206662 255 255 255
-5.1068616 -5.906312 -1.0095732 255 255 255
-3.8068793 -14.371565 -1.016464 255 255 255
-3.418371 -17.309906 -1.0268754 255 255 255
-5.0852704 -6.1585746 -1.010058 255 255 255
-3.8987963 -15.216283 -1.0312445 255 255 255
-4.9858975 -7.0262966 -1.0203984 255 255 255
-4.976851 -6.810174 -1.0099624 255 255 255
-4.5115099 -9.7585402 -1.0093588 255 255 255
-4.7708492 -8.3987532 -1.0129484 255 255 255
-5.0032654 -6.4240007 -1.0081905 255 255 255
-3.4048381 -17.162733 -1.0235752 255 255 255
-5.23664 -5.5159769 -1.0090573 255 255 255
-4.9707747 -7.0615568 -1.0116181 255 255 255
-4.3865228 -11.115495 -1.0174795 255 255 255
-4.8461246 -7.8712373 -1.0123348 255 255 255
-4.7598147 -8.0163021 -1.0102997 255 255 255
-3.7128386 -15.337307 -1.0184044 255 255 255
-4.7239108 -8.4792833 -1.0150325 255 255 255
-3.2801611 -18.060417 -1.0282824 255 255 255
-4.7861657 -7.8300343 -1.0084901 255 255 255
-4.5155654 -9.9544077 -1.0145385 255 255 255
-3.9033518 -13.731678 -1.0175341 255 255 255
-5.1850653 -5.9248323 -1.0088164 255 255 255
-2.1657286 -26.448105 -1.0460551 255 255 255
-4.3706083 -10.82204 -1.018267 255 255 255
-4.8297539 -8.1004906 -1.01173 255 255 255
-3.8332736 -14.772795 -1.0250832 255 255 255
-5.1396985 -5.7454205 -1.0090015 255 255 255
-4.1886706 -12.186521 -1.0160728 255 255 255
-4.7266617 -9.0328655 -1.0139182 255 255 255
-4.6611953 -8.7457714 -1.0126214 255 255 255
-3.9620526 -14.409209 -1.0223719 255 255 255
-5.2211471 -5.2471461 -1.0105093 255 255 255
-4.801507 -8.2198353 -1.0131142 255 255 255
-4.8932867 -7.2583694 -1.0111252 255 255 255
-0.55458629 -36.753361 -1.0572858 255 255 255
-4.8827267 -7.3398995 -1.0136954 255 255 255
-4.9284978 -7.5341783 -1.0122736 255 255 255
-4.4600272 -10.054396 -1.0123864 255 255 255
-3.3837748 -17.667225 -1.0261859 255 255 255
-4.3943424 -10.667665 -1.0171804 255 255 255
-4.1181383 -12.549979 -1.0226283 255 255 255
-2.2335303 -25.304239 -1.0448359 255 255 255
-4.9757433 -7.188024 -1.0143713 255 255 255
-2.4925735 -22.955332 -1.0273504 255 255 255
-4.5660906 -9.4128485 -1.0135554 255 255 255
-5.1841068 -5.7778583 -1.0111458 255 255 255
-5.1494622 -5.7409034 -1.0109946 255 255 255
-3.8427331 -14.632301 -1.0224823 255 255 255
-4.2037935 -11.8167 -1.0130839 255 255 255
-3.9684913 -13.598975 -1.0179266 255 255 255
-2.3725832 -24.51132 -1.0342962 255 255 255
-5.4091554 -4.0810194 -1.0091225 255 255 255
-1.8180041 -28.431013 -1.0449582 255 255 255
-5.042028 -6.6698294 -1.0095975 255 255 255
-4.4031682 -11.442002 -1.0249835 255 255 255
-4.912117 -7.1252208 -1.0115467 255 255 255
-4.3321991 -11.214795 -1.0150747 255 255 255
-2.5288346 -23.233097 -1.0331248 255 255 255
-5.2836823 -5.20439 -1.0104508 255 255 255
-4.138588 -12.385097 -1.0166477 255 255 255
-5.2807555 -4.6036792 -1.0052688 255 255 255
-5.077373 -6.4620976 -1.0133388 255 255 255
-4.3258758 -11.18171 -1.013603 255 255 255
-4.5330725 -10.312234 -1.0140305 255 255 255
-4.552856 -9.5666866 -1.0146538 255 255 255
-4.8461967 -7.5646958 -1.0115148 255 255 255
-4.1472383 -12.262733 -1.0173814 255 255 255
-4.991107 -7.1827745 -1.014472 255 255 255
-5.1972671 -5.5286422 -1.0118839 255 255 255
-4.4337034 -10.063478 -1.0093986 255 255 255
-4.6266055 -9.3652172 -1.0113709 255 255 255
-4.2269468 -12.105122 -1.0166259 255 255 255
-4.9822063 -6.554091 -1.0082467 255 255 255
-4.4784164 -10.260163 -1.0147392 255 255 255
-3.0924382 -19.425392 -1.0266656 255 255 255
-4.3840227 -11.837307 -1.0171387 255 255 255
-4.4152851 -10.244352 -1.012655 255 255 255
-4.243721 -12.021908 -1.0232832 255 255 255
-4.8984342 -7.1906877 -1.0108187 255 255 255
-5.0028248 -6.4281306 -1.008215 255 255 255
-5.3286595 -4.4330015 -1.007511 255 255 255
-5.1553469 -5.6719337 -1.0067956 255 255 255
-3.9738569 -13.405111 -1.0194305 255 255 255
-4.4811592 -10.035987 -1.0129462 255 255 255
-4.7152915 -8.5340481 -1.0115758 255 255 255
0.83553654 -47.409653 -1.0822701 255 255 255
-4.6241188 -8.9960661 -1.0088079 255 255 255
-2.0723548 -27.127565 -1.0467602 255 255 255
-5.0322628 -7.275383 -1.0111598 255 255 255
-4.8217664 -7.6663465 -1.0106939 255 255 255
-3.8900695 -14.221207 -1.0256649 255 255 255
-4.7703753 -8.3087435 -1.0105592 255 255 255
-4.0329266 -13.342231 -1.0194657 255 255 255
-4.9928131 -7.2470055 -1.0135432 255 255 255
-5.3502841 -4.5482292 -1.0076567 255 255 255
-4.6053481 -9.2640324 -1.0122448 255 255 255
-4.4273376 -10.845705 -1.0202633 255 255 255
-4.7927809 -8.0806227 -1.0115347 255 255 255
-4.9509325 -7.2324171 -1.0093672 255 255 255
-3.6252379 -15.490584 -1.0175635 255 255 255
-5.2059722 -5.4803705 -1.0103214 255 255 255
-5.1069369 -6.0234408 -1.0142407 255 255 255
-3.3687346 -17.302614 -1.0231714 255 255 255
-4.8766055 -7.4887075 -1.0113384 255 255 255
-3.2691116 -18.306726 -1.029737 255 255 255
-4.6601453 -8.9237137 -1.0128828 255 255 255
-4.8825893 -7.5037012 -1.0120109 255 255 255
-4.1457849 -12.474828 -1.0191776 255 255 255
-4.8597474 -7.9552436 -1.0132349 255 255 255
-5.0216413 -6.6102004 -1.0102742 255 255 255
-4.882194 -7.4924979 -1.0116922 255 255 255
-5.1024947 -5.8776035 -1.0102743 255 255 255
-4.8343525 -7.701519 -1.010427 255 255 255
-5.383359 -4.5742912 -1.0181197 255 255 255
-4.9347205 -7.1256046 -1.0143464 255 255 255
-4.7540417 -8.2707815 -1.0141902 255 255 255
-3.8879647 -14.09854 -1.0193596 255 255 255
-4.6176281 -8.8974447 -1.0088478 255 255 255
-4.8701816 -7.4005685 -1.0111741 255 255 255
-4.540555 -9.5411959 -1.0139089 255 255 255
-4.9622302 -6.7921481 -1.0102232 255 255 255
-4.8634882 -7.4483843 -1.0077591 255 255 255
-5.3332996 -4.8513174 -1.0091537 255 255 255
11.803937 -117.29544 -1.1188848 255 255 255
-5.1107121 -5.9925642 -1.0099856 255 255 255
-5.0153642 -6.6878371 -1.0143474 255 255 255
-4.3054223 -11.447116 -1.0138966 255 255 255
-4.7704201 -8.390748 -1.0120865 255 255 255
-4.7186875 -8.7221651 -1.0112859 255 255 255
-4.5116968 -9.7499285 -1.0120147 255 255 255
-4.7570338 -8.1155586 -1.0137662 255 255 255
-4.4595318 -10.843984 -1.0149564 255 255 255
-2.9455419 -20.033592 -1.0244731 255 255 255
-4.9925432 -7.2826457 -1.0246391 255 255 255
-4.8224559 -7.984117 -1.009665 255 255 255
-5.0988045 -6.4891448 -1.0096829 255 255 255
-3.6883082 -15.546497 -1.0218208 255 255 255
-4.9956646 -6.9219279 -1.0117761 255 255 255
-4.2615004 -11.828794 -1.0158278 255 255 255
-5.0592489 -6.2280197 -1.0074781 255 255 255
-4.4079409 -10.406672 -1.0150851 255 255 255
-4.0723681 -13.202882 -1.0186225 255 255 255
-5.0184479 -6.5990567 -1.0095546 255 255 255
-5.5690279 -2.6478605 -1.0071083 255 255 255
-4.782414 -8.7108517 -1.0145249 255 255 255
-5.3978014 -4.1164851 -1.0091094 255 255 255
-5.0375304 -6.3032594 -1.0096245 255 255 255
-5.2965393 -4.6915746 -1.00862 255 255 255
-4.682385 -8.9371328 -1.0131469 255 255 255
-4.9661517 -6.7944651 -1.0075278 255 255 255
-2.2424085 -25.716179 -1.0443754 255 255 255
-4.8427482 -7.82442 -1.0122871 255 255 255
-4.7858915 -8.1236677 -1.0120772 255 255 255
-3.0637391 -19.777908 -1.0364544 255 255 255
-4.3199863 -11.075309 -1.0153128 255 255 255
-5.5405202 -3.1239333 -1.0110292 255 255 255
-4.7070746 -9.6360607 -1.0134233 255 255 255
-0.99950325 -33.430786 -1.0507056 255 255 255
-5.1645913 -5.5820026 -1.0085193 255 255 255
-3.5736048 -16.22921 -1.0229011 255 255 255
-4.9383659 -7.159296 -1.012223 255 255 255
-4.7705822 -8.1782799 -1.0107808 255 255 255
-4.6541243 -9.2641582 -1.0121002 255 255 255
-3.6206415 -15.865551 -1.0186242 255 255 255
-4.1904945 -11.870051 -1.0127977 255 255 255
-5.2937541 -4.9564877 -1.0097747 255 255 255
-5.1605091 -5.6047673 -1.0103695 255 255 255
-4.3451624 -11.127398 -1.0140772 255 255 255
-3.5587351 -16.867533 -1.0255821 255 255 255
-4.5443611 -9.4930096 -1.0138885 255 255 255
-4.1294332 -12.177934 -1.0144475 255 255 255
-3.9717417 -13.67527 -1.0231851 255 255 255
-5.222528 -5.2438607 -1.0105996 255 255 255
-5.0778942 -6.201623 -1.008839 255 255 255
-4.493094 -10.169758 -1.0168798 255 255 255
-5.1148148 -5.9281349 -1.0088645 255 255 255
-5.1550393 -5.8916426 -1.0071521 255 255 255
-4.0545001 -13.126644 -1.0204781 255 255 255
-4.5789475 -9.2618484 -1.0129464 255 255 255
-2.2866876 -24.605421 -1.030164 255 255 255
-4.2981577 -11.373705 -1.0155573 255 255 255
-5.2432814 -5.3674788 -1.0099927 255 255 255
-4.4160047 -10.493171 -1.0150534 255 255 255
-4.2540278 -11.672843 -1.0163826 255 255 255
8.4300308 -96.327927 -1.1426737 255 255 255
-4.2456217 -11.451256 -1.0131774 255 255 255
-4.7044592 -8.781599 -1.0134118 255 255 255
-4.6130571 -9.0457268 -1.0117413 255 255 255
-4.1355228 -12.460807 -1.017246 255 255 255
-1.199156 -33.113167 -1.0592785 255 255 255
-4.0517545 -13.012424 -1.0162667 255 255 255
-3.5140855 -16.400072 -1.0248433 255 255 255
-4.8330803 -8.0992184 -1.0144674 255 255 255
-4.7442164 -8.499485 -1.0125502 255 255 255
-3.5310724 -16.288418 -1.0246841 255 255 255
-4.853941 -7.8315396 -1.0120023 255 255 255
-4.0950336 -12.903343 -1.0197113 255 255 255
-5.1627421 -5.6185136 -1.013857 255 255 255
-5.0382485 -6.1842804 -1.0072694 255 255 255
-4.6750951 -8.7061167 -1.0086864 255 255 255
-4.6546583 -9.494957 -1.0161514 255 255 255
-4.6168146 -9.3728676 -1.0140221 255 255 255
-5.1551332 -5.7259903 -1.0069777 255 255 255
-5.1715932 -5.6622329 -1.0096869 255 255 255
-3.8146887 -14.3773 -1.0213517 255 255 255
-5.4022336 -4.4374442 -1.0149111 255 255 255
-2.7188444 -23.2498 -1.0505384 255 255 255
-3.7099111 -15.08935 -1.022688 255 255 255
-5.0805016 -6.2920833 -1.0102369 255 255 255
-4.5851183 -9.3078337 -1.0090878 255 255 255
-3.6064167 -15.66966 -1.0206836 255 255 255
-4.7981706 -7.890029 -1.0113366 255 255 255
-4.6671014 -9.1472578 -1.0149279 255 255 255
-4.5437479 -9.5963478 -1.0092827 255 255 255
-4.374649 -11.073883 -1.018289 255 255 255
-4.9053464 -7.5771213 -1.0108773 255 255 255
-5.4428 -3.5164001 -1.0085804 255 255 255
-4.8530006 -7.7609191 -1.0101771 255 255 255
15.469358 -144.37604 -1.1987737 255 255 255
-5.0931273 -6.0530944 -1.0072224 255 255 255
-4.8371444 -7.6676841 -1.009389 255 255 255
-4.1960745 -11.938061 -1.0147963 255 255 255
-4.6676712 -8.6250658 -1.0124575 255 255 255
-33.4133 182.27982 -0.76633197 255 255 255
-5.1047368 -6.3659515 -1.009123 255 255 255
-4.1298614 -12.103315 -1.0133672 255 255 255
-4.6162853 -8.9232874 -1.0088675 255 255 255
2.9280267 -59.662159 -1.0841045 255 255 255
-4.707787 -8.6591177 -1.0129796 255 255 255
-4.4103932 -10.885402 -1.0147834 255 255 255
-5.0444469 -6.481339 -1.0099652 255 255 255
-4.576076 -9.3073359 -1.0121526 255 255 255
-3.2160053 -18.229092 -1.0230752 255 255 255
-5.0338526 -6.581068 -1.0188705 255 255 255
-0.94121248 -34.225811 -1.0533004 255 255 255
-4.683754 -8.5464659 -1.0112264 255 255 255
-4.7654757 -8.0324287 -1.0082127 255 255 255
-5.1331239 -5.9809623 -1.0070575 255 255 255
-5.1950388 -5.7507339 -1.0084717 255 255 255
-5.2347879 -5.6626029 -1.0089151 255 255 255
-5.3904014 -7.555934 -1.011499 255 255 255
-2.525229 -23.418665 -1.0399759 255 255 255
-4.617002 -9.0323782 -1.0129558 255 255 255
-4.6394782 -8.8823624 -1.011266 255 255 255
-4.557704 -9.5475483 -1.0109631 255 255 255
-5.0620379 -6.2499619 -1.0085422 255 255 255
-4.0171361 -13.927257 -1.0207984 255 255 255
-3.8314474 -14.66697 -1.0212803 255 255 255
-4.1831121 -12.123859 -1.017432 255 255 255
