ply
format ascii 1.0
comment PCL generated
element vertex 1107
property float x
property float y
property float z
property uchar red
property uchar green
property uchar blue
element face 0
element camera 0
property float view_px
property float view_py
property float view_pz
property float x_axisx
property float x_axisy
property float x_axisz
property float y_axisx
property float y_axisy
property float y_axisz
property float z_axisx
property float z_axisy
property float z_axisz
property float focal
property float scalex
property float scaley
property float centerx
property float centery
property int viewportx
property int viewporty
property float k1
property float k2
end_header
-409.58414 -159.85376 -1.3943183 255 255 255
532.2984 672.78235 0.71162325 255 255 255
-1460.1606 -1229.4244 -5.2194242 255 255 255
-942.22198 -2124.2146 -4.861177 255 255 255
-2850.6462 -3191.0935 -8.15347 255 255 255
28.821489 136.44699 0.36846599 255 255 255
-4337.7217 -4087.3943 -6.6635904 255 255 255
1132.724 993.64185 4.0298467 255 255 255
569.34082 1096.798 1.6799306 255 255 255
479.31879 474.89011 1.2533932 255 255 255
347.7536 230.12691 0.41633627 255 255 255
-812.05249 -890.24048 -2.2817876 255 255 255
1794.1315 789.78357 3.7264805 255 255 255
-3584.0017 -9741.9238 -19.142942 255 255 255
709.25842 2036.5432 3.4708428 255 255 255
772.66125 474.98685 0.95202404 255 255 255
2663.2629 415.97409 3.325124 255 255 255
1042.4117 1233.0836 2.1709137 255 255 255
86.473099 437.77554 0.62164944 255 255 255
889.12317 1001.0823 1.1071428 255 255 255
-847.59204 -769.71808 -2.0943053 255 255 255
5979.3354 2450.0608 6.5694709 255 255 255
1083.6517 812.5957 1.1767299 255 255 255
748.56567 436.11014 2.2164383 255 255 255
679.94232 1454.0638 2.8245656 255 255 255
-10598.263 -10913.421 -34.314674 255 255 255
693.01959 396.10825 0.80008674 255 255 255
-301.61569 -1059.8243 -2.9697967 255 255 255
194.61604 539.51361 1.0259171 255 255 255
319.58957 512.74176 0.9476952 255 255 255
5086.3198 4322.3857 13.818951 255 255 255
519.05243 673.00446 0.77345842 255 255 255
-614.36395 -664.01868 -1.7963011 255 255 255
1042.6716 1235.2395 2.1694059 255 255 255
-999.97083 -1013.2287 -3.6881733 255 255 255
8050.0762 2604.3433 8.512435 255 255 255
617.6109 716.53467 1.6271094 255 255 255
-307.93655 -835.39716 -2.7196407 255 255 255
509.87292 522.87964 1.4256768 255 255 255
3313.9448 1625.6349 4.7534356 255 255 255
1834.4823 2659.4446 4.5234985 255 255 255
-2311.9834 -1584.2635 -8.7566109 255 255 255
-274.47766 -328.06445 -1.8171418 255 255 255
-268.73505 -511.05997 -2.248378 255 255 255
1237.2908 913.76697 2.538029 255 255 255
1103665 930147.81 1874.906 255 255 255
-381.82599 -458.37079 -2.5289342 255 255 255
-80.592529 -91.949692 -1.2208617 255 255 255
-237.36131 -104.71548 -1.2562255 255 255 255
613.34985 940.80548 2.3405914 255 255 255
375.6261 570.04877 0.96686679 255 255 255
8639.6631 2084.0977 11.036301 255 255 255
-8990.5791 -8890.7568 -40.10601 255 255 255
-5500.3574 -11703.67 -20.672421 255 255 255
860.3172 525.45459 2.124758 255 255 255
423.66095 615.85089 1.3282242 255 255 255
-2027.0239 -2520.8765 -7.1547923 255 255 255
-84.276871 -99.136963 -1.492698 255 255 255
73119.555 221907.72 388.87271 255 255 255
1036.2786 1244.8972 2.1622441 255 255 255
1278.8236 1373.0289 2.7767541 255 255 255
-120.07885 -193.31342 -1.4476006 255 255 255
-97.202988 -67.166748 -1.3708651 255 255 255
114.06327 821.02423 1.3001776 255 255 255
-427.61295 -4806.3501 -9.5489769 255 255 255
15408.314 2944.1384 20.371099 255 255 255
1667.2378 1836.6566 2.0382192 255 255 255
121.96828 989.49878 1.8099555 255 255 255
1032.8501 1267.9597 2.1564975 255 255 255
316.46881 470.91986 0.81115866 255 255 255
1038.8978 1248.4738 2.1637027 255 255 255
-231.41014 -175.48242 -1.4523008 255 255 255
2282.7932 1807.2555 3.2950861 255 255 255
-2496.0107 -1449.8359 -8.5970793 255 255 255
461.33835 563.19727 1.3662548 255 255 255
259.27368 1334.5944 1.8973349 255 255 255
668.94318 376.285 0.69011945 255 255 255
2852.8831 1692.2181 4.0468998 255 255 255
7031.6289 2392.1514 7.892365 255 255 255
593.29987 600.39526 0.79295367 255 255 255
12885.563 26505.906 55.770458 255 255 255
1449.8807 830.04657 2.9868343 255 255 255
1900.3054 768.50482 3.99106 255 255 255
2373.6448 1993.1195 3.2694023 255 255 255
214.29185 770.46588 1.2279794 255 255 255
-174.69298 -58.497711 -1.1850772 255 255 255
-10539.688 -3064.6165 -14.300324 255 255 255
-2125.8938 -1058.3164 -3.899739 255 255 255
-980.64148 -869.33594 -2.252564 255 255 255
501.22116 770.24451 1.3102429 255 255 255
666.42688 977.29932 1.9680455 255 255 255
-311.45654 -270.30032 -1.5832845 255 255 255
7638.8652 2369.9451 8.6540976 255 255 255
487.89398 290.35373 0.84186882 255 255 255
776.48505 1326.3119 1.9145998 255 255 255
-13899.785 -6512.71 -23.128426 255 255 255
-470.76437 -993.40143 -2.5875614 255 255 255
509.2449 289.73047 0.65266663 255 255 255
429.72678 617.1507 0.6014933 255 255 255
-3443.52 -2399.3289 -6.5344772 255 255 255
-446.00583 -1628.7598 -5.2281289 255 255 255
-171.49089 -118.1576 -1.3246628 255 255 255
800.28015 586.92297 0.92818493 255 255 255
139.7421 257.21777 0.68302041 255 255 255
-338.12668 -856.95105 -2.9154921 255 255 255
150.61671 565.64056 1.4921875 255 255 255
10578.37 2150.9521 13.628521 255 255 255
8667.0742 7177.1138 21.859501 255 255 255
10002.122 2374.5608 11.621928 255 255 255
2434.2744 1211.0433 4.1318002 255 255 255
3523.4685 9313.835 21.168285 255 255 255
1925.9689 2924.1426 7.1476197 255 255 255
1678.6255 1709.2401 5.087831 255 255 255
773.39526 1321.4819 1.911685 255 255 255
1366.4158 856.2522 2.8015285 255 255 255
-2088.4246 -2836.7925 -8.4127378 255 255 255
4319.6997 1494.1978 6.5127034 255 255 255
616.12036 536.04791 1.4732951 255 255 255
-562.66156 -224.17636 -3.0250976 255 255 255
79.732658 79.133392 0.10023595 255 255 255
546.86621 734.68341 0.83026737 255 255 255
926.58783 1044.5085 1.8418007 255 255 255
-75.262726 -67.73999 -1.1594843 255 255 255
99.174637 408.72586 0.82230324 255 255 255
445.58786 491.36893 1.2038983 255 255 255
14486.642 17081.895 47.804813 255 255 255
-1614.635 -1067.766 -3.890048 255 255 255
2828.3257 1877.3395 3.8421566 255 255 255
753.16351 881.46906 1.8002919 255 255 255
3294.7039 2451.1106 3.5940545 255 255 255
-1272.7179 -1753.0814 -5.2239857 255 255 255
2149.2771 8032.4312 15.959185 255 255 255
1291.7302 882.04608 2.6496222 255 255 255
1581.4419 1823.7598 2.1141424 255 255 255
-235.88913 -158.48137 -1.4558858 255 255 255
69755.938 7709.4429 95.209259 255 255 255
8569.0938 2319.4302 10.011396 255 255 255
-1187.354 -2448.5408 -5.3196225 255 255 255
7647.3862 2352.2678 8.7116652 255 255 255
-759.69586 -324.10074 -3.9538271 255 255 255
955.19727 991.90942 1.3635663 255 255 255
1296.2327 881.54517 2.6577482 255 255 255
-690.78375 -681.79413 -2.0078678 255 255 255
-816.64722 -637.12689 -2.0470476 255 255 255
824.42963 2755.7612 5.3264813 255 255 255
-36.154243 -327.20242 -1.5231251 255 255 255
-288.67737 -324.77661 -1.8215946 255 255 255
-9636.6729 -4413.5908 -15.835695 255 255 255
3752.366 1590.2278 5.4320946 255 255 255
-91.603012 -54.413921 -1.1679813 255 255 255
-3275.3062 -1505.4081 -4.6496096 255 255 255
1105.4227 1060.6184 2.2780459 255 255 255
-1621.453 -1474.4349 -3.0758233 255 255 255
1335.5767 863.3031 2.740772 255 255 255
6971.3896 1953.0211 7.7531304 255 255 255
75.188011 76.24749 0.10752926 255 255 255
503.70599 1131.9886 1.9170841 255 255 255
7533.4419 2582.6545 8.0083265 255 255 255
1102.7576 1062.541 2.272069 255 255 255
17496.877 9903.1211 24.919516 255 255 255
4968.252 5199.5869 9.2919559 255 255 255
6009.9541 2442.364 6.6051102 255 255 255
1720.9641 869.20886 2.143903 255 255 255
-4081.009 -2237.8718 -5.7013001 255 255 255
1071.9778 1133.7635 2.2165782 255 255 255
1335.6846 865.51172 2.7394226 255 255 255
1504.0961 1484.0724 4.4974365 255 255 255
639.38348 172.28918 1.0156578 255 255 255
-149.1284 -54.11462 -1.1770008 255 255 255
10717.471 2630.4138 11.499224 255 255 255
1251.2169 905.78595 2.5665758 255 255 255
204.9648 1154.6705 3.2718043 255 255 255
584.25439 337.70782 0.95513719 255 255 255
211.94395 930.17157 1.8708084 255 255 255
248.17447 1006.0397 1.4160055 255 255 255
91.54171 765.63593 1.1184126 255 255 255
-235.04195 -132.83331 -1.7648356 255 255 255
4619.0962 14713.732 20.877707 255 255 255
-787.16571 -952.40765 -3.370784 255 255 255
-907.00232 -1191.4352 -2.4364862 255 255 255
9106.125 2709.3672 9.4346771 255 255 255
10557.233 2398.3257 12.261826 255 255 255
1025.1346 1301.801 2.1487229 255 255 255
-4596.4272 -514.37299 -6.3259683 255 255 255
-1477.9669 -1986.5375 -5.8460841 255 255 255
1169.4865 3038.625 6.7108068 255 255 255
498.48535 304.57312 0.60706043 255 255 255
-10869.341 -4178.5205 -16.930758 255 255 255
2461.499 2027.1981 3.3343682 255 255 255
-92.514999 -28.399742 -1.3371534 255 255 255
4102.6948 3176.2898 5.1330132 255 255 255
-3543.9006 -6950.1641 -14.064176 255 255 255
649.00629 966.01984 2.3733044 255 255 255
3619.1226 2250.3767 4.3222036 255 255 255
748.23627 779.20679 1.8107483 255 255 255
-741.28992 -744.43903 -2.7033784 255 255 255
683.95801 560.6261 0.75051314 255 255 255
3551.1199 2229.8057 4.2678251 255 255 255
263.21378 292.88348 0.32781383 255 255 255
85085.102 20779.043 94.189751 255 255 255
-1681.1368 -2478.79 -3.8347414 255 255 255
3717.8386 2194.6201 4.4879174 255 255 255
393.06537 551.22473 0.60274136 255 255 255
346.00952 231.76544 0.39857599 255 255 255
-1816.0558 -510.15393 -3.0561612 255 255 255
727.93341 857.54541 0.92388016 255 255 255
315.86395 424.85974 0.73485583 255 255 255
3093.8708 2263.3345 3.7837451 255 255 255
894.27966 3672.0122 7.1770062 255 255 255
822.32202 420.14621 1.3371276 255 255 255
139.41234 270.49103 0.69854271 255 255 255
5650.9336 12871.795 19.394825 255 255 255
11061.381 4639.8774 12.470759 255 255 255
-1519.5359 -1273.9655 -3.8324933 255 255 255
1465.6477 1685.2542 5.2502432 255 255 255
-960.84998 -2416.8135 -4.8974118 255 255 255
3859.0508 2208.5122 4.6235967 255 255 255
494.36713 1464.0496 2.9863205 255 255 255
488.85242 829.7486 0.92969865 255 255 255
-384.25974 -277.88708 -1.4333638 255 255 255
265.53436 573.30615 1.1260115 255 255 255
148.10442 516.90387 0.86699718 255 255 255
7134.3403 2065.5696 9.0205803 255 255 255
2051.373 1432.3536 3.3067257 255 255 255
557.11102 1347.2587 2.3369918 255 255 255
4699.1265 2481.4751 5.1522694 255 255 255
7650.6343 2604.4966 8.0848684 255 255 255
-430.69592 -121.21326 -1.5245721 255 255 255
-329.48969 -164.58273 -2.2592793 255 255 255
555.76062 4806.3774 8.3679523 255 255 255
485.22592 289.95163 0.54544437 255 255 255
-5400.3057 -12755.711 -21.52512 255 255 255
-1973.7375 -2050.2336 -6.7171812 255 255 255
415.49451 174.93199 0.46862289 255 255 255
5606.1245 1525.9857 8.5050821 255 255 255
317.42691 331.46613 0.38598555 255 255 255
393.41293 175.50204 0.48948449 255 255 255
-619.66168 -651.14026 -1.7941059 255 255 255
-568.68433 -301.97784 -1.8002712 255 255 255
2430.5339 1784.9025 7.7124662 255 255 255
434.79608 550.20959 2.2078383 255 255 255
317.57431 387.07571 0.41581503 255 255 255
-4129.2954 -6961.5503 -13.690555 255 255 255
-529.82477 -662.28619 -2.4703157 255 255 255
1072.3453 1140.8344 2.217159 255 255 255
1573.2638 674.88611 4.9655204 255 255 255
1147.6453 793.07849 3.6225505 255 255 255
4047.1694 2744.8281 4.2775035 255 255 255
943.8501 1123.6177 1.2149086 255 255 255
1039.3656 1241.6279 2.1656258 255 255 255
661.91412 450.69452 0.80101693 255 255 255
-8519.9824 -12601.13 -44.450081 255 255 255
4900.4517 2497.3887 5.3390326 255 255 255
346.38071 230.36703 0.4243685 255 255 255
387.93152 464.29697 1.0024202 255 255 255
1455.8003 1390.8063 1.5888263 255 255 255
799.83795 1004.0408 1.8953778 255 255 255
421.37106 583.82214 1.3157259 255 255 255
389.45215 664.27454 0.58771944 255 255 255
-6794.3804 -2129.8457 -8.4425993 255 255 255
1690.2201 5834.2246 8.8194227 255 255 255
391.25427 169.16588 0.45889586 255 255 255
-2892.1885 -19233.262 -32.748482 255 255 255
12040.285 2670.2532 13.005139 255 255 255
-116.4755 -43.076614 -1.1436464 255 255 255
2234.564 1788.1035 3.2559419 255 255 255
11209.308 2702.019 11.845029 255 255 255
4221.332 3550.8459 6.4277682 255 255 255
-3073.2156 -10383.774 -14.965088 255 255 255
2250.8289 797.0199 2.7608609 255 255 255
-146.98279 -72.188972 -1.5778437 255 255 255
-5606.9829 -10135.471 -16.443417 255 255 255
2638.2737 1755.1864 4.0783887 255 255 255
18301.508 14128.871 58.430912 255 255 255
10486.324 2592.7571 11.369213 255 255 255
572.95807 800.72424 0.86298227 255 255 255
754.32837 313.0491 0.9038074 255 255 255
-47119.145 -7783.8027 -56.656891 255 255 255
-797.02155 -873.25378 -2.7089386 255 255 255
6996.2798 2377.3579 7.878634 255 255 255
222.34369 408.83746 0.3438988 255 255 255
610.08966 468.95184 0.81995308 255 255 255
1527.1244 1372.9631 2.6915741 255 255 255
-41.227982 -65.15905 -1.1019815 255 255 255
-1038.2302 -1135.2021 -2.3995969 255 255 255
130.67346 1009.4788 1.582611 255 255 255
3422.1006 2584.032 3.8564312 255 255 255
-1833.5975 -2370.3101 -7.6559711 255 255 255
196.0314 334.23538 0.71550417 255 255 255
-80.092796 -49.406338 -1.1828494 255 255 255
332.2023 489.24777 0.75030702 255 255 255
3416.4639 5341.7598 14.404522 255 255 255
769.22351 1320.3572 1.9073234 255 255 255
21931.223 7761.2139 24.514866 255 255 255
10261.09 2734.7795 10.652643 255 255 255
-85.526703 -26.18989 -1.1029736 255 255 255
729.96106 1055.3005 3.4401042 255 255 255
-476.50131 -484.13031 -2.3434439 255 255 255
3614.1277 2136.1775 4.4439149 255 255 255
498.48831 737.95239 0.68928903 255 255 255
-16807.107 -8281.2305 -19.706882 255 255 255
2240.9463 1938.9332 3.1677418 255 255 255
-97.073814 -60.849297 -1.3350424 255 255 255
153.99248 156.11812 0.21107917 255 255 255
472.03897 508.70978 1.2880697 255 255 255
954.51703 546.995 2.416862 255 255 255
-5275.9956 -9433.2129 -22.345997 255 255 255
1026.9243 3054.8674 4.3527808 255 255 255
896.33087 614.31415 1.233488 255 255 255
2323.6318 1971.7305 3.2301884 255 255 255
-318.83011 -320.70178 -1.8251638 255 255 255
-163.27182 -150.58043 -1.3478645 255 255 255
6530.5376 2922.4241 6.3612895 255 255 255
6068.1318 5595.0171 9.7784557 255 255 255
-169.46069 -482.7807 -1.999724 255 255 255
-46.749393 -359.08148 -1.5603896 255 255 255
6324.4917 2693.5513 6.491447 255 255 255
1441.9373 1571.5225 2.5315328 255 255 255
2220.969 1240.5186 3.7535894 255 255 255
1052.2366 925.68127 1.2980815 255 255 255
372.7457 175.34103 0.43971407 255 255 255
1899.5868 780.8877 2.1222353 255 255 255
416.10632 378.68564 0.50464773 255 255 255
-8145.7021 -6045.085 -12.993578 255 255 255
-5210.8311 -2065.9404 -8.6420908 255 255 255
2862.3667 1269.7648 9.3151827 255 255 255
1182.9142 1965.8212 4.3687034 255 255 255
476.33084 193.34851 0.59728032 255 255 255
6914.7256 2393.2693 7.7460313 255 255 255
3193.4309 2297.645 3.8499651 255 255 255
-180.00819 -81.203644 -1.6094939 255 255 255
-2726.6838 -1322.7063 -4.8617134 255 255 255
2422.0859 1860.2197 3.4046619 255 255 255
3647.3704 2179.0913 4.4322286 255 255 255
-253.8347 -65.814827 -1.2895801 255 255 255
891.41083 1049.1827 1.7141327 255 255 255
-697.83063 -655.34753 -1.9871635 255 255 255
-23.820103 -52.965195 -1.1067213 255 255 255
-454.43997 -4549.4526 -8.09272 255 255 255
3766.4319 2216.9705 4.5133038 255 255 255
-83.640884 -32.692867 -1.0873703 255 255 255
-458.54666 -351.41382 -1.5852512 255 255 255
2632.7444 1683.1904 3.7824802 255 255 255
3411.7798 1961.1021 4.4206619 255 255 255
739.75348 1805.873 3.1529567 255 255 255
-12612.648 -9207.9795 -44.702267 255 255 255
-104.5627 -136.41937 -1.3853174 255 255 255
1420.3279 1073.276 1.8519013 255 255 255
338.59982 219.53755 0.40099248 255 255 255
403.08231 356.88776 0.54843068 255 255 255
1356.9843 1375.452 1.7459748 255 255 255
3720.9917 2194.1707 4.4972234 255 255 255
450.9505 1795.7133 2.3905668 255 255 255
317.15598 1713.006 2.3675082 255 255 255
441.26727 427.9895 0.56496871 255 255 255
1418.6715 1326.3447 2.5831428 255 255 255
5530.1582 9810.2383 24.967493 255 255 255
755.72339 425.41528 0.8316949 255 255 255
-1904.1765 -2453.6677 -4.2745109 255 255 255
833.86237 884.78491 3.1895421 255 255 255
-1161.0228 -1508.8813 -2.6277792 255 255 255
3378.9399 2200.7832 4.1225891 255 255 255
1472.6267 1590.6182 2.5563607 255 255 255
2722.9866 1841.7385 3.7598925 255 255 255
391.19525 527.72119 0.7735815 255 255 255
-510.27365 -575.79053 -1.7001495 255 255 255
2844.4426 8903.5664 18.182312 255 255 255
2228.1489 1435.2357 2.5160601 255 255 255
1787.0221 1103.3405 3.2398829 255 255 255
577.8454 690.2298 1.5660498 255 255 255
511.54312 2021.1279 3.952441 255 255 255
3395.5798 1956.08 4.4082284 255 255 255
-4027.0264 -18061.133 -26.533852 255 255 255
432.63986 550.43762 0.63623697 255 255 255
505.99072 607.26526 1.0505556 255 255 255
3628.2246 2247.0474 4.3344879 255 255 255
1859.548 1194.825 2.1333354 255 255 255
2626.2793 1588.4863 3.8936198 255 255 255
98.440651 70.796043 0.12423243 255 255 255
4124.8984 2790.1746 4.302547 255 255 255
740.56946 607.13916 1.1558324 255 255 255
-1535.4001 -744.53693 -3.2322156 255 255 255
1221.1389 988.4632 1.6222984 255 255 255
410.60904 217.36375 0.50092632 255 255 255
2643.6147 1413.1672 4.1421609 255 255 255
3558.783 2581.5906 4.1724749 255 255 255
2891.2222 1866.3517 3.5500491 255 255 255
-287.25812 -1238.6083 -2.9971821 255 255 255
3506.5474 2210.8049 4.2438784 255 255 255
366.35898 460.96262 0.88619763 255 255 255
-1217.1041 -398.13846 -4.1379619 255 255 255
1470.5243 1577.0951 2.5568392 255 255 255
393.89685 1180.7059 2.0515285 255 255 255
1560.8345 1590.1781 4.704133 255 255 255
-2451.8796 -2317.2603 -6.3509026 255 255 255
120.13246 698.60571 1.1275609 255 255 255
-4888.2505 -1350.2501 -7.8290033 255 255 255
402.2312 1637.7943 3.360976 255 255 255
1592.0142 10485.638 20.300259 255 255 255
-287.64883 -293.20096 -1.9079342 255 255 255
344.88077 202.52026 0.3648746 255 255 255
426.79971 123.01199 0.58417618 255 255 255
4578.417 2042.1031 4.6669092 255 255 255
140.46661 85.039223 0.47289658 255 255 255
1992.9637 1506.7491 3.2560508 255 255 255
910.54095 617.25525 2.8516557 255 255 255
225.755 992.18762 1.4684452 255 255 255
5126.8916 2098.3184 6.2824159 255 255 255
-190.81471 -180.80147 -1.5782001 255 255 255
374.16571 215.96707 0.41025865 255 255 255
4948.8267 3659.7041 9.1194906 255 255 255
8227.6973 3525.1296 9.0413227 255 255 255
-2082.4563 -2401.3784 -8.710187 255 255 255
10544.367 2395.9741 12.245966 255 255 255
-3730.9263 -2262.5701 -5.7470932 255 255 255
94.640152 77.111565 0.33085927 255 255 255
-309.90875 -115.44094 -2.0617912 255 255 255
213.29356 469.84091 0.96495223 255 255 255
3376.8777 2199.4761 4.1204863 255 255 255
-323.78958 -225.8806 -1.7197621 255 255 255
1237.4752 913.52271 2.5329955 255 255 255
-346.45651 -861.55933 -3.4255714 255 255 255
-445.28583 -204.85138 -1.4408177 255 255 255
2252.7224 1624.6349 2.6586068 255 255 255
139156.34 49247.188 155.12692 255 255 255
-74.846901 -68.367989 -1.1346374 255 255 255
-5860.4395 -2793.7874 -9.5762529 255 255 255
1104.174 1063.4813 2.2743931 255 255 255
-973.5777 -655.29779 -2.1832159 255 255 255
829.79053 1606.428 3.8880174 255 255 255
-571.32501 -592.32593 -1.7287869 255 255 255
3716.8525 2191.8826 4.4925337 255 255 255
551.41022 618.94653 1.5592204 255 255 255
6751.0864 5912.9741 9.4908504 255 255 255
635.91638 706.06879 1.885509 255 255 255
-263.91803 -161.60422 -1.4816256 255 255 255
-277.96774 -295.31949 -2.0214059 255 255 255
775.89093 1326.9851 1.9145303 255 255 255
-710.354 -1408.1274 -3.5990822 255 255 255
669.17114 565.68677 0.83638448 255 255 255
-3180.0022 -9901.1875 -18.853926 255 255 255
789.67065 1061.9784 3.1460278 255 255 255
483.01013 742.54993 0.71369761 255 255 255
1513.5009 1433.8131 2.0389409 255 255 255
1035.5817 1259.1532 2.160732 255 255 255
-286.54205 -254.57153 -1.6884249 255 255 255
-4877.0537 -1947.0677 -6.0940738 255 255 255
1400.5916 682.547 1.4460137 255 255 255
777.85773 1327.7505 1.9168106 255 255 255
192.79474 532.96033 1.0169145 255 255 255
2504.5791 1198.2528 4.2667179 255 255 255
422.01468 584.4895 1.3173246 255 255 255
444.62985 1572.3612 2.9694421 255 255 255
455.23221 301.08386 0.56252348 255 255 255
-229.06183 -272.31497 -1.818808 255 255 255
1186.9379 5027.2549 6.942276 255 255 255
3350.2134 2456.7114 3.8852227 255 255 255
-467.06232 -537.07117 -1.6882966 255 255 255
261.99847 332.9407 0.34621763 255 255 255
1075.1036 1133.1814 2.2223296 255 255 255
1064.1228 2099.6599 3.3585184 255 255 255
-11529.741 -4287.0884 -14.485074 255 255 255
708.98236 1210.1326 1.8224362 255 255 255
3147.4634 2121.4543 3.9560945 255 255 255
1315.793 3764.9883 5.6448531 255 255 255
3207.6965 2142.009 3.9985008 255 255 255
337.16312 466.98761 0.90617192 255 255 255
3724.2031 2196.6851 4.4948597 255 255 255
347.21649 627.23938 1.2998687 255 255 255
769.81091 1321.2484 1.9088697 255 255 255
-6076.1562 -9414.2158 -24.645178 255 255 255
-2933.1453 -399.48843 -4.9206285 255 255 255
483.37515 477.36911 1.3006977 255 255 255
482.97589 929.19421 1.5233082 255 255 255
58.438457 455.76871 0.61668169 255 255 255
4899.8896 2496.8999 5.3383222 255 255 255
610.36938 1741.2986 3.5291095 255 255 255
-1596.0559 -1381.5912 -4.4234838 255 255 255
591.79401 404.16559 0.7849009 255 255 255
680.57355 557.04712 0.84967262 255 255 255
1024.8688 1301.3586 2.1476901 255 255 255
1664.2441 1393.1375 2.0849044 255 255 255
9235.8174 7576.9229 23.281116 255 255 255
538.81146 842.23285 0.87549269 255 255 255
11213.264 2704.0034 11.852399 255 255 255
-294.29968 -361.64966 -1.9025562 255 255 255
-161.41165 -47.426987 -1.2718678 255 255 255
1018.1196 875.76056 1.2632191 255 255 255
371.40009 463.32434 0.51116377 255 255 255
-881.91711 -1350.3103 -2.3409534 255 255 255
2262.645 1582.8751 2.7274725 255 255 255
6427.8813 2411.4832 7.1700807 255 255 255
1492.0378 1003.0187 1.8497959 255 255 255
632.63159 421.11911 1.0053583 255 255 255
343.86801 206.14136 0.37487611 255 255 255
-14755.854 -29029.836 -67.796715 255 255 255
3424.7942 1222.4202 4.9833646 255 255 255
8032.1465 2601.4443 8.4922857 255 255 255
7656.8755 2355.708 8.7216311 255 255 255
2847.8945 2801.4583 6.8761821 255 255 255
-920.21149 -1339.8567 -3.3642232 255 255 255
983.28802 419.25323 2.6636715 255 255 255
135.96979 390.46014 0.58170259 255 255 255
-2631.4614 -1747.2249 -4.2410059 255 255 255
955.26483 568.36572 1.153343 255 255 255
-1048.5112 -1157.6591 -6.7017088 255 255 255
383.16544 1571.4279 2.9059169 255 255 255
-81.150513 -51.460209 -1.1191114 255 255 255
17206.41 7067.1187 20.48415 255 255 255
23856.357 20940.314 39.491329 255 255 255
1477.7402 1579.5162 2.5654635 255 255 255
510.44766 546.88513 1.3375268 255 255 255
-718.67615 -1074.2631 -2.0700471 255 255 255
1778.1035 1100.486 3.2229321 255 255 255
-259.12122 -333.71777 -1.8936428 255 255 255
437.09418 931.01593 1.489051 255 255 255
-114.89165 -921.50323 -3.6012394 255 255 255
6950.6021 7672.5488 23.230268 255 255 255
-628.48145 -1075.4991 -2.7536707 255 255 255
1324.2957 876.20312 2.7204704 255 255 255
-803.02417 -1889.8212 -4.5776992 255 255 255
-2928.9253 -2316.2551 -4.4238873 255 255 255
4739.374 3020.7661 6.0471916 255 255 255
3464.6504 1109.5219 4.8201537 255 255 255
-75.087173 -67.856064 -1.1593173 255 255 255
1473.5823 1590.4338 2.5568707 255 255 255
600.68744 371.71164 0.71906841 255 255 255
9109.668 2708.9343 9.4377966 255 255 255
1449.8573 828.7616 2.9883828 255 255 255
-3724.9773 -8819.6621 -15.436971 255 255 255
3319.229 1628.4771 4.7594099 255 255 255
446.85635 154.24413 0.50513041 255 255 255
799.53479 1003.9732 1.894992 255 255 255
958.16455 889.74231 1.1401707 255 255 255
1451.7178 2177.0488 6.6612716 255 255 255
7831.3193 2791.9761 7.8778186 255 255 255
1042.8882 1234.6801 2.1733112 255 255 255
-608.33344 -649.48999 -2.4351277 255 255 255
-886.48175 -922.35016 -3.2697489 255 255 255
546.6319 705.30609 0.71978778 255 255 255
-1126.2781 -1694.7327 -5.034162 255 255 255
424.78592 203.65141 0.50708193 255 255 255
2719.5913 1838.8535 3.7551537 255 255 255
2828.4871 1877.1124 3.8419478 255 255 255
3565.6553 2221.1626 4.2925901 255 255 255
-462.53027 -766.58521 -2.3974943 255 255 255
-2859.7349 -2752.0698 -4.6689296 255 255 255
-42.479195 -55.73814 -1.1293371 255 255 255
170.27228 544.93604 0.80777931 255 255 255
638.4425 719.29919 0.82845938 255 255 255
-323.89648 -312.58698 -1.6675529 255 255 255
5526.0625 4545.8525 13.74516 255 255 255
-269.92258 -714.01044 -2.7103112 255 255 255
2659.9395 1818.7596 3.7060075 255 255 255
504.95761 1211.0878 1.7029966 255 255 255
2205.0046 1747.3029 2.9445481 255 255 255
-82267.062 -30839.119 -141.87193 255 255 255
-140.67473 -196.17444 -1.5828595 255 255 255
395.58987 498.63956 1.1984361 255 255 255
7223.5474 2399.6558 8.0966043 255 255 255
-166.80098 -165.6514 -1.4702895 255 255 255
-6045.6895 -2793.0266 -7.0340934 255 255 255
-4229.8765 -15535.996 -31.122171 255 255 255
-1885.7648 -2949.5383 -4.3925023 255 255 255
568.43066 1096.4302 1.6785363 255 255 255
1845.0876 788.76849 3.8362184 255 255 255
-770.77258 -1234.6063 -2.1982038 255 255 255
10158.44 6359.9233 12.838292 255 255 255
4087.6506 2204.9688 4.874392 255 255 255
223.78682 335.41025 0.31014186 255 255 255
13952.422 2832.9072 14.588652 255 255 255
-1003.3941 -812.60236 -2.3840222 255 255 255
321.80038 142.32103 0.50017202 255 255 255
1417.7925 828.06354 2.905602 255 255 255
1179.5847 575.9599 1.6506805 255 255 255
1026.9098 1278.674 2.1495831 255 255 255
1048.2417 953.66431 1.1193607 255 255 255
1045.7794 1225.0271 2.1748662 255 255 255
643.92059 2575.3311 5.7334161 255 255 255
-225.6606 -318.29013 -1.4845246 255 255 255
1032.2988 1267.7146 2.1551728 255 255 255
-152.3584 -141.40303 -1.4443822 255 255 255
1930.0961 1101.7428 4.2805595 255 255 255
-1108.4481 -1222.8396 -4.214581 255 255 255
-64.550407 -113.84523 -1.2777525 255 255 255
-9779.707 -22909.301 -46.52977 255 255 255
1060.4315 1170.2588 2.1957519 255 255 255
-435.8154 -281.75107 -2.035969 255 255 255
3070.8835 2853.5605 4.9131899 255 255 255
1043.2565 1236.3257 2.1715987 255 255 255
-686.8562 -822.50623 -2.8177717 255 255 255
423.70813 199.86748 0.49476242 255 255 255
398.8107 468.33539 1.1218967 255 255 255
-4076.0933 -2234.4172 -5.6942725 255 255 255
430.37524 880.70764 1.5512378 255 255 255
1367.0508 856.84613 2.8027267 255 255 255
1907.432 770.27179 4.0041022 255 255 255
-62.498192 -74.429703 -1.1382635 255 255 255
1778.7877 1602.1034 2.8701253 255 255 255
-474.92395 -444.55536 -2.321764 255 255 255
4585.4707 2242.009 5.4268422 255 255 255
-2931.3035 -1959.0166 -5.4073892 255 255 255
11951.652 2448.8472 13.890392 255 255 255
644.60797 452.1004 1.7519438 255 255 255
2379.3459 1428.8667 8.7840519 255 255 255
2425.7166 1884.1385 3.393579 255 255 255
2426.0366 1862.4084 3.4108021 255 255 255
248.36867 1006.1774 1.4163452 255 255 255
6975.8066 5726.0376 17.471821 255 255 255
-78.506271 -71.425896 -1.1696876 255 255 255
5522.7002 15579.439 32.804916 255 255 255
1442.2402 1259.1049 1.8137912 255 255 255
472.20993 1050.3821 1.5726979 255 255 255
880.41357 1400.2263 3.1516066 255 255 255
95.050285 1100.4231 1.8419137 255 255 255
5345.5142 2467.4697 5.8404565 255 255 255
305.23218 1173.806 2.3131311 255 255 255
2288.5759 1830.6102 3.2845533 255 255 255
-64.965225 -90.446609 -1.213909 255 255 255
-21.712824 -80.093178 -1.205074 255 255 255
-2338.6304 -961.80817 -7.4898248 255 255 255
-58.882149 -72.695389 -1.3263166 255 255 255
4211.2212 15777.386 31.141195 255 255 255
3838.3477 2200.8235 4.6079192 255 255 255
4259.873 2680.5935 4.5182676 255 255 255
232.57451 862.03418 1.2900487 255 255 255
-1969.4224 -2712.842 -6.3049917 255 255 255
-34592.074 -117122.12 -311.61243 255 255 255
835.93048 791.81458 2.7820687 255 255 255
-290.53979 -4274.1309 -11.548367 255 255 255
-4004.4426 -1717.8776 -4.9591846 255 255 255
-1066.7617 -1179.1816 -4.4684558 255 255 255
1127.4167 2133.9719 4.6694951 255 255 255
5608.9668 1438.2687 6.2679305 255 255 255
2237.0513 1789.4236 3.2585299 255 255 255
-1376.8571 -1609.4701 -4.0344219 255 255 255
-2949.9158 -5239.7393 -13.161819 255 255 255
3621.2507 2250.8979 4.3244967 255 255 255
-282.37939 -384.98969 -1.9317691 255 255 255
2150.0481 1755.4198 3.1877644 255 255 255
5605.2129 1525.2626 8.5044527 255 255 255
535.16339 516.14954 1.380229 255 255 255
1104.3538 1057.7465 2.2740715 255 255 255
408.66409 593.89709 1.0369194 255 255 255
391.05096 409.23444 1.0572923 255 255 255
-75.690659 -47.763695 -1.081579 255 255 255
1222.056 985.45996 2.4654827 255 255 255
297.6431 360.39377 0.42753953 255 255 255
4757.1479 2091.0273 5.8456407 255 255 255
524.51752 591.09845 0.92685646 255 255 255
-265.17291 -316.99258 -1.740427 255 255 255
2503.4065 1769.7251 3.5749612 255 255 255
2153.7373 1089.8792 7.2129216 255 255 255
2558.1677 1790.2428 3.621088 255 255 255
-1079.3623 -1148.2162 -3.0768969 255 255 255
11705.422 2460.0203 13.436789 255 255 255
-2412.6514 -2217.582 -4.2727785 255 255 255
-521.0213 -189.72408 -3.0699835 255 255 255
4624.0596 2136.437 5.5991054 255 255 255
87.661278 918.59021 1.203518 255 255 255
-1928.8324 -2287.4014 -4.1787281 255 255 255
3863.7458 2210.6243 4.6300654 255 255 255
6040.4717 2715.4851 6.1775241 255 255 255
-12442.893 -16643.906 -56.810791 255 255 255
69.388062 144.73445 0.22852208 255 255 255
557.00726 621.71539 0.79579598 255 255 255
571.2973 511.89835 1.6097122 255 255 255
-144.99921 -114.40324 -1.2500966 255 255 255
-229.75624 -104.33028 -1.7452722 255 255 255
7531.3115 2580.4824 8.0042181 255 255 255
2776.1934 440.53336 3.8036044 255 255 255
1046.8157 1222.3143 2.1766047 255 255 255
2241.9648 1939.0354 3.1691806 255 255 255
3753.1733 1589.3497 5.4300323 255 255 255
1035.2924 1266.8441 2.1602933 255 255 255
-2684.4624 -9398.9014 -18.81119 255 255 255
4315.9321 1492.9918 6.5047779 255 255 255
-115.91033 -142.2966 -1.6330971 255 255 255
725.6864 2147.9771 4.1629143 255 255 255
1072.3066 1137.4158 2.2182806 255 255 255
610.92291 772.39575 0.81282151 255 255 255
-595.77393 -721.67389 -1.8793356 255 255 255
1458.8867 827.53931 3.0006638 255 255 255
676.19739 281.07877 0.81921601 255 255 255
851.01172 678.32275 0.92428958 255 255 255
-1104.2157 -1524.2626 -4.5325503 255 255 255
3642.7852 2164.2317 4.3254104 255 255 255
755.18793 912.5722 1.0818086 255 255 255
604.09631 705.27399 0.76814091 255 255 255
7082.0312 2360.4753 8.0077152 255 255 255
1493.4884 1529.1471 2.5974174 255 255 255
819.25763 694.48303 1.4345281 255 255 255
975.03516 2153.46 2.7891154 255 255 255
2210.9834 1411.2716 3.1870332 255 255 255
1435.285 1232.4744 2.554461 255 255 255
2694.7798 1707.4191 3.8328323 255 255 255
944.81689 2919.3586 5.1616702 255 255 255
5231.6465 2841.2622 5.2297425 255 255 255
343.22223 227.49687 0.41476157 255 255 255
3633.2263 2250.3792 4.3408232 255 255 255
4102.3003 2263.2083 4.816988 255 255 255
-282.11008 -747.13013 -2.5147929 255 255 255
-286.61288 -358.57208 -1.8654969 255 255 255
2373.2156 1991.2162 3.2677672 255 255 255
1532.1702 1377.6981 2.7010906 255 255 255
611.87756 569.04443 0.82298815 255 255 255
-5528.8687 -40415.484 -68.064095 255 255 255
1324.0345 1239.0225 1.9883952 255 255 255
2519.9863 1897.1953 3.4851544 255 255 255
501.30804 716.91797 0.71120465 255 255 255
773.49316 1321.168 1.9117745 255 255 255
4219.1777 1533.3108 6.2429051 255 255 255
428.47 256.44128 0.66124034 255 255 255
1001.1661 525.49017 2.9344807 255 255 255
453.72675 93.539116 0.51152617 255 255 255
8510.8223 2689.666 8.8383837 255 255 255
739.03601 1035.4447 2.9800782 255 255 255
-3556.1072 -11136.894 -25.249641 255 255 255
1498.0217 1520.9698 2.6041632 255 255 255
1466.6864 1089.6925 1.8813093 255 255 255
4069.5322 2444.3438 12.936696 255 255 255
358.37326 165.11514 0.42017183 255 255 255
1037.3937 1257.1587 2.1626694 255 255 255
165.55531 559.19604 0.71954244 255 255 255
-1676.5958 -1557.7515 -3.1240988 255 255 255
7730.7905 2590.6348 8.2184763 255 255 255
1810.7238 1939.2823 4.909965 255 255 255
159.1051 1422.4039 2.2304485 255 255 255
705.37891 1349.3976 2.425935 255 255 255
1232.7843 920.56116 2.5203891 255 255 255
14879.439 3882.1323 17.193966 255 255 255
4264.5298 2394.8196 11.073946 255 255 255
1053.7698 1195.4519 2.1857102 255 255 255
375.73257 235.69046 0.48633635 255 255 255
944.28204 1769.8245 3.9047275 255 255 255
462.89444 505.39944 0.54385513 255 255 255
2270.5745 2082.6431 8.5779829 255 255 255
5276.9375 4489.3164 8.7128038 255 255 255
-2893.9116 -3398.802 -10.688644 255 255 255
-104.01525 -135.21704 -1.37949 255 255 255
1784.8381 999.57263 2.0995502 255 255 255
6209.8774 2052.0574 7.7647262 255 255 255
971.49194 3087.5186 5.9060287 255 255 255
132.84601 525.02393 0.74038512 255 255 255
819.79028 1221.6006 1.1900626 255 255 255
5089.4448 2091.9629 6.267241 255 255 255
266.24432 1161.7114 2.1804562 255 255 255
-222.25037 -228.34901 -1.5648042 255 255 255
402.70273 176.65475 0.56009644 255 255 255
1464.4189 1506.6536 2.5705369 255 255 255
545.83148 13954.391 25.043255 255 255 255
1063.0516 1642.9401 3.4566226 255 255 255
2692.5938 4785.2764 13.34571 255 255 255
-243.14212 -56.862411 -1.2777115 255 255 255
1441.1652 1565.5507 2.5299981 255 255 255
-691.58862 -252.93962 -2.3804045 255 255 255
778.16968 1318.4962 1.9148755 255 255 255
-245.88947 -270.76532 -1.6247991 255 255 255
-220.30678 -240.44522 -1.5155505 255 255 255
-80.552689 -67.863258 -1.2418025 255 255 255
1473.9064 1591.0959 2.5573928 255 255 255
594.9743 198.18073 0.99301755 255 255 255
-296.85413 -454.39587 -6.0514011 255 255 255
-101.52404 -66.69738 -1.386699 255 255 255
495.01978 1356.183 2.7755702 255 255 255
-58.854004 -42.933266 -1.2106316 255 255 255
692.27661 927.2099 0.97247368 255 255 255
16474.916 2799.5999 17.97279 255 255 255
874.75977 380.48325 1.423619 255 255 255
2278.3774 1804.7563 3.2897882 255 255 255
4900.8027 7855.2349 17.834135 255 255 255
858.29883 931.12305 1.2188209 255 255 255
-258.61505 -108.71886 -1.9487212 255 255 255
-147.91386 -189.04704 -1.4342985 255 255 255
556.23456 1668.1355 3.3535712 255 255 255
1959.1909 380.49533 2.2532518 255 255 255
832.26422 2515.3652 4.1609969 255 255 255
489.83493 269.17819 0.75168788 255 255 255
82.630112 1381.8737 2.2506025 255 255 255
355.32211 574.40936 0.84797454 255 255 255
935.30066 2196.5786 4.9128084 255 255 255
545.87689 7819.1079 15.060678 255 255 255
5376.8213 4433.2905 8.9099312 255 255 255
-2911.1592 -1192.8849 -4.0888724 255 255 255
463.03931 207.94667 0.51772505 255 255 255
7219.7656 2399.6724 8.0953054 255 255 255
-79.399002 -72.601151 -1.2254241 255 255 255
798.81372 506.08908 1.0822262 255 255 255
-763.91174 -2291.9922 -4.422296 255 255 255
2657.7073 1817.6699 3.7029946 255 255 255
-1621.7686 -2796.989 -5.598547 255 255 255
3841.7292 2203.9519 4.6129265 255 255 255
3849.2244 2203.6226 4.6125607 255 255 255
-3903.0208 -4774.21 -13.595407 255 255 255
-71.617523 -156.72871 -1.2994618 255 255 255
-702.24707 -727.17004 -2.7988074 255 255 255
867.03436 1996.6553 4.0572462 255 255 255
-4524.5996 -1875.9314 -5.3887148 255 255 255
698.51715 722.2514 0.85527492 255 255 255
877.125 1202.7367 1.3262206 255 255 255
11518.998 2569.7083 12.70315 255 255 255
230.80341 273.05237 0.31607863 255 255 255
549.15503 695.50305 0.70105553 255 255 255
1417.1173 840.02533 2.9157205 255 255 255
1735.8188 791.47174 3.5978348 255 255 255
507.55264 481.47745 1.502611 255 255 255
10217.049 6398.4155 12.914465 255 255 255
1042.423 1233.0579 2.1704624 255 255 255
657.10895 630.58514 1.0204377 255 255 255
1367.6691 857.81946 2.8047748 255 255 255
680.34644 792.03406 0.81899446 255 255 255
2804.9226 1577.9698 4.1236868 255 255 255
8951.584 3976.5632 10.016222 255 255 255
-146.08279 -94.496681 -1.4431999 255 255 255
10398.149 2326.5198 13.436126 255 255 255
-102.61766 -138.97871 -1.3873 255 255 255
323.59567 557.37122 1.2747138 255 255 255
5038.709 3626.4666 7.322166 255 255 255
-505.39401 -252.703 -3.006366 255 255 255
-95.691772 -100.52764 -1.3002936 255 255 255
386.32495 360.69754 0.67939037 255 255 255
233.66432 735.5578 0.95512575 255 255 255
1412.1428 841.62756 2.9045398 255 255 255
1924.2268 1095.6526 4.2646604 255 255 255
-6229.2935 -9130.8955 -26.240454 255 255 255
-458.23959 -188.14398 -2.4651816 255 255 255
723.93439 464.96869 1.2641108 255 255 255
520.25433 426.52402 0.85129148 255 255 255
-309.08206 -350.96185 -2.2598183 255 255 255
777.92194 1329.4091 1.9176712 255 255 255
764.73535 1034.0337 1.5667537 255 255 255
2289.2439 1831.6591 3.2852278 255 255 255
8740.6914 1328.9994 9.2442827 255 255 255
-155.8931 -182.3548 -1.3101789 255 255 255
1036.8752 1271.4385 2.1665258 255 255 255
521.26672 676.2699 0.71083158 255 255 255
1976.9106 3600.9258 5.6765399 255 255 255
-233.98903 -183.51958 -1.6061435 255 255 255
313.40854 226.62169 0.33332276 255 255 255
1103.1414 1060.4736 2.2746294 255 255 255
-719.90479 -352.99359 -4.1990976 255 255 255
-274.67673 -328.13571 -1.8180224 255 255 255
988.9975 795.45398 1.6138744 255 255 255
4906.043 5827.4399 9.7212973 255 255 255
774.11823 1321.0358 1.912657 255 255 255
371.79123 599.69275 1.1631521 255 255 255
1027.2778 1273.1328 2.145539 255 255 255
1541.1315 814.31238 3.1710155 255 255 255
-2978.6184 -4413.5806 -9.5229883 255 255 255
2876.4814 1042.6353 3.0738668 255 255 255
1027.5179 1280.6798 2.1520257 255 255 255
1072.5079 1138.3861 2.2189493 255 255 255
394.96231 186.07996 0.43465745 255 255 255
-88.015099 -59.208355 -1.3170311 255 255 255
1419.8208 1326.5833 2.583389 255 255 255
-272.40207 -290.10306 -1.6486455 255 255 255
81.18705 508.10715 0.8171593 255 255 255
-2659.2898 -7580.0894 -15.311531 255 255 255
-36545.586 -13429.758 -124.26758 255 255 255
2369.0298 1988.9667 3.2631276 255 255 255
334.35022 542.82397 1.0120033 255 255 255
-234.52605 -273.61981 -1.8088744 255 255 255
3343.0022 2453.2654 3.8787024 255 255 255
1861.823 666.8465 2.2088954 255 255 255
1372.1348 1240.6814 3.3306022 255 255 255
-831.0791 -486.61255 -2.0138721 255 255 255
-501.83582 -221.37573 -2.8013859 255 255 255
178.34579 52.524128 0.18789421 255 255 255
3319.8875 1475.4913 10.264576 255 255 255
-119.52222 -72.546074 -1.3258607 255 255 255
1072.4324 1133.9934 2.2174225 255 255 255
544.18982 254.79756 0.63439733 255 255 255
-83.045555 -54.29237 -1.1886345 255 255 255
18420.172 36157.887 79.165367 255 255 255
-831.19769 -489.88034 -2.7880838 255 255 255
1237.6674 914.00513 2.535068 255 255 255
-4253.709 -1519.9591 -6.7052355 255 255 255
-129.68755 -73.463898 -1.1871492 255 255 255
361.66022 202.89717 0.46640575 255 255 255
389.35995 573.25818 0.54029095 255 255 255
926.90778 1539.9586 3.3796837 255 255 255
5916.9238 1164.8539 6.5556979 255 255 255
-49.086246 -62.512299 -1.2826414 255 255 255
489.83401 480.69855 1.2910165 255 255 255
481.33252 627.69879 0.66539234 255 255 255
361.85046 508.89224 1.3334183 255 255 255
617.2323 780.8642 0.8392545 255 255 255
-612.13873 -600.7179 -2.5354185 255 255 255
147.39052 282.28436 0.72151554 255 255 255
-155.75557 -174.43214 -1.5482888 255 255 255
1372.4009 8732.5479 15.220576 255 255 255
-864.46686 -5491.9219 -10.044511 255 255 255
18135.979 16905.48 46.509464 255 255 255
422.17053 1040.1499 1.7375982 255 255 255
6140.2788 1994.8536 6.3719573 255 255 255
-1276.3234 -914.75177 -4.3317933 255 255 255
1478.459 1580.2834 2.5668302 255 255 255
457.29541 671.33673 1.615875 255 255 255
829.14215 551.69757 2.042948 255 255 255
-219.68483 -84.121956 -1.2818581 255 255 255
-152.05278 -44.496822 -1.1715477 255 255 255
-332.31375 -136.95097 -2.0944152 255 255 255
-58.442162 -109.07612 -1.2605263 255 255 255
1638.2612 791.44617 2.6945534 255 255 255
137.20171 468.62314 0.90035844 255 255 255
1053.0013 1195.2952 2.1850297 255 255 255
-92926.617 -205694.95 -546.94507 255 255 255
953.17157 799.36151 1.7196928 255 255 255
9099.3848 2704.5408 9.4275036 255 255 255
1331.7471 621.49481 4.407454 255 255 255
-61.132702 -60.387146 -1.1370314 255 255 255
-239.10942 -54.721409 -1.281925 255 255 255
-1168.8346 -922.28918 -3.1395447 255 255 255
7837.9238 2796.0544 7.8857021 255 255 255
1244.0917 1273.371 2.0683615 255 255 255
37196.172 22802.246 38.943897 255 255 255
4978.1143 3259.7788 7.9999537 255 255 255
-79.695618 -54.655674 -1.3018849 255 255 255
1069.5754 1185.311 2.4392145 255 255 255
629.12573 951.68622 1.6796876 255 255 255
818.12427 727.63568 1.0996685 255 255 255
640.24713 461.99759 1.5979573 255 255 255
1779.2788 1100.8917 3.2259417 255 255 255
93.443306 696.30872 1.214818 255 255 255
216.48471 363.92435 0.89838022 255 255 255
-108.35381 -70.262474 -1.3869637 255 255 255
-217.18048 -141.57137 -1.8495641 255 255 255
415.94095 424.00433 0.90561479 255 255 255
7763.9678 2649.6687 8.1058187 255 255 255
-2485.3081 -2806.8994 -8.0746222 255 255 255
169.84756 460.14188 0.75459069 255 255 255
3706.325 2187.3806 4.4802508 255 255 255
-467.46426 -193.17178 -2.7877343 255 255 255
608.59424 382.65506 0.98905748 255 255 255
-862.23425 -858.12463 -2.2463267 255 255 255
-509.19846 -211.16431 -2.7163231 255 255 255
-200.42371 -166.93715 -1.6131457 255 255 255
-1571.9453 -2068.0911 -4.8463368 255 255 255
685.62518 548.46204 0.89207619 255 255 255
659.91052 3227.2085 5.7375522 255 255 255
3648.7192 2178.8689 4.4331632 255 255 255
-940.91998 -439.7821 -2.1006997 255 255 255
1036.3906 1245.8795 2.1641371 255 255 255
-247.59593 -1762.7861 -4.9620976 255 255 255
66.487343 142.78561 0.41974679 255 255 255
-733.81689 -590.9809 -2.5146039 255 255 255
-2005.6755 -2564.5952 -6.196588 255 255 255
790.20697 795.06958 1.0877346 255 255 255
2726.7717 3065.9004 5.6193194 255 255 255
751.14203 780.67157 1.8154209 255 255 255
-2144.8843 -325.63458 -3.5462499 255 255 255
4054.4451 1794.2064 13.43151 255 255 255
668.77045 593.1026 0.81456923 255 255 255
2437.293 2107.0325 4.1322441 255 255 255
488.50327 660.98151 2.1835351 255 255 255
-193.38962 -212.56569 -1.5368401 255 255 255
-715.35645 -983.96429 -2.9326513 255 255 255
281.99463 780.6781 1.2834371 255 255 255
576.28687 1836.3894 3.2321017 255 255 255
7734.2651 3114.5347 9.9006987 255 255 255
33444.336 24149.059 47.618382 255 255 255
734.11469 747.84381 0.90948886 255 255 255
375.94168 345.5752 0.4688201 255 255 255
10879.069 5854.6465 18.104376 255 255 255
3245.2664 2177.6382 3.9973428 255 255 255
8832.9062 3989.0161 9.6440182 255 255 255
1213.6288 3932.9126 8.9998188 255 255 255
3374.5334 2197.9883 4.1190586 255 255 255
2376.9619 5198.0498 11.436745 255 255 255
500.54688 1084.2582 1.6080426 255 255 255
1288.9303 1929.7499 4.6959352 255 255 255
3760.6917 2215.0398 4.5089021 255 255 255
778.4339 1319.6359 1.9157795 255 255 255
364.02124 1723.1453 3.1368911 255 255 255
134.64507 255.6393 0.67445189 255 255 255
777.1651 732.00262 0.93116879 255 255 255
2400.1755 697.81934 2.9779823 255 255 255
-18.723089 -86.565239 -1.2789079 255 255 255
2025.308 8092.4639 16.077312 255 255 255
465.02631 707.21844 1.418906 255 255 255
1499.5835 1518.9604 2.6026318 255 255 255
1055.1207 1166.7787 2.1852248 255 255 255
3857.4238 1463.0569 5.8717685 255 255 255
6036.0801 2715.2153 6.172555 255 255 255
920.47363 626.62299 2.8937712 255 255 255
239.89153 605.31744 1.0659606 255 255 255
-146.89223 -184.66536 -1.5245715 255 255 255
2237.8716 1790.368 3.2601309 255 255 255
-410.60901 -417.43539 -1.5576048 255 255 255
4125.7881 2763.6162 4.3277445 255 255 255
4539.8115 1827.0446 6.0701566 255 255 255
238.2802 492.59662 0.74387527 255 255 255
8335.2314 2674.8369 8.679245 255 255 255
798.88403 1003.4877 1.8939521 255 255 255
811.5946 1090.4823 1.2212284 255 255 255
6281.499 3137.0227 8.7398844 255 255 255
3373.063 2409.8567 3.9326186 255 255 255
569.31476 700.30219 0.73736382 255 255 255
1469.7987 1577.3762 2.5564783 255 255 255
811.14581 527.05139 1.1874714 255 255 255
4004.825 1868.3022 5.2817106 255 255 255
589.53406 1125.4526 2.5320313 255 255 255
-260.55148 -283.42371 -1.721338 255 255 255
-2311.2073 -2551.3699 -5.8716888 255 255 255
-274.16336 -167.0072 -1.7381592 255 255 255
430.74481 577.35828 1.2480158 255 255 255
7495.3823 2843.5652 7.4366274 255 255 255
2373.5037 1840.7115 3.3668892 255 255 255
2018.2122 2127.1389 2.9697421 255 255 255
25215.463 13009.565 33.787739 255 255 255
3539.887 2111.47 4.3858256 255 255 255
-23983.672 -7130.5854 -76.066154 255 255 255
2416.0063 1726.6399 3.5051594 255 255 255
-730.61676 -790.07507 -3.2839205 255 255 255
2644.8892 1413.1508 4.1450043 255 255 255
2832.4385 1879.9417 3.848201 255 255 255
70.505936 142.3325 0.42435014 255 255 255
1626.2504 1675.8221 2.6803379 255 255 255
-88.112793 -167.67171 -1.3147097 255 255 255
-84.881271 -80.473694 -1.352558 255 255 255
4552.9097 14037.522 27.748409 255 255 255
673.66022 416.68488 0.78881639 255 255 255
344.71497 925.23071 1.9497421 255 255 255
154.75653 259.40256 0.65349841 255 255 255
11795.025 2477.2881 13.547782 255 255 255
2257.0977 1135.8519 7.4151025 255 255 255
626.53259 747.88007 1.6347611 255 255 255
566.75879 718.25482 1.5550126 255 255 255
350.07892 231.79886 0.43687692 255 255 255
383.87616 382.70325 0.41929328 255 255 255
6038.8755 2758.2363 6.1226354 255 255 255
2733.8479 880.65228 9.1919355 255 255 255
246.26248 439.55676 0.71102053 255 255 255
263.85742 181.80815 0.31162548 255 255 255
631.29218 389.87506 0.82358468 255 255 255
2199.0894 1922.7026 3.1379821 255 255 255
1528.1401 1372.7146 2.6938031 255 255 255
1988.7806 1739.9552 4.0438194 255 255 255
1131.6292 1016.8158 2.3224001 255 255 255
1387.8788 2559.8589 5.2737961 255 255 255
-59.525024 -79.327293 -1.1866663 255 255 255
1030.9449 1270.7413 2.1541209 255 255 255
1395.7269 3897.801 8.151948 255 255 255
8028.7056 2601.8296 8.4908981 255 255 255
3106.5928 3235.3345 5.9543567 255 255 255
2489.1826 7083.1255 14.569725 255 255 255
-4710.8994 -6169.0566 -20.593073 255 255 255
322.5163 434.02176 2.1515191 255 255 255
-328.88736 -338.60834 -1.7061063 255 255 255
876.60822 1207.1598 1.2369902 255 255 255
536.20343 322.33392 1.7562672 255 255 255
1498.6005 1594.0823 2.5784075 255 255 255
-1681.0543 -1195.7151 -3.4330926 255 255 255
2461.6235 2027.6646 3.3341806 255 255 255
-205.06958 -256.39011 -1.6639142 255 255 255
4511.8789 3885.4001 8.1689997 255 255 255
-110.9527 -66.283173 -1.1594608 255 255 255
1419.6833 2474.8696 7.3810811 255 255 255
583.35626 600.6665 1.3309108 255 255 255
379.16522 424.47592 0.92249161 255 255 255
1568.3776 1394.2605 2.732271 255 255 255
2229.8396 1725.3813 2.5368567 255 255 255
2508.3572 2044.7245 3.3688593 255 255 255
1496.3632 1531.0461 2.5962572 255 255 255
471.37845 205.67766 0.54905647 255 255 255
648.16998 463.37305 1.6259129 255 255 255
-1732.1182 -1901.4991 -9.30023 255 255 255
471.16165 1048.5807 1.5698255 255 255 255
-111.9454 -89.50032 -1.2817959 255 255 255
1120.5686 1060.717 2.2950618 255 255 255
2420.8059 1881.1909 3.3866649 255 255 255
4152.3794 3300.2764 5.9172778 255 255 255
588.43774 659.05951 1.3463202 255 255 255
2734.6343 2128.3352 3.5276372 255 255 255
-25290.17 -6051.0347 -31.277254 255 255 255
1216.1229 772.7926 3.9362533 255 255 255
4143.1509 2792.3696 4.3218246 255 255 255
8059.4087 2553.9983 8.6636209 255 255 255
392.9989 463.69772 0.83957428 255 255 255
5347.6787 2468.207 5.8427582 255 255 255
-2206.2825 -4773.5737 -8.7464743 255 255 255
593.61267 389.66647 0.69479764 255 255 255
6039.2397 18727.061 39.872368 255 255 255
158.08369 207.76537 0.6124953 255 255 255
817.73425 872.4386 0.98052961 255 255 255
3625.9773 2247.3918 4.3322082 255 255 255
358.44232 394.97223 0.74583286 255 255 255
-4039.0496 -4839.7251 -12.448691 255 255 255
544.49493 657.2226 1.5159264 255 255 255
-352.23553 -203.25417 -1.9270046 255 255 255
217.29861 370.20724 0.90533084 255 255 255
-3491.9697 -6609.2847 -17.176392 255 255 255
-124.25854 -142.03114 -1.4195234 255 255 255
558.64948 2307.7681 3.1882229 255 255 255
1312.2413 767.82166 1.5839157 255 255 255
1598.9727 1692.6245 2.8336163 255 255 255
2494.6216 2091.5789 3.3302877 255 255 255
49.755554 604.53369 1.0091221 255 255 255
598.1308 351.7692 1.4163885 255 255 255
3315.1057 2178.1257 4.0761638 255 255 255
422.92694 614.23969 1.32496 255 255 255
-3542.762 -6779.291 -9.8487329 255 255 255
412.18335 572.60461 1.3361914 255 255 255
-533.19189 -822.46057 -2.2443249 255 255 255
698.10754 433.42831 0.79609072 255 255 255
714.6806 770.79919 1.7577977 255 255 255
-189.87665 -67.098618 -1.2261802 255 255 255
