ply
format ascii 1.0
comment PCL generated
element vertex 1119
property float x
property float y
property float z
property uchar red
property uchar green
property uchar blue
element face 0
element camera 0
property float view_px
property float view_py
property float view_pz
property float x_axisx
property float x_axisy
property float x_axisz
property float y_axisx
property float y_axisy
property float y_axisz
property float z_axisx
property float z_axisy
property float z_axisz
property float focal
property float scalex
property float scaley
property float centerx
property float centery
property int viewportx
property int viewporty
property float k1
property float k2
end_header
-50903.164 -99742.062 -397.79086 255 255 255
-663.79004 -746.83612 -2.1652985 255 255 255
1343.2601 1324.0417 2.9874563 255 255 255
737.2594 539.76782 1.9110519 255 255 255
698.59674 429.30118 1.5605459 255 255 255
1756.2859 967.77765 3.0514503 255 255 255
569.80908 191.62651 1.145007 255 255 255
1375.8943 2741.189 4.5387573 255 255 255
554.8205 483.40292 1.3938458 255 255 255
6587.73 6968.5986 30.349249 255 255 255
415.60593 522.14362 1.7643317 255 255 255
673.80621 892.54712 1.4034165 255 255 255
1401.2316 1277.561 5.2945876 255 255 255
3012.71 881.4389 5.0113082 255 255 255
643.77881 460.10056 1.5376917 255 255 255
904.33478 726.51807 1.9250185 255 255 255
478.4111 384.36801 1.2492317 255 255 255
1055.8597 1103.1836 2.343348 255 255 255
-2338.4199 -1336.5789 -3.7934678 255 255 255
513.83325 1192.7207 1.7310084 255 255 255
84.308556 349.67422 0.72746223 255 255 255
427.82983 414.78809 1.1504657 255 255 255
419.448 533.15955 1.4925354 255 255 255
793.14264 950.70612 1.8319788 255 255 255
90.987022 131.68414 0.3092373 255 255 255
884.34875 830.26257 2.8464153 255 255 255
474.61444 481.13699 1.3056684 255 255 255
317.48505 269.76144 0.95175451 255 255 255
216.1879 177.0916 0.56988674 255 255 255
18927.674 3026.3406 22.920763 255 255 255
593.37579 442.15442 1.4372747 255 255 255
1012.2924 525.03461 2.1605816 255 255 255
-553.78131 -375.97943 -1.7367513 255 255 255
130.70848 645.91742 1.0984731 255 255 255
499.79437 1230.0479 1.7446645 255 255 255
1709.2509 775.46234 3.490855 255 255 255
3642.6716 1162.8677 6.1298394 255 255 255
2675.9297 2494.9194 8.3437138 255 255 255
-842.6958 -890.32574 -4.0438137 255 255 255
233.57109 461.24393 0.96559334 255 255 255
1012.3615 593.56396 2.1916845 255 255 255
601.23669 460.7471 1.3541914 255 255 255
509.74966 1192.0316 1.7269336 255 255 255
677.95966 646.6485 2.2238703 255 255 255
727.67346 973.07397 1.7767677 255 255 255
4285.7671 25180.037 61.660084 255 255 255
3217.3694 1309.5378 4.7000818 255 255 255
1860.5856 3223.6448 6.5789199 255 255 255
-149.96042 -132.5123 -1.1763401 255 255 255
109.51027 221.99973 0.55946147 255 255 255
3397.8201 1301.2412 4.9417005 255 255 255
2175.6868 1300.4344 3.4147213 255 255 255
-1760.0394 -4037.085 -6.7631454 255 255 255
13398.595 11281.959 50.158897 255 255 255
430.00787 529.66504 0.57787865 255 255 255
1038.795 1434.4995 3.4766765 255 255 255
638.12103 705.32275 1.5477086 255 255 255
641.94006 674.229 2.4991329 255 255 255
568.37341 368.30035 1.4108444 255 255 255
420.311 299.56305 1.4577039 255 255 255
374.55481 272.73239 1.0509983 255 255 255
4993.6616 1143.0332 7.3178358 255 255 255
483.49323 535.53387 1.3067083 255 255 255
130.09567 846.5755 1.1970962 255 255 255
359.28769 413.77545 1.4422684 255 255 255
843.77631 956.24646 1.8918178 255 255 255
381.80887 370.44421 0.9311133 255 255 255
1364.6089 563.34552 2.7607992 255 255 255
195.51538 293.53036 0.74520892 255 255 255
3274.8225 1208.0785 4.889431 255 255 255
6091.8091 5226.9248 26.887716 255 255 255
-1132.3567 -1469.8148 -2.6018 255 255 255
-97.649254 -726.51825 -2.7118585 255 255 255
424.1109 575.06921 1.5584928 255 255 255
1124.7825 613.64508 3.0132284 255 255 255
149.07845 388.5885 0.81738347 255 255 255
86.050499 501.48233 0.92301106 255 255 255
5424.8345 5198.1465 20.466585 255 255 255
2440.9087 1724.3009 3.5338428 255 255 255
2155.6348 2489.1152 5.2351789 255 255 255
827.34625 955.97461 1.8724562 255 255 255
3188.9443 1320.668 4.655005 255 255 255
61.201283 49.733124 0.15913996 255 255 255
577.33435 1057.3951 1.6891786 255 255 255
805.14429 407.34579 1.8538388 255 255 255
1844.8795 1462.1399 5.3497534 255 255 255
2008.8442 1202.075 3.262893 255 255 255
389.42789 521.39526 1.178311 255 255 255
363.15222 666.09656 1.2270991 255 255 255
1645.6389 1353.9078 2.7889469 255 255 255
4425.8359 2364.8789 5.1028843 255 255 255
165.82701 214.44417 0.61318713 255 255 255
2788.4678 927.54816 4.5959644 255 255 255
1298.7526 1196.853 3.923357 255 255 255
4057.7139 976.43738 6.3766418 255 255 255
5004.1255 1353.9298 6.902761 255 255 255
274.95007 404.08182 1.0567713 255 255 255
-742.01221 -1068.0494 -2.7394345 255 255 255
2256124.8 2787872.5 6356.541 255 255 255
3328.761 1296.8096 4.8563213 255 255 255
6238.7095 11695.636 25.234179 255 255 255
7902.2974 2658.2146 7.8520861 255 255 255
-768.09357 -600.12817 -2.9781144 255 255 255
3236.637 1311.7961 4.7241197 255 255 255
3013.5085 1137.5818 4.6287699 255 255 255
545.59021 585.06506 1.610525 255 255 255
217.30516 212.72119 0.36911356 255 255 255
-858.2171 -848.31683 -2.2326994 255 255 255
161.99066 246.82777 0.46700493 255 255 255
-5798.1895 -2921.2327 -17.792356 255 255 255
723.61963 2297.0149 3.8266211 255 255 255
3002.0259 1286.7307 4.4510365 255 255 255
2184.5957 1515.8326 4.5701256 255 255 255
356.77582 908.47034 1.4320654 255 255 255
32983.832 36013.691 77.016556 255 255 255
51.111317 383.9209 0.76513946 255 255 255
265.63654 661.91937 1.1395993 255 255 255
-85.909767 -472.59097 -2.0039225 255 255 255
-1260.5826 -1082.4849 -2.9780953 255 255 255
1823.4406 3114.1736 5.3329487 255 255 255
-194.56822 -332.55023 -1.5109065 255 255 255
1451.7308 712.75079 2.7614584 255 255 255
-1023.0933 -659.83539 -2.2223072 255 255 255
1290.2422 961.42468 2.4247565 255 255 255
2653.5845 2754.7349 10.071633 255 255 255
228.85951 327.02188 0.90508974 255 255 255
3380.9866 1296.3334 4.9278121 255 255 255
100.14002 502.35684 0.86949182 255 255 255
3238.106 1257.4685 4.7883472 255 255 255
506.20566 1205.8385 1.7333064 255 255 255
3913.0159 1417.5956 5.4374738 255 255 255
273.32047 2273.3071 3.5880125 255 255 255
2532.0623 3489.4592 10.35619 255 255 255
97.593163 87.765327 0.37507463 255 255 255
257.63806 551.65533 1.070515 255 255 255
887.49548 664.74921 1.958019 255 255 255
221.3772 261.9512 0.4336732 255 255 255
2766.5901 929.9162 4.5560837 255 255 255
280.04974 547.36102 1.4476999 255 255 255
3090.0474 1215.8035 4.6398315 255 255 255
4125.873 1278.6348 5.901701 255 255 255
3378.5801 1076.9663 5.2193689 255 255 255
-718.53119 -490.52344 -1.8686217 255 255 255
-700.26721 -647.21643 -2.1340277 255 255 255
-488.53693 -382.75204 -1.9523594 255 255 255
167.94228 495.26175 0.91363692 255 255 255
-801.00629 -607.36792 -1.9571621 255 255 255
526.10339 386.41736 1.6508627 255 255 255
495.46051 381.68488 1.2780305 255 255 255
1055.8802 1879.8129 3.2084076 255 255 255
1489.4467 739.83966 2.8002353 255 255 255
-672.39929 -2711.6809 -7.4321685 255 255 255
2791.041 1126.8217 4.3442025 255 255 255
10216.156 11391.419 18.593964 255 255 255
110.71847 115.60608 0.29251748 255 255 255
-5296.9136 -6207.2935 -21.814056 255 255 255
2599.5842 1371.8979 3.8812282 255 255 255
-3695.4177 -8064.7852 -16.215206 255 255 255
-985.23364 -1502.5796 -3.0224321 255 255 255
272.8541 266.01663 0.61006904 255 255 255
3160.1184 908.67676 5.1763148 255 255 255
-20556.826 -19367.072 -89.261581 255 255 255
-2915.1277 -1612.0215 -4.932301 255 255 255
2655.0833 1138.881 4.1489716 255 255 255
4452.8149 2022.541 5.3965068 255 255 255
591.10388 503.17612 1.4533241 255 255 255
892.90503 949.1759 1.9423947 255 255 255
471.17102 418.09555 1.2385291 255 255 255
-754.53851 -563.86639 -2.4965527 255 255 255
2975.1067 2475.1365 9.653904 255 255 255
9460.7715 9400.9629 28.585745 255 255 255
-2435.9673 -1284.4432 -6.081326 255 255 255
718.31311 698.26349 2.5399637 255 255 255
251.91805 436.43137 0.85667259 255 255 255
2889.4556 1252.7316 4.3428683 255 255 255
2916.3438 1261.0797 4.3738055 255 255 255
692.98041 438.62296 1.5170885 255 255 255
63.355423 159.06012 0.41796979 255 255 255
1312.501 1047.5941 2.4444685 255 255 255
1923.8716 814.57703 2.8794622 255 255 255
693.64282 973.71777 1.7414837 255 255 255
1371.0355 287.25851 1.6850905 255 255 255
1690.0962 720.35895 3.1378198 255 255 255
-2416.4526 -1262.8971 -3.7119856 255 255 255
3029.1025 1296.2731 4.481154 255 255 255
3415.3892 2374.3206 9.1002493 255 255 255
144.42656 221.6227 0.4407573 255 255 255
1134.8101 1168.1819 3.4935164 255 255 255
5011.1587 2156.9172 12.548457 255 255 255
-1312.6021 -3011.5476 -7.5366426 255 255 255
-331.97153 -1110.1458 -3.3195548 255 255 255
7626.3696 15457.777 31.182919 255 255 255
3415.6865 911.72174 5.5494804 255 255 255
193.18851 294.48175 0.74359673 255 255 255
213.39647 347.97589 0.83238763 255 255 255
-14102.318 -11849.822 -38.67794 255 255 255
-30460.123 -12053.854 -65.414719 255 255 255
-5129.1875 -3723.752 -19.68569 255 255 255
305.39111 1467.4707 2.5010252 255 255 255
-542.30487 -2396.8674 -6.6483831 255 255 255
2404.1296 4114.3398 15.891731 255 255 255
2550.6753 982.03381 3.7402561 255 255 255
1379.0629 1294.6471 2.5091484 255 255 255
1467.6743 969.94067 2.6571934 255 255 255
586.02368 469.65561 1.4349095 255 255 255
2323.155 1333.8428 3.5786943 255 255 255
3546.1621 10891.962 21.173147 255 255 255
2179.094 1297.6458 3.4236331 255 255 255
4105.2852 1284.1846 5.8697653 255 255 255
5047.439 2608.9734 5.902288 255 255 255
464.67642 709.38928 1.8837149 255 255 255
408.71304 767.85254 1.4827757 255 255 255
-3098.8013 -5048.4858 -9.6883993 255 255 255
890.56238 507.5907 1.7860614 255 255 255
2143.0762 1804.8055 3.2144837 255 255 255
1374.4596 1287.2825 2.5039837 255 255 255
869.57159 661.74487 2.7448752 255 255 255
419.67239 314.33463 1.1230313 255 255 255
2157.7729 1258.9897 3.4158256 255 255 255
1346.8212 1637.0269 2.8292706 255 255 255
3015.4348 1006.8278 4.8156519 255 255 255
59.482319 527.14728 0.94839495 255 255 255
351.05981 521.40674 1.1336031 255 255 255
242.3078 99.096321 0.38374719 255 255 255
3346.4919 1133.8708 5.0877767 255 255 255
646.44946 870.81049 2.518203 255 255 255
385.16895 369.99594 0.93209088 255 255 255
5121.1289 1059.4886 7.1251483 255 255 255
861.16974 1946.6919 3.5990939 255 255 255
4868.4116 2012.0798 5.8305759 255 255 255
1490.6622 3344.9329 6.5849504 255 255 255
151.87434 204.54318 0.62302053 255 255 255
5635.7725 1531.5726 7.349648 255 255 255
-4916.5703 -7071.6382 -24.129282 255 255 255
3271.6812 1246.291 4.8626451 255 255 255
534.09949 461.45789 1.3971119 255 255 255
503.44415 1243.7184 3.0102212 255 255 255
79.665703 782.84802 1.2308391 255 255 255
78.571762 202.08817 0.50579327 255 255 255
221.72556 500.76981 0.99429166 255 255 255
-1328.0499 -804.74408 -2.457823 255 255 255
3020.1213 14740.073 36.070919 255 255 255
128.7101 87.666565 0.60043484 255 255 255
3224.1033 863.18665 4.0301719 255 255 255
-848.85315 -1355.0364 -6.263227 255 255 255
1720.9229 3322.5269 4.964716 255 255 255
8701.0215 2133.49 9.3577747 255 255 255
-945.96228 -1340.2026 -2.403044 255 255 255
1140.323 1009.4272 2.2399869 255 255 255
6142.9233 2518.79 6.5133743 255 255 255
599.98242 879.74841 1.3641837 255 255 255
1016.1179 871.75739 2.4939504 255 255 255
181.99408 310.7366 0.52337152 255 255 255
493.30374 383.18576 1.2741555 255 255 255
-5768.9814 -3696.8931 -9.4385233 255 255 255
101.90512 314.3147 0.6820724 255 255 255
-418.94427 -1148.7533 -3.3673723 255 255 255
499.36716 178.5872 1.0079062 255 255 255
1036.8235 505.78909 2.2172344 255 255 255
397.04138 215.35387 0.66962773 255 255 255
801.70465 404.12653 1.8480425 255 255 255
-427.3158 -817.33636 -4.4326668 255 255 255
805.13373 407.01053 1.8534425 255 255 255
1676.8645 1097.4338 2.9394073 255 255 255
-1594.7166 -1395.416 -6.6091852 255 255 255
68.197334 180.6062 0.46002164 255 255 255
-2306.3557 -1329.7164 -3.7614186 255 255 255
50306.328 62274.93 222.88022 255 255 255
-541.15851 -79.44548 -1.6349525 255 255 255
602.30695 629.76257 1.1719543 255 255 255
-6650.9351 -8442.0186 -16.240992 255 255 255
-567.901 -1614.8895 -3.984992 255 255 255
265.71317 610.112 1.1285173 255 255 255
551.25677 341.71478 1.3899754 255 255 255
648.0213 615.83466 1.6969984 255 255 255
151.48318 287.03543 0.69289142 255 255 255
346.7952 220.61803 0.45841765 255 255 255
98.476486 84.828621 0.28988469 255 255 255
36108.48 7251.7505 44.66605 255 255 255
-224.83452 -390.85239 -1.6005723 255 255 255
741.13452 626.42175 1.508032 255 255 255
477.89328 504.349 1.2850149 255 255 255
308.21814 401.27908 0.9956491 255 255 255
265.74771 606.45105 1.1253239 255 255 255
256.59079 456.91122 0.98205477 255 255 255
511.15298 1172.4396 1.7138612 255 255 255
820.26727 403.21735 1.8877219 255 255 255
135.80577 203.28058 0.57259738 255 255 255
399.4982 278.94604 1.0876708 255 255 255
767.95648 2124.5664 5.1430321 255 255 255
-22931.113 -9158.6572 -41.034752 255 255 255
268.94885 381.36038 1.4577732 255 255 255
1061.106 612.58533 2.1965687 255 255 255
-1396.5083 -2468.9417 -6.7041445 255 255 255
6248.98 2047.9456 7.1874762 255 255 255
889.11188 943.21478 1.9348032 255 255 255
602.2583 416.96918 0.76962411 255 255 255
598.00195 410.76169 0.76114053 255 255 255
223.83708 452.36832 0.76331854 255 255 255
-326.23956 -1018.293 -3.1797063 255 255 255
987.77271 1032.286 1.7071173 255 255 255
5993.2402 2487.083 6.4064646 255 255 255
482.78903 375.94263 1.2539365 255 255 255
-338.51898 -335.96692 -1.4314944 255 255 255
192.83363 125.61684 0.25430882 255 255 255
310.32233 400.66281 0.99758494 255 255 255
44.194931 448.76016 0.84961456 255 255 255
224.99023 316.70367 0.8049655 255 255 255
172.37357 881.44287 1.4283822 255 255 255
3388.3188 1235.0316 5.0129614 255 255 255
3311.1494 1894.5264 4.3301806 255 255 255
2317.5515 966.84845 3.8500967 255 255 255
-1987.076 -3559.4504 -14.176106 255 255 255
1553.6011 2091.3091 3.8452864 255 255 255
495.06552 534.81836 1.3215789 255 255 255
109.50145 205.96002 0.53870922 255 255 255
778.97614 870.72003 2.7046368 255 255 255
1752.1429 758.91986 5.0033283 255 255 255
2004.2858 2631.9277 10.312927 255 255 255
439.71909 356.13397 1.1779773 255 255 255
9713.0889 2100.6626 15.654051 255 255 255
813.93054 1680.9357 2.4691374 255 255 255
-432.18478 -1238.1653 -3.9642863 255 255 255
518.4743 576.10504 1.4091969 255 255 255
1426.1687 1381.0686 4.2742224 255 255 255
39.704327 57.666191 0.13309771 255 255 255
-398.49689 -1384.9404 -4.296545 255 255 255
1520.8745 1104.2974 2.6894507 255 255 255
-667.07819 -677.91852 -3.65083 255 255 255
1897.1055 808.59778 2.8776801 255 255 255
-3569.2703 -4604.3237 -18.02224 255 255 255
2084.4951 1591.9688 3.2078753 255 255 255
3745.4514 732.4231 4.623714 255 255 255
4686.2856 1374.2394 6.4514027 255 255 255
-13088.188 -6356.6611 -29.367237 255 255 255
3652 1553.7925 4.9631758 255 255 255
93.522415 250.17381 0.82671994 255 255 255
50.929359 375.50809 0.75399643 255 255 255
79.312744 52.452168 0.19102983 255 255 255
-5382.6519 -9637.6094 -25.648394 255 255 255
66.800285 183.51132 0.46452904 255 255 255
252.05119 177.94138 0.49486363 255 255 255
1291.2201 567.95959 2.6212764 255 255 255
2850.0283 952.64929 4.6516948 255 255 255
57.960865 145.27765 0.45028552 255 255 255
95.860474 140.14906 0.41353738 255 255 255
3183.4395 1254.9031 4.7246709 255 255 255
3740.6147 963.10773 5.9291615 255 255 255
-712.88239 -1329.048 -3.1544611 255 255 255
320.28217 1083.7493 1.5512575 255 255 255
224.7988 579.11157 1.0733097 255 255 255
1661.7305 2205.7417 7.494103 255 255 255
182.50272 158.12042 0.58081812 255 255 255
8010.8315 1855.7965 9.2836275 255 255 255
1052.2368 581.83661 2.1971097 255 255 255
435.04929 323.43555 1.0114323 255 255 255
10013.146 2475.2168 9.8760481 255 255 255
-2716.093 -3295.8999 -12.515662 255 255 255
6289.0449 1306.5199 8.6163568 255 255 255
475.6604 491.38828 1.2824199 255 255 255
95.461388 152.50308 0.34715918 255 255 255
37009.07 7479.4961 45.775063 255 255 255
502.0928 1121.8966 1.6727422 255 255 255
2650.9768 1138.4878 4.1425204 255 255 255
4648.5938 1297.1166 6.5517888 255 255 255
88.304909 319.16071 0.68748981 255 255 255
958.95026 2324.7852 3.5886259 255 255 255
674.98486 1069.4459 3.5456951 255 255 255
962.03662 3115.9089 4.3873224 255 255 255
25.13373 199.87393 0.63710314 255 255 255
1757.5981 5801.6133 8.3684235 255 255 255
3220.4116 1311.5033 4.7038913 255 255 255
70.913345 522.80548 0.94571733 255 255 255
1376.2607 290.52798 1.6951058 255 255 255
2761.7302 927.38007 4.5466714 255 255 255
1685.012 1722.9214 6.7542214 255 255 255
-554.26379 -628.35474 -1.9233345 255 255 255
210221.69 43460.074 300.41879 255 255 255
582.74078 426.72626 1.2992228 255 255 255
868.24951 943.06262 1.9106779 255 255 255
4076.1814 1136.6298 6.7665915 255 255 255
2357.2632 3334.009 7.845099 255 255 255
229.15729 220.0101 0.96391815 255 255 255
3113.3132 890.76508 5.1404243 255 255 255
2178.7361 1297.7805 3.4233599 255 255 255
317.54807 918.77869 3.3121154 255 255 255
3024.8694 1292.7944 4.4741855 255 255 255
1058.0304 946.70288 2.1341386 255 255 255
879.35443 491.55084 2.0090764 255 255 255
3831.8025 941.60364 6.1161866 255 255 255
4181.6704 1219.5786 6.0771403 255 255 255
5568.1387 1524.4608 7.2584801 255 255 255
5001.1509 3319.0032 6.4488678 255 255 255
904.42883 726.12042 1.9253505 255 255 255
3277.0493 1308.9574 4.783711 255 255 255
3439.8687 1323.6461 4.9665451 255 255 255
724.77771 970.62848 1.7715946 255 255 255
8144.2476 2579.6775 8.1768131 255 255 255
4995.3491 1428.9294 6.7575116 255 255 255
6018.0737 2486.9827 6.4321523 255 255 255
343.91504 944.33594 1.452994 255 255 255
3335.4954 1224.6697 4.9571667 255 255 255
2105.7312 888.73291 3.3016038 255 255 255
1415.2401 1072.7487 2.5647917 255 255 255
2606.135 1375.4918 3.8913512 255 255 255
830.12921 367.02255 0.94835365 255 255 255
1723.1455 3324.5107 4.965364 255 255 255
-974.2832 -1168.3887 -4.9297194 255 255 255
166.75003 304.33078 1.17532 255 255 255
527.07544 648.00732 1.5717889 255 255 255
313.86716 400.68082 0.8509534 255 255 255
879.12042 453.00919 1.9644847 255 255 255
557.44647 342.70532 1.3081971 255 255 255
1416.8516 1920.2225 4.2579765 255 255 255
1194.3802 448.46085 2.5777462 255 255 255
170.51344 118.5482 0.34651864 255 255 255
4860.7344 2007.5906 5.8188944 255 255 255
51.120247 606.21014 1.0405258 255 255 255
456.62607 659.69342 1.7997097 255 255 255
196.11237 294.11646 0.74695975 255 255 255
4890.855 2013.134 5.846972 255 255 255
3306.9783 1295.4989 4.8305173 255 255 255
72.829597 85.452057 0.34148821 255 255 255
2455.3252 1380.3787 3.7011518 255 255 255
1403.7791 589.5719 2.7997661 255 255 255
2093.5061 1611.2067 3.2116992 255 255 255
4807.8896 2574.0234 5.3142939 255 255 255
574.28333 274.13071 0.67781073 255 255 255
-1029.3962 -844.53986 -2.6237147 255 255 255
788.61035 1416.2557 2.0245688 255 255 255
252.79163 458.5054 0.97969848 255 255 255
48.875664 54.894688 0.1294499 255 255 255
553.05005 482.42047 1.3904561 255 255 255
10375.921 1994.5862 11.204634 255 255 255
-177.82655 -585.61987 -2.1893697 255 255 255
93.805428 208.9435 0.52785563 255 255 255
2319.1875 1330.6482 3.5716763 255 255 255
644.04303 278.73203 0.73627424 255 255 255
-2478.5803 -2274.272 -10.423709 255 255 255
851.21783 500.27005 1.88851 255 255 255
2587.0681 1109.8564 4.0837584 255 255 255
704.01379 969.1825 1.7484407 255 255 255
102.32996 132.01303 0.30059355 255 255 255
1880.4355 840.02979 2.8121085 255 255 255
281.83252 503.9003 1.0496691 255 255 255
1058.4791 988.03992 2.1390953 255 255 255
-131.24164 -136.86137 -1.2483985 255 255 255
473.09836 1336.0104 2.6277139 255 255 255
-860.55408 -684.52417 -2.0615032 255 255 255
-469.85663 -526.26538 -1.9036269 255 255 255
6301.1958 6331.4863 25.171911 255 255 255
-224393.27 -113495.57 -242.52733 255 255 255
494.29324 1238.2623 1.7478865 255 255 255
53.422024 67.204109 0.23059611 255 255 255
255.36513 181.62183 0.72378314 255 255 255
10661.388 1933.9176 11.629604 255 255 255
919.84845 520.34015 1.9972771 255 255 255
6797.6826 12987.12 24.96262 255 255 255
2437.2886 1716.9077 3.5301442 255 255 255
-1117.3456 -3863.0996 -9.2676878 255 255 255
974.00024 869.9718 2.0031695 255 255 255
416.04489 325.69379 1.0255642 255 255 255
4404.5635 1329.7201 6.1860251 255 255 255
901.58527 941.33392 1.9476664 255 255 255
1232.0195 958.38953 2.3519258 255 255 255
1030.6692 524.68793 2.3740134 255 255 255
3094.3633 891.73212 5.1143122 255 255 255
-3845.3054 -1867.8154 -9.3376017 255 255 255
-707.82697 -876.62292 -2.0181167 255 255 255
906.53705 515.9682 1.9757599 255 255 255
508.0303 1209.1196 1.7382355 255 255 255
535.31567 471.73953 1.3988785 255 255 255
5623.6738 1527.4669 7.3329887 255 255 255
433.03207 402.84061 1.4388264 255 255 255
-18690.061 -27152.312 -41.873451 255 255 255
4442.7153 1066.4277 6.7132573 255 255 255
2171.0166 1505.6605 3.3252137 255 255 255
5960.9546 1577.8599 7.6349754 255 255 255
70.31189 174.75513 0.4510051 255 255 255
99.036652 214.05112 0.54028666 255 255 255
191.19339 208.8298 0.68275809 255 255 255
2174.0747 1512.9009 3.3291037 255 255 255
63.365097 159.09763 0.41809902 255 255 255
198.69762 293.74976 0.74979848 255 255 255
516.63159 1282.7794 1.8375521 255 255 255
263.2095 227.75177 0.64574671 255 255 255
712.21973 968.32495 1.7571996 255 255 255
1036.4305 2386.7002 3.7605104 255 255 255
3084.3508 1265.5657 4.5765133 255 255 255
396.34283 833.16913 1.7380791 255 255 255
-1115.8649 -499.86279 -2.303623 255 255 255
1630.7412 1135.7437 2.8167615 255 255 255
2011.4536 1203.2297 3.2659476 255 255 255
70.904091 306.48352 0.66136426 255 255 255
844.7262 965.28809 1.9482328 255 255 255
391.30322 610.64691 1.4111463 255 255 255
2221.8162 1451.5387 6.0986319 255 255 255
157.35306 689.26837 1.3212048 255 255 255
79.192024 310.74625 0.67133951 255 255 255
3123.3589 1097.5002 4.8392224 255 255 255
6565.1514 1290.7792 8.9875965 255 255 255
333.58716 466.43985 1.0625672 255 255 255
642.34399 473.51871 1.5347414 255 255 255
19339.941 10895.94 59.923611 255 255 255
3396.9907 1301.0007 4.9414372 255 255 255
-2506.5364 -1697.4465 -9.6252737 255 255 255
3234.6179 1256.3872 4.7827725 255 255 255
554.75732 1075.1647 1.682362 255 255 255
755.46619 450.7916 0.92613614 255 255 255
2981.4985 881.34833 4.9574237 255 255 255
483.87759 373.19437 1.2569271 255 255 255
144.8427 87.520668 0.39860862 255 255 255
6042.0957 1224.5255 8.4488764 255 255 255
83.275177 350.06924 0.72969651 255 255 255
1670.3846 971.32111 2.9299951 255 255 255
201.64902 247.27444 0.64972526 255 255 255
2993.8376 876.87512 4.9802289 255 255 255
949.53485 731.42035 1.9886645 255 255 255
495.40814 381.67529 1.2779102 255 255 255
1541.8269 559.84741 3.0774317 255 255 255
-1508.8722 -1019.2374 -2.9051876 255 255 255
194.19397 309.00119 0.76405728 255 255 255
461.87354 564.37518 1.2956225 255 255 255
1888.5697 1291.9497 4.2713766 255 255 255
3632.7866 1431.5911 5.0802913 255 255 255
125.35069 133.73737 0.33060247 255 255 255
3663.7822 1129.1742 5.5309892 255 255 255
259.14432 190.46826 0.53669566 255 255 255
1866.4478 971.45624 3.2051787 255 255 255
-1417.1891 -1386.5933 -2.8109732 255 255 255
1280.9705 593.70972 1.8579485 255 255 255
4426.1138 2363.7466 5.1023688 255 255 255
222.64783 316.04944 0.89551914 255 255 255
696.88855 972.10059 1.7436601 255 255 255
-510.67673 -436.50699 -1.6173007 255 255 255
3592.6448 1451.9187 5.011785 255 255 255
-2400.3672 -2758.9822 -8.0935764 255 255 255
10671.129 26542.197 41.592762 255 255 255
-1365.3665 -919.20215 -2.5233436 255 255 255
113.3861 53.023434 0.36289111 255 255 255
3064.3853 902.58301 5.0511665 255 255 255
757.09674 1866.6748 2.8198798 255 255 255
780.96838 652.21808 1.742296 255 255 255
2083.7683 1615.1912 3.2010164 255 255 255
797.97321 979.13171 1.9068037 255 255 255
85.270157 69.781616 0.20842636 255 255 255
998.42261 875.43994 2.0333855 255 255 255
70.536003 160.2914 0.42725012 255 255 255
3148.8196 1329.8079 4.591516 255 255 255
2321.2395 1339.1027 3.5699942 255 255 255
5401.7266 1193.7698 7.7302904 255 255 255
3163.8845 1334.6415 4.6035485 255 255 255
2304.6116 6062.5283 12.05531 255 255 255
3270.0747 1206.1998 4.8815894 255 255 255
3853.6016 1231.5198 5.6270733 255 255 255
2315.4678 1340.4856 3.5595837 255 255 255
178.75044 153.37617 0.44363827 255 255 255
-857.46625 -680.3183 -2.7230942 255 255 255
-3879.0051 -22890.711 -46.989574 255 255 255
3976.6433 1184.0437 5.8627591 255 255 255
431.26001 484.41812 1.3199731 255 255 255
3329.2915 1296.108 4.8569684 255 255 255
1359.6501 3314.9575 5.17206 255 255 255
6978.395 1723.5778 8.5070953 255 255 255
3358.8843 1338.1007 6.6451144 255 255 255
257.55948 550.95154 1.0697073 255 255 255
187.24182 88.704788 0.20320456 255 255 255
582.95856 894.57471 1.3992226 255 255 255
159.90344 219.79474 0.72377515 255 255 255
-833.19708 -1010.9023 -2.8031311 255 255 255
2323.4988 976.69922 3.8481929 255 255 255
2346.5332 1089.337 3.7794757 255 255 255
4794.0708 2575.271 5.3026366 255 255 255
-852.5304 -590.948 -2.1453209 255 255 255
307.28659 568.60168 1.1269442 255 255 255
3346.0872 1133.3187 5.0875502 255 255 255
4206.9712 1032.4332 6.4546757 255 255 255
-261.39426 -1303.1924 -3.7751393 255 255 255
294.95547 300.01865 0.96851069 255 255 255
5453.4399 3092.0413 5.5639348 255 255 255
135.57489 142.11473 0.39161158 255 255 255
5557.4785 12001.272 36.765652 255 255 255
4997.5596 1144.5321 7.3229322 255 255 255
2785.1897 926.52069 4.5902157 255 255 255
1610.321 1888.5391 4.6690907 255 255 255
846.54785 470.55032 2.0745831 255 255 255
2175.5305 1301.2777 3.4149222 255 255 255
-739.38861 -493.89359 -2.0342717 255 255 255
6248.3892 1254.4398 8.6763506 255 255 255
244.17688 239.70341 0.61338663 255 255 255
174.68375 474.65656 0.93242943 255 255 255
-1715.2059 -1616.7566 -3.4536052 255 255 255
-522.19 -348.27908 -2.5808332 255 255 255
128.87709 76.774994 0.40881363 255 255 255
-236.64581 -761.30121 -2.8114498 255 255 255
961.19611 1185.4281 2.8823009 255 255 255
3425.2578 913.74493 5.5650344 255 255 255
3493.2568 892.79364 5.715744 255 255 255
87.760635 106.11344 0.2355601 255 255 255
2690.4939 1005.0039 4.3492422 255 255 255
258.29153 437.67892 1.1850497 255 255 255
1906.9087 1353.7908 4.1663971 255 255 255
-1949.1152 -1280.9625 -6.459785 255 255 255
3256.5457 1351.3673 4.7093582 255 255 255
-2459.8391 -1640.7076 -6.9324594 255 255 255
1058.3881 1254.7415 2.1833842 255 255 255
-1330.3481 -1581.5112 -3.7436695 255 255 255
1226.5011 1022.4041 2.3412981 255 255 255
1631.2161 1131.9949 2.8173919 255 255 255
856.10724 811.11816 1.7777148 255 255 255
3087.5737 1216.249 4.6375399 255 255 255
304.29868 535.12335 1.0968099 255 255 255
2101.6641 388.56009 2.6398845 255 255 255
2514.1799 1165.8379 3.9369369 255 255 255
1886.1425 1213.2594 3.1038003 255 255 255
267.03067 166.17073 0.6668669 255 255 255
318.49808 744.80737 1.9444011 255 255 255
366.37521 1127.0811 3.0724061 255 255 255
1069.2891 875.41016 3.4664361 255 255 255
263.14133 512.94525 0.98140544 255 255 255
-1211.6857 -4341.1201 -10.67335 255 255 255
1053.4866 1249.2856 2.1766858 255 255 255
2450.9229 1009.4818 4.0022883 255 255 255
-901.21027 -2093.9692 -4.0142756 255 255 255
2438.2832 1721.9746 3.5289445 255 255 255
-1743.0956 -2490.6462 -5.5760832 255 255 255
3388.4551 1299.4142 4.9379921 255 255 255
4129.0889 1281.2375 5.9066992 255 255 255
5978.4175 1679.3153 7.461102 255 255 255
529.21655 1390.4894 1.9364302 255 255 255
1063.193 994.2027 2.1462104 255 255 255
9933.9521 1549.9156 12.04306 255 255 255
4106.9951 1283.9054 5.8730888 255 255 255
3227.9846 1190.4247 4.8493004 255 255 255
343.87964 522.78821 1.1264443 255 255 255
1299.3206 570.10767 2.6326854 255 255 255
3113.5806 890.27441 5.1390233 255 255 255
2184.8611 1291.5552 3.4331505 255 255 255
441.35541 358.07422 1.1833736 255 255 255
1953.8588 2888.7778 5.1264758 255 255 255
2599.644 1114.5587 4.097188 255 255 255
480.43481 375.64206 1.2490133 255 255 255
-1090.6975 -1029.5161 -4.6171784 255 255 255
232.64551 313.78259 0.81051987 255 255 255
2978.1409 879.37732 4.951941 255 255 255
783.70142 1321.7411 5.1788416 255 255 255
3817.0134 940.13611 6.0932827 255 255 255
477.54654 503.86899 1.2834104 255 255 255
720009.62 258442.95 867.16827 255 255 255
293.13022 30.630674 0.8641516 255 255 255
43.1441 308.33099 0.65451229 255 255 255
153.46753 419.91937 0.85749596 255 255 255
53.000553 152.23494 0.31419414 255 255 255
228.22278 89.538902 0.55102199 255 255 255
805.88354 519.9281 1.6226219 255 255 255
3591.9111 1457.2286 5.0074563 255 255 255
1042.9049 509.83658 2.2310922 255 255 255
2161.5508 1288.9987 3.396225 255 255 255
3028.5767 1296.4375 4.4842968 255 255 255
-711.78937 -871.0813 -3.3247821 255 255 255
4440.9014 1066.9032 6.7092242 255 255 255
-300.92029 -983.77509 -3.0571771 255 255 255
3006.6296 1289.2275 4.4574771 255 255 255
1488.8325 935.12659 2.6973832 255 255 255
-1787.6266 -1069.9545 -3.4208407 255 255 255
2896.7041 1253.7313 4.3527722 255 255 255
172.96921 246.36403 0.89997399 255 255 255
4433.0454 2368.6235 5.111124 255 255 255
1645.0405 1353.7805 2.7887607 255 255 255
3155.3411 1333.7422 4.602509 255 255 255
-235.48007 -158.41191 -1.2604501 255 255 255
3059.9082 901.75092 5.0450697 255 255 255
-4192.5596 -4002.344 -13.7622 255 255 255
309.12888 444.44821 1.602397 255 255 255
348.28903 682.31519 1.6220576 255 255 255
573.40131 501.61768 1.4432764 255 255 255
1134.3948 1001.4625 2.2297308 255 255 255
4095.6294 8901.709 23.806419 255 255 255
1082.7522 700.8028 3.7305605 255 255 255
1685.2001 1976.825 4.9748993 255 255 255
265.55878 609.96893 1.1283077 255 255 255
211.70457 585.72693 1.0727118 255 255 255
156.45596 282.30005 0.69235075 255 255 255
-2862.2058 -3603.4111 -7.1802921 255 255 255
124.87439 547.78174 0.98824453 255 255 255
4963.3643 1432.6112 6.7148981 255 255 255
85.340439 74.484291 0.21705423 255 255 255
1255.1354 1679.4136 3.1313028 255 255 255
-420.62805 -472.76346 -1.9297997 255 255 255
-2688.2505 -2094.1682 -6.2524114 255 255 255
983.69928 740.53595 2.5864496 255 255 255
475.24396 969.03241 1.3958782 255 255 255
899.54895 114.85608 1.3757055 255 255 255
229.1664 201.93295 0.71476388 255 255 255
5952.7144 1578.266 7.6246214 255 255 255
885.38647 540.84381 1.9321723 255 255 255
-20776.979 -32117.611 -85.244263 255 255 255
-434.48535 -317.63434 -1.6068951 255 255 255
1659.0424 1569.4186 5.5777755 255 255 255
134.24135 305.65796 0.69755477 255 255 255
44.628941 449.59979 0.85038489 255 255 255
474.07812 333.43369 1.2345637 255 255 255
3432.7622 1321.7463 4.9580607 255 255 255
-8246.2217 -1999.5747 -13.244184 255 255 255
755.75018 414.90982 1.755295 255 255 255
562.39075 244.72997 1.1393843 255 255 255
5387.6406 1193.1898 7.7099895 255 255 255
913.04999 808.67792 1.8859237 255 255 255
305.87247 362.13599 0.95511514 255 255 255
66.615814 170.98405 0.44157022 255 255 255
487.52408 1118.1384 2.4859016 255 255 255
1042.0017 1812.5372 3.3486249 255 255 255
771.62592 982.51276 1.8729173 255 255 255
7484.7544 1437.0219 9.7040882 255 255 255
5342.3672 1144.8844 7.7553954 255 255 255
2666.5625 596.37628 4.5052114 255 255 255
708.60315 2110.9568 2.971895 255 255 255
729.62299 258.21432 1.1459862 255 255 255
810.11023 404.34091 1.8652591 255 255 255
894.97516 343.11572 1.037848 255 255 255
810.5116 673.78271 1.8216927 255 255 255
2585.553 1111.0822 4.08285 255 255 255
6135.6475 3380.1313 5.8354177 255 255 255
309.79352 399.74329 0.99596334 255 255 255
-2330.5071 -7939.0928 -19.11623 255 255 255
-18420.479 -4735.5327 -34.902802 255 255 255
-682.54547 -706.80927 -1.8992372 255 255 255
11281.571 1606.1937 13.906292 255 255 255
193.38881 289.46152 0.73833406 255 255 255
376.24484 527.4801 1.3311453 255 255 255
2836.7571 946.31964 4.6361995 255 255 255
681.58148 664.94904 2.2910337 255 255 255
3998.4856 1836.2972 5.0942636 255 255 255
5819.2183 1207.3107 8.2651615 255 255 255
2316.5388 1326.9751 3.5656393 255 255 255
6097.9429 1280.4429 8.4193535 255 255 255
299.60553 173.65802 0.35336402 255 255 255
1415.3732 1073.3687 2.5666184 255 255 255
576.77368 459.2908 0.6700182 255 255 255
2171.844 1298.6256 3.4090626 255 255 255
347.69852 201.23122 0.37860388 255 255 255
-1329.1796 -805.46643 -2.4587567 255 255 255
754.70959 601.04791 2.117161 255 255 255
232.25487 53.977779 0.2814292 255 255 255
4873.998 2008.3116 5.8286877 255 255 255
-1434.8027 -317.0542 -2.7902706 255 255 255
3197.0891 1227.9803 4.7677698 255 255 255
804.04083 405.34503 1.8530723 255 255 255
4534.5195 1039.379 6.8999715 255 255 255
788.66827 1417.0156 2.0259619 255 255 255
782.5498 1410.1824 2.0172732 255 255 255
650.5238 553.07458 1.2870613 255 255 255
1670.2612 6157.4263 11.941558 255 255 255
1356.4402 3111.3298 7.7444353 255 255 255
10582.027 1953.5464 11.492325 255 255 255
-667.12244 -669.95367 -1.8428842 255 255 255
2452.2786 777.90961 4.2953806 255 255 255
1721.7261 3323.1514 4.9636092 255 255 255
514.05359 1199.1698 1.7344606 255 255 255
508.73523 1189.6888 1.7241188 255 255 255
3852.9717 3692.5071 5.5977268 255 255 255
320.25949 1082.8857 1.5504993 255 255 255
804.73621 372.41602 1.8792278 255 255 255
3213.377 1231.5638 4.7832775 255 255 255
2488.4949 1028.5378 4.0330243 255 255 255
2615.2915 816.79077 4.4946766 255 255 255
502.41766 1123.4049 1.6746886 255 255 255
507.35223 1126.535 1.6819036 255 255 255
-2108.4985 -2338.4387 -4.973011 255 255 255
4593.0601 10255.786 16.472086 255 255 255
6118.1235 3378.5354 5.8229389 255 255 255
3269.0476 1300.7283 4.7770619 255 255 255
649.24426 2128.0405 6.5827522 255 255 255
4984.6621 1348.267 6.8763914 255 255 255
18751.662 3004.0376 22.71056 255 255 255
248.33073 404.06897 0.91548651 255 255 255
68.640221 188.40324 0.47457018 255 255 255
3735.3811 5264.0718 9.0791578 255 255 255
553.84479 1072.4434 1.6785538 255 255 255
658.41095 169.40953 1.8030819 255 255 255
2611.4333 1376.4667 3.8995876 255 255 255
4865.9995 2009.2864 5.8266406 255 255 255
916.35284 1280.2812 2.0625889 255 255 255
3329.6528 1136.2808 5.0625939 255 255 255
-1155.8859 -702.0697 -2.2370625 255 255 255
6068.8823 3322.4966 5.8560419 255 255 255
519.42297 495.04553 1.4822489 255 255 255
1231.3762 1028.3147 2.3486686 255 255 255
5048.3457 9715.8984 15.962218 255 255 255
598.98865 411.59558 0.7625069 255 255 255
356.11084 908.70392 1.4317185 255 255 255
5582.7534 1528.8665 7.2812424 255 255 255
5445.1006 3088.4089 5.5568876 255 255 255
1811.2471 4829.1069 9.4708643 255 255 255
592.72083 889.54816 2.929152 255 255 255
1119.7173 583.47968 1.1180102 255 255 255
1312.2382 1047.047 2.4441476 255 255 255
124.45464 801.49042 1.2529457 255 255 255
-319.97818 -597.92029 -2.7521129 255 255 255
100.10555 122.68059 0.41585085 255 255 255
-423.31168 -1957.0551 -5.5438671 255 255 255
355.09 2281.7585 3.6146214 255 255 255
-313.31705 -1134.9858 -3.6232188 255 255 255
2860.1213 937.79907 4.6807604 255 255 255
5233.6108 2872.8933 5.5043311 255 255 255
-234.43752 -988.00671 -4.1359935 255 255 255
131.0677 376.53928 0.83183575 255 255 255
647.66345 1020.8222 1.750841 255 255 255
59.444973 221.27664 0.45911336 255 255 255
628.32831 465.67007 1.4235942 255 255 255
472.01907 314.57703 0.62977183 255 255 255
1405.3417 583.51105 2.8079717 255 255 255
3118.3284 2224.7993 8.9027681 255 255 255
2083.7881 1616.0635 3.2022157 255 255 255
1376.6711 1291.8127 2.5049345 255 255 255
66.635117 112.8723 0.3419207 255 255 255
4804.896 2572.3623 5.3138552 255 255 255
2095.7607 1611.8262 3.2146251 255 255 255
2089.7808 1597.7554 3.2087474 255 255 255
2081.126 1589.6873 3.2030697 255 255 255
3390.8535 1300.2144 4.9318428 255 255 255
3015.4097 1245.2939 4.5169997 255 255 255
6232.5566 2044.4247 7.1714087 255 255 255
1391.6189 243.84833 1.7224228 255 255 255
1630.447 1135.3601 2.8177578 255 255 255
-199.64278 -586.77881 -1.8598884 255 255 255
1847.359 1642.5619 3.6958668 255 255 255
-436.30853 -487.23257 -1.9645498 255 255 255
1672.7007 962.11249 2.9405425 255 255 255
609.3634 469.1207 1.4794431 255 255 255
-847.66168 -719.63989 -2.652894 255 255 255
68.511642 180.70389 0.46052757 255 255 255
3272.3667 1308.6777 4.7761316 255 255 255
1308.864 1041.5623 2.4408896 255 255 255
79.318481 46.89843 0.13691877 255 255 255
7993.165 1850.2827 9.2644424 255 255 255
3226.0361 1254.9652 4.7715106 255 255 255
214.13481 205.06676 0.55601102 255 255 255
-3351.1733 -2495.5627 -9.4676352 255 255 255
3168.4639 911.49249 5.1944118 255 255 255
1003.8752 496.6835 2.1678724 255 255 255
1536.0557 2718.6899 7.7200661 255 255 255
-423.3652 -816.30066 -4.4240808 255 255 255
9283.1152 14889.483 25.17268 255 255 255
3248.4927 1347.3164 4.6979218 255 255 255
3869.4451 10454.005 19.565777 255 255 255
7539.5889 1830.9758 8.8625126 255 255 255
101.76664 373.47644 0.76987875 255 255 255
7071.2891 1917.0237 8.1789837 255 255 255
509.69034 310.69568 1.0793718 255 255 255
-2672.1626 -1278.7954 -4.5152502 255 255 255
1202.0238 953.6474 2.3105774 255 255 255
109.10303 59.944954 0.17253035 255 255 255
1058.6002 989.28564 2.1381719 255 255 255
3765.6584 2068.3523 4.6801863 255 255 255
3385.748 1225.1541 5.0060029 255 255 255
3225.4868 1189.5035 4.8454967 255 255 255
-985.29254 -2747.6963 -6.5994024 255 255 255
225.43452 322.65845 0.8128463 255 255 255
1019.7159 337.87604 1.2874377 255 255 255
492.20834 383.23636 1.2731152 255 255 255
2642.7219 1135.9359 4.1317124 255 255 255
83.013428 349.37988 0.72729564 255 255 255
1984.7018 739.87134 3.492871 255 255 255
94.154686 97.904449 0.3387731 255 255 255
429.92047 1642.4934 3.9706109 255 255 255
208.74449 228.85226 0.56414384 255 255 255
991.97052 864.89777 2.0219157 255 255 255
117.70185 168.60904 0.39444789 255 255 255
8696.9082 19772.297 46.521347 255 255 255
2946.207 962.591 4.7835984 255 255 255
722.63904 675.79987 3.5066938 255 255 255
379.98987 551.60498 1.2750411 255 255 255
2453.6206 1154.0051 3.8715391 255 255 255
3275.3303 1526.597 4.5617013 255 255 255
2851.2439 951.53888 4.652926 255 255 255
254.03697 188.22585 0.64325827 255 255 255
4922.9663 1093.9893 7.3182187 255 255 255
2176.7954 1514.2457 3.333988 255 255 255
268.50958 206.56494 0.76387286 255 255 255
4836.981 1120.3247 7.1419606 255 255 255
382.0264 518.30615 1.1675864 255 255 255
305.66296 298.22064 0.83105022 255 255 255
17092.467 43694.121 176.43513 255 255 255
1376.8907 290.3913 1.6958815 255 255 255
4868.978 1330.7194 6.7692509 255 255 255
480.69312 423.22287 1.3508182 255 255 255
3377.7751 1295.5879 4.9221563 255 255 255
100.24248 150.4518 0.35515386 255 255 255
418.94894 318.82291 1.4843277 255 255 255
251.03593 463.71909 0.92665964 255 255 255
64.625458 80.628334 0.23485921 255 255 255
793.11963 995.82025 1.9238031 255 255 255
4585.0571 1086.5555 6.8749213 255 255 255
-4727.0776 -12613.794 -27.440376 255 255 255
3339.5645 1132.1564 5.0792584 255 255 255
2762.3542 926.95459 4.5499673 255 255 255
3582.4858 1185.2882 5.3283925 255 255 255
818.56964 558.711 1.41207 255 255 255
-551.83496 -498.67822 -1.6822917 255 255 255
495.66586 1221.9829 1.7352382 255 255 255
786.64349 673.06854 1.5969423 255 255 255
484.26675 506.1575 1.2965617 255 255 255
916.8952 1701.1777 3.5916686 255 255 255
6128.8989 3392.8479 5.8159895 255 255 255
70.638283 157.72392 0.42266825 255 255 255
4102.0845 1017.4691 6.3492813 255 255 255
393.22446 367.13312 0.56671226 255 255 255
616.53998 770.51416 1.3393562 255 255 255
-222.50363 -973.95154 -3.0756991 255 255 255
3129.4202 1091.092 4.8523617 255 255 255
343.88913 943.57422 1.4524832 255 255 255
932.18152 1514.609 2.3317263 255 255 255
4383.8882 1333.9194 6.1549287 255 255 255
2514.7388 1165.7512 3.9381511 255 255 255
4531.1558 1277.3289 6.4398198 255 255 255
1326.4805 559.47546 1.9009629 255 255 255
-881.71136 -961.02985 -4.4424572 255 255 255
175.41512 475.89923 0.93527991 255 255 255
751.55988 978.53314 1.8362575 255 255 255
1997.8771 871.37903 2.945564 255 255 255
-541.6272 -388.12454 -1.7201002 255 255 255
1746.9984 1844.5746 6.7869706 255 255 255
234.07928 233.42439 0.59581709 255 255 255
6720.3286 1309.3405 9.1375484 255 255 255
4104.9805 1282.2394 5.8686204 255 255 255
6592.9941 1295.5981 9.0308685 255 255 255
3860.4963 1234.3002 5.6398668 255 255 255
3292.4026 1062.2595 5.1322522 255 255 255
-1148.8035 -1611.7059 -3.3990755 255 255 255
3118.6396 1095.6255 4.8349013 255 255 255
5932.0205 1582.9003 7.5956159 255 255 255
3306.8457 1295.3575 4.8301663 255 255 255
-227.46649 -891.6557 -3.1191146 255 255 255
1593.3486 1237.5262 3.8565929 255 255 255
11610.674 7886.083 24.464306 255 255 255
563.77771 338.54422 1.4119191 255 255 255
7249.0781 1665.6185 8.9167395 255 255 255
2447.9299 2228.106 7.4687805 255 255 255
2345.229 1035.9181 3.825798 255 255 255
3330.8157 1297.5175 4.8621001 255 255 255
-11104.29 -3069.8977 -13.645426 255 255 255
93.409126 460.25937 0.87413287 255 255 255
199.18349 362.1022 0.82882863 255 255 255
7519.4907 1389.7043 9.8717365 255 255 255
3328.5508 1224.8512 4.9508572 255 255 255
-327.12366 -463.88089 -1.5011132 255 255 255
484.02512 2869.8423 5.1067266 255 255 255
-642.94244 -524.18909 -1.7686613 255 255 255
-855.42316 -590.86823 -2.0021186 255 255 255
3316.365 1897.8217 4.3391037 255 255 255
7463.5142 1521.9467 9.1850872 255 255 255
8989.8828 2225.6228 14.426267 255 255 255
5245.4028 1172.2468 7.5643783 255 255 255
3665.26 1130.5455 5.5362916 255 255 255
71.096825 522.69928 0.94523728 255 255 255
160.46352 284.59158 0.69879252 255 255 255
486.30655 520.55853 1.3021405 255 255 255
495.02347 535.0564 1.3228012 255 255 255
6958.7021 1719.9888 8.4869108 255 255 255
-1077.2568 -1651.8943 -3.7249701 255 255 255
2433.4561 1720.2811 3.5240138 255 255 255
-4277.8677 -5069.5449 -10.54299 255 255 255
2315.7671 1340.7437 3.5598152 255 255 255
312.56406 537.05316 0.97085601 255 255 255
5387.6089 1410.9556 7.2751293 255 255 255
1247.2008 874.50983 3.0968125 255 255 255
131.74194 246.71011 0.61632848 255 255 255
4793.5327 2575.2629 5.3030634 255 255 255
3111.166 1026.1818 4.9275346 255 255 255
-462.3074 -540.14948 -3.9627013 255 255 255
129.17149 121.02699 0.43996853 255 255 255
1127.8938 969.86017 2.2272854 255 255 255
31562.137 59023.234 115.63326 255 255 255
1520.1669 1104.1696 2.6894157 255 255 255
104.67418 200.28879 0.48996365 255 255 255
268.93954 251.56766 0.69871032 255 255 255
1104.6348 1997.3546 4.2546244 255 255 255
-525.26056 -774.26447 -1.9599082 255 255 255
65.956696 154.52734 0.41275826 255 255 255
7653.4033 1713.6949 9.236536 255 255 255
3216.355 1310.9816 4.6999955 255 255 255
62.067295 29.094234 0.067265861 255 255 255
2159.2632 1259.1477 3.4201083 255 255 255
-950.81696 -1165.4894 -4.9768686 255 255 255
3238.7817 1312.74 4.7292676 255 255 255
84.201118 205.71178 0.51620477 255 255 255
1413.6937 1069.0731 2.5657332 255 255 255
116.83614 138.55168 0.44840544 255 255 255
696.90735 937.39478 1.6485052 255 255 255
-2382.5493 -568.84247 -3.3946271 255 255 255
168.74844 291.78003 0.71874744 255 255 255
316.50644 459.85782 0.80986065 255 255 255
2690.3936 1004.0028 4.350163 255 255 255
298.35797 420.7916 1.0152998 255 255 255
-175.1866 -156.11916 -1.277156 255 255 255
124.08078 266.07568 0.63953102 255 255 255
8008.5796 1489.4707 10.174168 255 255 255
-966.28497 -1263.8373 -3.126333 255 255 255
233.94414 308.93848 0.61546612 255 255 255
2255.5938 979.74518 3.554914 255 255 255
129.75595 241.91531 0.60728449 255 255 255
-1361.321 -3824.1355 -10.643761 255 255 255
967.08563 376.31348 1.0849569 255 255 255
5228.2456 1131.3887 7.6504145 255 255 255
4844.8047 1122.5551 7.1542912 255 255 255
298.68115 261.99719 0.45672953 255 255 255
8124.9028 2571.0864 8.1561193 255 255 255
-1065.6843 -1603.4835 -3.5759614 255 255 255
2128.0347 2341.2107 3.7123518 255 255 255
-5359.1157 -3419.5725 -8.7854548 255 255 255
3602.7656 1182.7325 5.3605909 255 255 255
1640.9794 1348.5062 2.7838216 255 255 255
7193.8203 1354.4305 9.5761614 255 255 255
3398.6194 1237.8517 5.0292182 255 255 255
1229.2529 1026.8317 2.3455431 255 255 255
1048.8458 305.34024 1.2765244 255 255 255
98.98674 498.5249 1.9729347 255 255 255
1309.6925 1042.1844 2.4422128 255 255 255
2488.3508 788.54504 4.3593383 255 255 255
69.005768 90.278236 0.34436527 255 255 255
-1832.7112 -1938.4891 -5.339489 255 255 255
10534.745 1943.6598 11.433644 255 255 255
2001.3053 761.93567 2.9921904 255 255 255
2857.4666 952.10504 4.6623702 255 255 255
1949.1871 776.01471 2.9205337 255 255 255
-782.59357 -558.05304 -2.0008454 255 255 255
1936.4857 771.9884 2.9073198 255 255 255
399.46152 580.67737 1.8198047 255 255 255
1120.8201 453.15704 2.4270902 255 255 255
6034.6694 1504.1221 7.8728137 255 255 255
1708.1653 3426.7825 7.7488408 255 255 255
3328.6196 7720.8442 15.633031 255 255 255
-3428.4734 -3917.0774 -11.012505 255 255 255
5625.0933 1529.4005 7.341651 255 255 255
5354.9897 1146.2124 7.7767076 255 255 255
-5080.2246 -3324.9617 -11.44385 255 255 255
2505.2434 1360.6963 3.7711735 255 255 255
-380.29764 -342.4223 -1.4726924 255 255 255
6279.6914 1304.5201 8.6032352 255 255 255
3108.2908 888.315 5.1304712 255 255 255
1580.2228 1198.7611 2.879658 255 255 255
3484.4844 6577.835 10.896115 255 255 255
-1418.3986 -780.92224 -2.6017594 255 255 255
296.29825 440.93332 0.89350414 255 255 255
98.936371 214.77217 0.54149997 255 255 255
-495.25009 -395.94125 -1.5747778 255 255 255
1411.228 954.05627 2.7248418 255 255 255
-123.95529 -763.8656 -3.8241539 255 255 255
2681.6111 1000.4534 4.3352842 255 255 255
2183.5271 1290.5334 3.4302878 255 255 255
3278.5686 3159.0891 7.9256048 255 255 255
1518.8677 1100.8168 2.6866047 255 255 255
4398.4585 1329.6216 6.1784816 255 255 255
48.205284 106.82405 0.26831877 255 255 255
238.36952 162.75771 0.46298334 255 255 255
3489.9282 890.72839 5.712769 255 255 255
3664.6577 1127.4368 5.533452 255 255 255
6741.9766 1312.2389 9.1703167 255 255 255
9622.2197 1066.9348 16.353243 255 255 255
333.63562 197.47154 0.94227469 255 255 255
1101.5973 1609.3984 6.9741058 255 255 255
279.05045 343.12329 1.2499543 255 255 255
3258.6201 1350.1683 4.7127824 255 255 255
8994.1562 1584.0585 10.98296 255 255 255
94.466934 210.4221 0.53135347 255 255 255
2911.1069 1258.1696 4.368526 255 255 255
-1041.6625 -451.73218 -2.0724902 255 255 255
2892.9897 1251.7924 4.349699 255 255 255
1064.3307 1561.1506 4.2138953 255 255 255
3084.1487 1216.2949 4.6323733 255 255 255
-1534.0016 -831.51508 -3.7959409 255 255 255
669.75665 1343.1302 4.2366762 255 255 255
-2248.7495 -1927.1729 -8.7544098 255 255 255
507.87665 2311.0388 4.0812206 255 255 255
278.31238 1542.5184 4.1981044 255 255 255
3271.9077 1308.105 4.7767916 255 255 255
216.62569 151.96378 0.51850939 255 255 255
863.64679 1310.4338 4.6028967 255 255 255
3700.8215 922.03333 5.9562221 255 255 255
217.76578 267.88766 0.66784608 255 255 255
2664.2656 595.97455 4.5013151 255 255 255
1883.215 1211.6571 3.1000991 255 255 255
2087.2053 1594.7007 3.2127967 255 255 255
287.96671 464.80536 1.9440492 255 255 255
5645.4629 1180.8922 8.080658 255 255 255
2082.0398 1613.6652 3.1988475 255 255 255
2176.625 1511.4825 3.3342078 255 255 255
266.20349 606.53448 1.1257604 255 255 255
1279.9806 471.77185 2.3484871 255 255 255
6015.8716 2493.8757 6.431829 255 255 255
-156.42603 -759.76703 -2.4926283 255 255 255
4410.0679 1022.614 6.7605505 255 255 255
51.122311 376.41077 0.75515401 255 255 255
3530.8245 930.70074 5.6915016 255 255 255
4866.2666 2007.916 5.8259764 255 255 255
-520.4328 -1624.2195 -5.0466719 255 255 255
1061.717 612.00519 2.1974676 255 255 255
1646.5134 1144.6082 2.4329166 255 255 255
239.69414 101.48818 0.46914843 255 255 255
2866.8127 938.41968 4.6933875 255 255 255
4530.2539 1276.9226 6.436172 255 255 255
3035.2297 894.19824 5.0156436 255 255 255
1729.3364 963.94556 2.6220169 255 255 255
464.12659 268.53836 1.4061047 255 255 255
7983.1479 1486.2236 10.139353 255 255 255
3398.4902 1303.189 4.9443994 255 255 255
1131.901 1045.1715 2.2103412 255 255 255
473.69861 333.255 1.2339252 255 255 255
1382.3945 982.27887 2.533313 255 255 255
6034.3184 2500.4839 6.4403191 255 255 255
505.10876 1119.9611 1.6720272 255 255 255
2091.5854 1610.2644 3.2087278 255 255 255
517.84259 493.86667 1.3850057 255 255 255
3005.5696 1624.5676 5.068069 255 255 255
1463.0997 4722.3306 9.4967747 255 255 255
1377.0941 1289.7979 2.5087397 255 255 255
2310.2061 1473.6567 4.9716411 255 255 255
8196.9736 1512.0394 10.34683 255 255 255
