ply
format ascii 1.0
comment PCL generated
element vertex 1102
property float x
property float y
property float z
property uchar red
property uchar green
property uchar blue
element face 0
element camera 0
property float view_px
property float view_py
property float view_pz
property float x_axisx
property float x_axisy
property float x_axisz
property float y_axisx
property float y_axisy
property float y_axisz
property float z_axisx
property float z_axisy
property float z_axisz
property float focal
property float scalex
property float scaley
property float centerx
property float centery
property int viewportx
property int viewporty
property float k1
property float k2
end_header
-288.32175 -356.44366 -1.7295561 255 255 255
-1602.3124 -1683.4452 -5.5148506 255 255 255
978.5575 641.32361 2.9566693 255 255 255
-2556.71 -1087.2472 -4.029243 255 255 255
748.46735 423.60239 1.7805314 255 255 255
-681.04169 -1191.9454 -2.9518993 255 255 255
1071.334 1128.5641 3.2356653 255 255 255
517.35608 526.76019 1.3578012 255 255 255
275.87729 757.71655 1.2534567 255 255 255
2363.2122 1379.9572 5.4615364 255 255 255
1259.4574 1221.6089 3.8118074 255 255 255
461.32428 477.67627 1.4173514 255 255 255
-357.75394 -441.10925 -1.8467523 255 255 255
-2761.5356 -3075.5627 -6.2948666 255 255 255
-3664.9556 -1995.1868 -9.2038507 255 255 255
-207.55078 -1374.1222 -3.4840889 255 255 255
-870.58948 -507.89896 -1.9803904 255 255 255
309.32394 570.57288 1.1304556 255 255 255
-2005.3387 -5612.8252 -11.18664 255 255 255
-903.48657 -672.15033 -2.1041594 255 255 255
5643.3989 17191.234 25.983664 255 255 255
-12769.737 -13166.801 -44.740417 255 255 255
-1203.9222 -2354.9773 -4.6722116 255 255 255
-686.48688 -422.55908 -1.8051515 255 255 255
1032.5437 844.12073 3.3520293 255 255 255
-1852.006 -3322.1414 -10.764491 255 255 255
-2373.9536 -1808.7218 -7.9977837 255 255 255
1834.5713 1106.4606 4.735888 255 255 255
-473.62009 -673.34436 -2.1448114 255 255 255
-654.54028 -1129.5116 -2.9214709 255 255 255
4137.8799 15017.052 26.133146 255 255 255
560.50403 748.83508 1.4831618 255 255 255
748.43591 897.78564 1.7374321 255 255 255
634.44495 962.03143 1.6430037 255 255 255
318.76147 393.82962 0.83600849 255 255 255
-1087.8005 -1233.1145 -2.4655738 255 255 255
-312.81476 -461.04681 -1.7958858 255 255 255
-1283.8304 -1339.9492 -3.848753 255 255 255
315.96939 697.08301 1.2320448 255 255 255
-820.16534 -570.46613 -2.3098621 255 255 255
-121.29819 -16.895386 -1.3788481 255 255 255
-1221.5724 -1301.0204 -2.823343 255 255 255
460.31662 398.73871 0.51761466 255 255 255
-2279.3965 -1806.739 -8.8734131 255 255 255
-1765.8401 -2572.3823 -6.0365601 255 255 255
-10441.602 -9363.4961 -34.714626 255 255 255
4720.1528 7748.4932 16.905241 255 255 255
-1225.6719 -1269.3339 -2.5753896 255 255 255
-667.15283 -881.97888 -2.5660133 255 255 255
-3827.6047 -3237.1367 -13.135121 255 255 255
-2271.6421 -1303.9911 -4.0384483 255 255 255
918.62012 1066.7881 1.7048533 255 255 255
-533.54938 -965.10211 -3.2247641 255 255 255
-25645.754 -7425.1538 -30.643955 255 255 255
394.70175 515.16516 0.89325827 255 255 255
1834.9393 1611.9419 2.8829355 255 255 255
-5955.5889 -10770.559 -21.086197 255 255 255
-1894.75 -2309.9639 -5.5924611 255 255 255
1613.0096 1072.248 4.1647539 255 255 255
-1127.8148 -773.40778 -5.2939548 255 255 255
3207.3018 870.79034 5.6624184 255 255 255
-2048.678 -4019.2063 -9.8892889 255 255 255
615.93469 444.23254 1.5187337 255 255 255
-499.17914 -475.43726 -1.6991444 255 255 255
1328.9111 1249.306 3.9208143 255 255 255
1267.7189 1062.7611 1.4451785 255 255 255
-890.6911 -1314.8733 -3.7050939 255 255 255
-339.79425 -295.77325 -1.6619394 255 255 255
1356.9479 1639.0355 1.7584282 255 255 255
-80410.102 -71113.734 -307.44568 255 255 255
-488.1593 -178.32391 -1.564255 255 255 255
-3416.1243 -3007.8496 -11.12169 255 255 255
1736.6348 2555.2327 7.0222192 255 255 255
281.5351 567.81201 1.1036767 255 255 255
-716.13269 -718.70282 -1.9127488 255 255 255
1046.3949 1522.9899 2.7873285 255 255 255
769.70752 334.55075 1.930145 255 255 255
584.40253 891.02228 1.7102611 255 255 255
535.61292 616.43243 1.4061794 255 255 255
-694.06281 -1459.178 -3.445729 255 255 255
467.91437 682.23663 1.1955192 255 255 255
751.08862 623.32874 1.7125335 255 255 255
-893.69238 -827.00812 -2.418941 255 255 255
643.94159 733.68823 1.5724878 255 255 255
-1157.8716 -943.86157 -2.458895 255 255 255
-217242.39 -127438.78 -615.54169 255 255 255
1501.3724 1513.5184 2.566165 255 255 255
3418.3979 2237.4482 4.1732478 255 255 255
462.44373 355.60837 1.1606073 255 255 255
582.10205 487.35757 1.3584727 255 255 255
1681.7635 2139.6423 4.9587321 255 255 255
539.21014 402.96289 1.3906764 255 255 255
269.26617 832.3689 1.3084823 255 255 255
-827.40479 -2264.187 -4.9464355 255 255 255
-555.75745 -866.19177 -2.5474539 255 255 255
457.98053 610.08575 1.6389942 255 255 255
698.4176 565.13678 1.7690676 255 255 255
-852.80725 -642.24573 -1.9936366 255 255 255
1697.134 5659.5884 10.693043 255 255 255
-546.85492 -580.90314 -2.0456259 255 255 255
-783.19775 -1357.4506 -3.7162905 255 255 255
12764.091 15642.459 31.256155 255 255 255
680.83594 592.61456 1.6071759 255 255 255
10927.188 2655.5178 11.496209 255 255 255
549.4184 449.13538 1.4006983 255 255 255
3746.8755 2111.5647 4.6066451 255 255 255
529.35437 617.13373 1.3973347 255 255 255
294.18814 578.97742 1.1260511 255 255 255
-2452.9978 -1316.6415 -7.9479609 255 255 255
-449.6362 -276.40265 -2.0683365 255 255 255
756.83026 562.34204 1.7322476 255 255 255
133.66895 104.24727 0.15316492 255 255 255
254.96425 517.45386 1.0382541 255 255 255
-1091.0697 -1044.097 -2.4090798 255 255 255
142.68945 493.0368 0.93154716 255 255 255
275.64816 166.35435 0.58435726 255 255 255
1906.6663 1474.1453 6.9632068 255 255 255
891.05505 337.74579 1.4561839 255 255 255
-3384.4058 -4690.0718 -11.665047 255 255 255
-2619.1423 -3388.1426 -9.794836 255 255 255
-565.45789 -1063.9773 -2.8984725 255 255 255
-956.51044 -1379.9133 -3.393451 255 255 255
1545.8944 7778.2705 13.264428 255 255 255
4675.3525 6439.9683 11.917078 255 255 255
4639.6787 1467.6123 6.6029434 255 255 255
2470.8203 1253.5747 3.3917992 255 255 255
411.82001 482.93692 1.1960492 255 255 255
-1608.1584 -1693.8547 -7.3875766 255 255 255
404.59192 668.89752 1.2852472 255 255 255
650.14252 752.57965 2.2526329 255 255 255
3083.7405 2516.686 3.7396612 255 255 255
4667.7837 1465.6411 6.6447787 255 255 255
-58776.098 -97094.461 -248.83133 255 255 255
1083.9375 913.56055 1.1215706 255 255 255
-578.59259 -779.89502 -2.3796318 255 255 255
-889.23071 -975.55048 -3.3017414 255 255 255
10783.782 4600.0024 28.135998 255 255 255
-3020.8708 -3968.2703 -11.078336 255 255 255
6478.1489 2521.7986 6.9818082 255 255 255
-469.48856 -316.6748 -1.5534754 255 255 255
-8556.959 -16492.867 -28.758783 255 255 255
-443.81253 -169.08044 -1.4878076 255 255 255
2498.7502 1529.7941 3.6644852 255 255 255
1506.2018 1521.9502 2.5709496 255 255 255
4609.8101 2779.8806 16.184008 255 255 255
-1177.6208 -1195.8788 -3.9762616 255 255 255
368.27594 197.80287 0.40326679 255 255 255
510.46655 541.46417 1.3522856 255 255 255
595.2851 735.08044 1.5147882 255 255 255
-1118.9757 -1054.683 -3.8726456 255 255 255
-910.01428 -1284.1737 -3.5005884 255 255 255
-539.60492 -404.7341 -1.7158786 255 255 255
11276.606 11506.396 31.386503 255 255 255
1458.9236 1460.4935 4.4296803 255 255 255
737.40118 512.73706 1.7127082 255 255 255
3569.2395 895.73053 6.3859787 255 255 255
325.2135 157.22182 0.8576256 255 255 255
1163.2668 2103.5012 4.1288066 255 255 255
351.81247 912.48657 1.4120718 255 255 255
284.52679 574.4386 1.1117917 255 255 255
924.12518 1581.5566 2.7843816 255 255 255
1087.3945 1276.6056 1.3386654 255 255 255
421.14374 394.55798 1.1819166 255 255 255
635.3446 770.25854 1.7321432 255 255 255
1582.35 948.9079 3.3168013 255 255 255
-1261.9001 -1296.5109 -5.4273071 255 255 255
1618.6792 2519.4407 6.5140252 255 255 255
81.465851 57.458374 0.13690999 255 255 255
733.45648 473.15543 1.7230717 255 255 255
1624.3677 2235.4199 6.6767273 255 255 255
-6914.3428 -10356.487 -29.42259 255 255 255
-484.16516 -426.08868 -1.6701771 255 255 255
643.46088 519.82794 1.5492706 255 255 255
1244.1328 1232.575 1.4776988 255 255 255
-514.51868 -807.90924 -2.411588 255 255 255
684.63806 1023.6895 2.095109 255 255 255
-780.2179 -1590.3416 -3.9134994 255 255 255
1090.6437 1231.4321 1.3075606 255 255 255
-811.52039 -1015.6264 -2.1470766 255 255 255
391.23456 675.53314 1.2789139 255 255 255
-964.68481 -1885.3352 -4.6783695 255 255 255
-958.00201 -1566.0012 -4.2142334 255 255 255
1086.5857 641.51025 2.775898 255 255 255
1754.2456 1043.7139 5.0013342 255 255 255
273.25323 387.81665 0.95131248 255 255 255
1265.9104 1178.9402 1.5570687 255 255 255
7069.6519 2498.033 7.6399407 255 255 255
-55076.52 -117272.16 -230.25488 255 255 255
-1070.5881 -3359.6235 -6.1198025 255 255 255
20175.666 11672.466 45.653862 255 255 255
-405.24854 -677.8985 -2.292783 255 255 255
620.21008 518.15527 1.6349969 255 255 255
303.81723 595.20221 1.1448386 255 255 255
14909.691 2688.5583 15.889625 255 255 255
5575.8047 2235.7588 6.4661636 255 255 255
324.28418 520.04657 1.1087967 255 255 255
629.6969 443.59702 1.5440031 255 255 255
-723.19592 -527.52448 -1.9582585 255 255 255
-989.99347 -361.34229 -1.978272 255 255 255
1309.9657 919.49939 3.9853985 255 255 255
-601.49896 -358.7023 -1.7370141 255 255 255
-1022.4734 -4015.6072 -7.4077806 255 255 255
-59.096832 -439.69852 -1.7760966 255 255 255
-339.93634 -363.17996 -1.7109243 255 255 255
558.57361 580.10651 1.5699464 255 255 255
-1098.5958 -891.69275 -2.8784506 255 255 255
816.73181 779.94415 1.8066074 255 255 255
2385.0747 2003.6088 4.6005673 255 255 255
25615.564 28260.957 81.557495 255 255 255
295.95776 584.5423 1.1299382 255 255 255
2751.363 1693.9967 3.8477449 255 255 255
5513.0986 2222.4553 6.4130883 255 255 255
-748.15979 -1488.4457 -3.5569065 255 255 255
2897.1077 1979.8806 7.4101214 255 255 255
796.15204 212.65787 1.5692856 255 255 255
2450.6785 5444.1523 12.899094 255 255 255
-813.95087 -1207.6191 -3.6382587 255 255 255
3698.8525 1470.1426 5.269105 255 255 255
558.72504 691.5589 1.4594653 255 255 255
-934.01227 -658.79846 -2.1229117 255 255 255
446.74579 629.6438 1.1597085 255 255 255
959.32776 684.97131 1.7131137 255 255 255
479.89935 497.85526 1.2967606 255 255 255
1535.7434 1558.9172 1.8314264 255 255 255
-476.8606 -389.80411 -1.5946687 255 255 255
313.32816 347.28622 0.74972779 255 255 255
497.91827 234.02858 0.51223075 255 255 255
602.04584 273.70859 2.7039316 255 255 255
424.52975 447.43719 1.1995311 255 255 255
-839.03601 -909.29688 -3.0153382 255 255 255
357.33038 362.97803 0.41839042 255 255 255
797.83459 213.47372 1.5407807 255 255 255
1540.1814 1560.4305 5.1960583 255 255 255
286.12607 586.88281 1.1234123 255 255 255
301.60043 588.24194 1.1378754 255 255 255
1495.83 1559.2385 2.5567305 255 255 255
-463.11981 -567.89606 -1.9594338 255 255 255
-532.84119 -401.80154 -1.7007101 255 255 255
-10466.625 -6981.0098 -17.971258 255 255 255
489.71149 599.16266 1.3443853 255 255 255
-1123.0986 -421.42038 -2.1360493 255 255 255
652.74768 497.41443 1.7493745 255 255 255
-327.43051 -620.37402 -2.3319311 255 255 255
-569.25079 -862.04309 -2.435627 255 255 255
641.10596 379.62802 0.65894306 255 255 255
1070.4413 540.43915 1.7466023 255 255 255
-1860.0201 -4668.0068 -8.6494341 255 255 255
2810.167 11371.562 18.932159 255 255 255
-1035.1644 -1049.584 -2.8688633 255 255 255
305.4772 597.98975 1.1490279 255 255 255
-4576.9458 -2562.312 -11.268945 255 255 255
282.57294 579.07141 1.1144437 255 255 255
1788.9951 362.58005 1.9129751 255 255 255
-641.90515 -390.2251 -1.8208998 255 255 255
-1543.245 -1406.675 -4.0142107 255 255 255
4376.2412 17816.209 31.662777 255 255 255
2058.9805 1840.4125 5.7648287 255 255 255
420.84546 757.03296 1.3546681 255 255 255
723.95734 638.74225 2.2353477 255 255 255
49712.965 28207.947 62.277336 255 255 255
295.29953 1113.2744 1.5288672 255 255 255
-1348.6765 -1810.7288 -5.3170891 255 255 255
-982.39044 -381.29602 -4.1984873 255 255 255
1973.067 916.46002 3.4825549 255 255 255
-1968.2184 -1796.594 -4.3312488 255 255 255
27946.203 10114.807 28.601299 255 255 255
-643.68384 -745.23383 -2.7990019 255 255 255
-427.95438 -281.20529 -1.4693743 255 255 255
497.41183 608.32025 1.3569268 255 255 255
-1794.5637 -2020.5189 -7.9950352 255 255 255
-1098.2441 -639.51666 -3.8169353 255 255 255
6090.9741 2252.5735 7.0161715 255 255 255
1590.9712 1400.231 1.7587438 255 255 255
488.15546 836.15485 1.4571785 255 255 255
-1550.928 -406.50052 -5.2410393 255 255 255
-484.8038 -485.15991 -1.697263 255 255 255
989.1322 410.89664 1.6088284 255 255 255
-655.03058 -397.77905 -1.8097918 255 255 255
6883.6606 2782.3237 7.014945 255 255 255
1076.4889 958.96906 1.2176089 255 255 255
-661.00208 -530.4671 -2.424886 255 255 255
760.14709 1127.5503 0.97256494 255 255 255
670.6004 712.63525 1.9894727 255 255 255
-439.55591 -467.18503 -1.9079347 255 255 255
399.95724 406.38394 0.49903977 255 255 255
597.92944 634.24866 1.4909767 255 255 255
-414.31561 -1015.3928 -2.7386484 255 255 255
308.47214 652.62292 1.1928493 255 255 255
-575.07758 -366.75 -1.6847788 255 255 255
3231.0737 2047.5513 11.348394 255 255 255
535.63251 487.5332 1.3780481 255 255 255
-1738.9536 -1657.278 -7.4002748 255 255 255
638.36597 523.25623 1.5399897 255 255 255
1262.2732 851.38031 2.4234955 255 255 255
-381.60461 -538.99652 -1.8914651 255 255 255
-922.26355 -573.80884 -3.0478919 255 255 255
241.18918 392.44888 0.91605651 255 255 255
-2112.448 -2081.7747 -7.286222 255 255 255
-3175.0984 -2212.3152 -10.314595 255 255 255
434.94098 364.35995 0.49641037 255 255 255
5777.3384 2713.0779 6.0444345 255 255 255
582.53625 534.5351 1.4546217 255 255 255
1567.9003 389.1586 1.575591 255 255 255
239.10475 180.19646 0.42239168 255 255 255
275.55463 756.73041 1.2518409 255 255 255
329.09665 984.82983 1.4513912 255 255 255
-5287.6309 -11205.344 -22.568527 255 255 255
412.3118 757.67706 1.3483118 255 255 255
-759.82996 -1025.3127 -2.9063361 255 255 255
816.65436 897.2085 3.0223866 255 255 255
-1976.2482 -2030.3203 -3.7751489 255 255 255
1014.8684 1062.5853 3.6839592 255 255 255
5909.8901 15928.476 50.452152 255 255 255
522.06183 352.38565 0.64600098 255 255 255
596.51892 612.5274 1.4869155 255 255 255
-1456.8912 -2902.6145 -7.6589217 255 255 255
-181243.33 -37268.891 -462.85938 255 255 255
638.9505 684.54266 1.5558033 255 255 255
-2102.532 -4335.0234 -9.0470438 255 255 255
667.36969 668.19946 1.5924853 255 255 255
-929.94855 -820.97491 -3.5237458 255 255 255
8663.6445 2978.9216 8.4053841 255 255 255
688.18146 996.00897 2.1150424 255 255 255
484.20108 544.22656 1.3178164 255 255 255
557.92413 580.54022 1.4253076 255 255 255
-284.08731 -158.5856 -1.3097966 255 255 255
-1102.3109 -1371.1014 -2.8192923 255 255 255
640.05438 544.60956 1.5432936 255 255 255
632.32538 500.02667 1.534623 255 255 255
-684.20538 -572.4173 -1.8380839 255 255 255
-4214.3457 -3920.7012 -14.359803 255 255 255
-6794.2104 -2735.9048 -8.0027456 255 255 255
3258.043 2330.0671 3.9682267 255 255 255
-2239.7893 -1777.178 -6.7683253 255 255 255
1646.9506 708.12085 3.1798074 255 255 255
3242.7239 2324.9644 3.9583464 255 255 255
224.25742 401.89728 0.96354955 255 255 255
469.07199 225.0479 0.49799484 255 255 255
468.31223 473.02289 1.3432912 255 255 255
756.09296 1094.9813 2.5494318 255 255 255
1752.7312 1216.6021 4.4090629 255 255 255
-2343.1135 -4185.1343 -10.938157 255 255 255
8668.9297 4169.5107 10.45863 255 255 255
5346.5659 12247.439 24.702333 255 255 255
774.46844 1042.767 1.8009385 255 255 255
-2154.3904 -1754.2858 -7.7435493 255 255 255
-322.9679 -410.98074 -1.8513901 255 255 255
472.00467 999.40137 2.0023313 255 255 255
-666.21204 -590.5097 -1.8058727 255 255 255
1354.3418 1980.2699 5.093483 255 255 255
429.21283 505.31738 1.0951198 255 255 255
7632.4917 992.02448 14.981939 255 255 255
-4908.7104 -6385.1558 -12.14872 255 255 255
-2411.8389 -2551.1687 -10.083586 255 255 255
1316.6962 1271.1818 4.4673357 255 255 255
519.35645 405.20877 1.6030012 255 255 255
-1896.4874 -5087.4014 -9.4479532 255 255 255
276.39496 578.53986 1.1079978 255 255 255
-1005.2532 -1250.8149 -3.8984146 255 255 255
3189.4375 5474.9888 8.9939499 255 255 255
657.50378 507.46933 1.5761812 255 255 255
281.26608 582.27515 1.1161283 255 255 255
-3710.99 -1796.845 -11.603584 255 255 255
-395.97189 -259.00607 -1.4479823 255 255 255
-509.43582 -769.29352 -2.3099484 255 255 255
-3316.9543 -7836.9961 -12.981347 255 255 255
3934.6265 3382.0645 12.424356 255 255 255
-2029.4169 -3315.0938 -6.955657 255 255 255
-1113.8645 -1392.218 -2.6124117 255 255 255
300.15506 692.7132 1.2193457 255 255 255
-287.20502 -440.96945 -1.9087185 255 255 255
-10072.973 -8576.4404 -33.871029 255 255 255
2863.8887 832.98572 4.9313745 255 255 255
185.77536 891.55048 1.3260384 255 255 255
677.82434 933.76843 1.6727215 255 255 255
1266.4949 1122.4019 3.4967062 255 255 255
-1243.8308 -2570.2778 -5.7204127 255 255 255
-562.42621 -1705.2777 -3.6643109 255 255 255
584.34277 922.28125 2.3683279 255 255 255
516.47491 525.79724 1.3559772 255 255 255
-874.47736 -1560.2853 -3.6609135 255 255 255
-373.20212 -251.03352 -1.4294801 255 255 255
-2692.1399 -1527.1785 -9.6522427 255 255 255
-593.74994 -951.08966 -2.548785 255 255 255
513.84906 957.76898 1.545136 255 255 255
-972.09827 -728.69421 -3.3595757 255 255 255
-6183.3618 -3019.3328 -7.1770639 255 255 255
554.30646 631.71106 1.4339993 255 255 255
1501.5546 1475.2372 2.5723641 255 255 255
275.72107 680.53741 1.1925143 255 255 255
1479.0228 1434.4517 1.6986941 255 255 255
-1253.0398 -3680.1265 -6.8155923 255 255 255
263.94711 693.0976 1.1950341 255 255 255
-4424.2549 -6126.0298 -14.806684 255 255 255
593.83881 326.35544 1.2258052 255 255 255
-22494.596 -15496.646 -41.982952 255 255 255
-917.58569 -412.25812 -3.0620222 255 255 255
1113.6921 1415.7124 2.4048417 255 255 255
3276.9609 867.47839 5.7856131 255 255 255
339.84995 587.44287 1.1712255 255 255 255
663.67389 721.1842 1.5970863 255 255 255
1279.9358 1112.2317 1.4637986 255 255 255
337.49789 126.60901 0.64248616 255 255 255
-1115.7715 -353.08783 -2.2101159 255 255 255
179.22931 980.52869 1.3972106 255 255 255
8304.6641 10254.17 20.408184 255 255 255
412.19748 679.0979 1.2997634 255 255 255
760.03723 664.74493 1.7256461 255 255 255
-812.43066 -510.11029 -3.2341475 255 255 255
-420.56314 -461.94995 -2.4275455 255 255 255
16758.334 39262.688 72.692596 255 255 255
279.54614 586.91736 1.117249 255 255 255
-32829.309 -26202.318 -92.456322 255 255 255
-1003.2285 -453.29706 -2.0231669 255 255 255
-1493.4346 -2253.8188 -4.8843632 255 255 255
4228.3711 2729.6387 13.220671 255 255 255
945.52332 905.17041 2.817626 255 255 255
762.75269 582.9444 1.7740594 255 255 255
-1482.9454 -1921.2191 -4.8642306 255 255 255
-1781.8601 -3909.7734 -9.1904325 255 255 255
-2115.5049 -1681.1858 -5.8925924 255 255 255
411.77939 681.16992 1.301308 255 255 255
-295.3118 -379.97275 -1.7842526 255 255 255
778.20721 456.45294 1.4311024 255 255 255
477.40076 172.15265 0.50852388 255 255 255
-634.02386 -1391.3914 -3.4419594 255 255 255
601.98706 692.52649 1.459205 255 255 255
601.84949 392.80258 1.5138451 255 255 255
-1084.6866 -1541.6436 -4.3404112 255 255 255
-2906.5945 -3729.6882 -8.7765236 255 255 255
25457.104 15068.792 30.682625 255 255 255
6593.8779 2518.3823 7.1095662 255 255 255
410.58804 383.51166 1.0168433 255 255 255
559.20551 460.84595 1.4165287 255 255 255
-972.46204 -441.34747 -3.1629133 255 255 255
7013.5024 7190.3589 21.449017 255 255 255
636.76923 439.30142 1.3870802 255 255 255
-802.20654 -1465.2996 -3.8594363 255 255 255
275.379 508.59515 1.0495608 255 255 255
492.9863 877.34088 1.4292028 255 255 255
502.18765 615.80389 1.3447746 255 255 255
-1665.6749 -1812.7955 -6.089776 255 255 255
944.99103 1026.4589 2.9858656 255 255 255
-20456.672 -31930.555 -91.2062 255 255 255
-982.95569 -444.51028 -3.0300961 255 255 255
-2361.1296 -780.35663 -4.1737895 255 255 255
-600.78619 -900.87292 -2.5543365 255 255 255
-532.07947 -1006.8443 -2.6758826 255 255 255
-2155.8262 -3004.3171 -8.4037247 255 255 255
2790.2451 3298.4275 8.5809174 255 255 255
1202.9071 1245.3058 1.3734272 255 255 255
1506.7378 1530.0166 2.5718255 255 255 255
1295.7872 1505.8618 3.1737587 255 255 255
595.36157 515.58258 1.4711308 255 255 255
-642.45605 -1419.4646 -3.2412105 255 255 255
949.86694 570.96515 2.4542968 255 255 255
2567.2561 1593.438 3.6919379 255 255 255
-440.44925 -239.95538 -1.4935036 255 255 255
406.79077 145.47786 0.41109043 255 255 255
591.50299 637.32275 1.483726 255 255 255
-665.32935 -570.99451 -2.8592677 255 255 255
3861.3147 1950.2546 10.311342 255 255 255
4762.0068 15557.324 24.967022 255 255 255
15921.355 16730.18 39.341721 255 255 255
-616.2821 -327.98151 -1.6920165 255 255 255
692.4455 1075.5093 2.3407757 255 255 255
2688.8943 2559.3411 9.6671038 255 255 255
-3456.2104 -2713.9031 -7.0888271 255 255 255
-480.02802 -548.36981 -2.1205795 255 255 255
167.50412 788.96906 1.233492 255 255 255
-741.5033 -758.48926 -2.3955269 255 255 255
591.44562 420.1637 0.66275215 255 255 255
281.45322 479.7663 0.62738955 255 255 255
-10482.232 -6077.1797 -34.752956 255 255 255
-2433.4138 -1612.9135 -5.9792581 255 255 255
-862.4967 -753.65668 -4.1518831 255 255 255
-1157.6694 -1000.7291 -4.4784265 255 255 255
-118.51768 -30.04586 -1.3539245 255 255 255
1254.2069 1839.4756 6.5987678 255 255 255
-2792.032 -2388.5854 -9.7508316 255 255 255
-9574.6523 -9042.2471 -33.905552 255 255 255
1501.9988 1534.6396 2.5667965 255 255 255
2123.2427 1725.1744 6.627317 255 255 255
-1273.5077 -3047.157 -5.8213706 255 255 255
598.52795 747.27075 1.5236415 255 255 255
7797.2212 9581.999 24.698179 255 255 255
582.43701 660.56 1.7650915 255 255 255
4719.0728 11734.53 22.579842 255 255 255
1142.3979 1072.255 2.2074478 255 255 255
-7801.8594 -17600.215 -40.505791 255 255 255
-1115.3568 -797.70312 -3.1079552 255 255 255
726.17548 1071.3157 2.0995188 255 255 255
-1599.9651 -811.09509 -3.2658408 255 255 255
631.55194 524.2019 1.5276731 255 255 255
-4244.8901 -2371.5754 -12.871773 255 255 255
647.7135 685.29816 1.5666631 255 255 255
531.55408 1178.2139 1.6766798 255 255 255
-560.56714 -754.58057 -2.322665 255 255 255
616.9425 521.06464 1.5061288 255 255 255
909.69824 450.89832 1.0595486 255 255 255
2927.2664 2318.9048 11.629793 255 255 255
-510.88138 -529.28235 -1.6708392 255 255 255
-538.30988 -784.35358 -2.4484997 255 255 255
-1161.9329 -2536.1375 -5.203783 255 255 255
-263.76154 -873.7373 -2.849638 255 255 255
-330.01358 -659.12915 -2.3759124 255 255 255
486.11121 554.53601 1.0187128 255 255 255
-460.47974 -279.33643 -1.5108808 255 255 255
-718.71619 -1252.563 -3.1154075 255 255 255
593.33856 1113.266 2.9552004 255 255 255
1504.8817 1502.076 2.5710983 255 255 255
-261.15259 -410.69626 -1.7289517 255 255 255
-1029.8276 -1315.6935 -2.43204 255 255 255
598.94763 467.69705 1.4827754 255 255 255
-569.0553 -303.50171 -1.6832393 255 255 255
642.73901 723.90314 1.5684601 255 255 255
-631.38373 -1100.2037 -3.2410729 255 255 255
-475.77203 -700.81836 -2.3243062 255 255 255
-663.22516 -854.74164 -2.6320295 255 255 255
1777.6016 1739.5027 5.537539 255 255 255
769.22717 841.62079 0.94071782 255 255 255
7179.8989 9786.1875 27.650433 255 255 255
429.78229 405.51678 1.017737 255 255 255
-404.96606 -226.30151 -1.4402043 255 255 255
-933.11554 -890.9151 -5.1932154 255 255 255
704.6814 869.84131 1.714874 255 255 255
-3191.658 -7044.6201 -15.057009 255 255 255
227.15088 681.72296 1.2873392 255 255 255
422.54492 212.5312 0.44158614 255 255 255
313.04874 654.73132 0.93982655 255 255 255
-797.16522 -439.65607 -1.9724349 255 255 255
553.97693 343.39081 1.1855667 255 255 255
-84.510277 -65.044258 -1.3230652 255 255 255
952.88971 647.51886 1.6520277 255 255 255
-2434.1052 -1901.047 -6.7106695 255 255 255
453.89844 830.54401 1.4258602 255 255 255
-1141.3307 -3564.6543 -10.662233 255 255 255
2078.4771 1362.5099 5.2604628 255 255 255
-935.33807 -918.73566 -3.1551223 255 255 255
1017.512 630.62518 2.3969293 255 255 255
432.86182 1179.5004 1.6263683 255 255 255
-1467.1528 -2170.0969 -6.764204 255 255 255
-438.06433 -530.43414 -2.3319192 255 255 255
-2258.9451 -5567.415 -10.354611 255 255 255
-688.40369 -1040.6416 -2.9854116 255 255 255
-663.35461 -319.55334 -2.7270894 255 255 255
346.63513 496.79843 1.2388272 255 255 255
835.28308 743.74939 1.8327612 255 255 255
-2038.8765 -2092.1978 -7.650835 255 255 255
641.93152 341.78183 0.78517699 255 255 255
1948.4417 861.30756 3.3541572 255 255 255
1131.0969 1058.0406 2.1955316 255 255 255
293.87817 369.0275 0.73371583 255 255 255
-3592.6924 -3976.1006 -16.307657 255 255 255
-741.66119 -834.88361 -2.6067286 255 255 255
756.80463 695.09778 1.7209096 255 255 255
-637.92847 -1068.9323 -2.7718654 255 255 255
402.50916 522.52197 1.0707266 255 255 255
-819.2243 -1671.8351 -3.826961 255 255 255
2264.1626 5477.3042 13.802482 255 255 255
-1110.3162 -1511.3618 -3.6104932 255 255 255
1416.0005 1664.4054 2.4783514 255 255 255
984.66547 536.04016 1.2402855 255 255 255
678.15021 423.03488 0.7380991 255 255 255
522.76245 219.51312 0.59390777 255 255 255
1594.7194 201.67557 3.0908666 255 255 255
-367.66577 -336.60983 -1.7116443 255 255 255
479.19797 233.17166 0.51943892 255 255 255
771.03607 861.54395 2.2066913 255 255 255
526.31738 700.104 1.4460708 255 255 255
9136.1426 4450.5596 10.28324 255 255 255
722.5733 469.38718 1.2136369 255 255 255
563.80908 565.92651 0.91078949 255 255 255
-1598.7323 -1366.4901 -4.0493093 255 255 255
-2969.894 -1898.2872 -9.3033867 255 255 255
974.25983 1079.6232 2.0156641 255 255 255
543.54486 235.80315 0.63698411 255 255 255
598.02045 505.02823 1.4769659 255 255 255
3939.7656 2814.1089 4.3229709 255 255 255
1495.6348 1562.1456 2.5561974 255 255 255
1383.286 1283.4526 3.4996226 255 255 255
1240.5018 1439.8065 1.6020945 255 255 255
2726.0261 4008.1572 11.878438 255 255 255
1660.2827 1402.6321 2.0846505 255 255 255
271.78262 390.99997 0.95159435 255 255 255
4773.4863 6801.9185 20.102577 255 255 255
-3648.4534 -3100.6697 -11.279568 255 255 255
822.56091 233.44658 0.80401385 255 255 255
915.81049 707.06976 2.3673768 255 255 255
-419.1265 -990.86029 -2.5055873 255 255 255
464.18585 564.65094 1.0776573 255 255 255
6080.1279 2248.5347 7.0038214 255 255 255
-127716.09 -53038.199 -212.93315 255 255 255
-548.64484 -600.52063 -2.0911307 255 255 255
-593.48724 -472.54074 -1.7409122 255 255 255
635.64325 733.5722 1.5630516 255 255 255
3256.4429 2329.0667 3.9669859 255 255 255
610.71808 415.32428 1.5182366 255 255 255
-528.29962 -1114.6647 -3.0782273 255 255 255
539.93121 403.77606 1.3921422 255 255 255
2168.2266 2012.481 7.1262083 255 255 255
549.2691 390.4136 1.411868 255 255 255
1202.7239 1630.0632 3.5183349 255 255 255
-2160.3813 -1475.9834 -7.7728004 255 255 255
3243.3125 2324.6926 3.9585168 255 255 255
1050.161 1092.5681 3.7927167 255 255 255
-1070.1628 -1907.7771 -4.5736394 255 255 255
487.98529 836.10779 1.4572259 255 255 255
600.16882 327.75009 0.73165238 255 255 255
421.22751 691.776 1.3183405 255 255 255
1505.2994 1518.757 2.5712354 255 255 255
-684.16211 -1072.1132 -3.0489297 255 255 255
-1406.354 -1015.2862 -3.738255 255 255 255
-150784.25 -53257.266 -160.95044 255 255 255
483.29184 543.44897 1.3163979 255 255 255
2901.7363 904.20923 5.0499077 255 255 255
695.73242 953.16705 2.3354456 255 255 255
-730.9212 -779.09979 -2.7219958 255 255 255
5107.5537 2799.2043 10.086679 255 255 255
621.43756 482.76227 1.5195167 255 255 255
-2993.8413 -1237.0052 -5.6581516 255 255 255
-1459.7911 -3644.6975 -6.7005405 255 255 255
-2640.5164 -5485.9541 -10.448142 255 255 255
6067.0596 3382.4158 5.6276841 255 255 255
-23602.361 -41789.531 -82.631569 255 255 255
3570.074 11370.721 18.144075 255 255 255
600.38129 277.15076 2.7022064 255 255 255
444.13931 433.965 1.2284021 255 255 255
467.93265 339.27133 1.2673665 255 255 255
1795.0663 1400.7517 3.8630264 255 255 255
1534.5819 1344.1489 2.6311669 255 255 255
-810.8219 -803.89325 -2.412158 255 255 255
1546.6797 1399.9948 1.6011739 255 255 255
395.76776 424.86679 1.1482946 255 255 255
1825.2769 1593.5719 5.7731829 255 255 255
-311.24677 -144.85263 -1.3812505 255 255 255
4667.2476 1464.7405 6.6449327 255 255 255
456.02966 380.76331 1.2412909 255 255 255
7220.2734 7569.7095 23.914555 255 255 255
-432.94055 -252.91772 -1.468102 255 255 255
-1024.7184 -1114.3054 -3.5417902 255 255 255
-489.87192 -826.85376 -2.3354194 255 255 255
725.86676 771.9425 2.5404696 255 255 255
1612.0004 960.43488 2.1452429 255 255 255
295.41837 1113.6729 1.529855 255 255 255
643.15729 685.45837 1.5604893 255 255 255
-550.68707 -1187.1643 -3.1046832 255 255 255
-905.67847 -242.39003 -2.9346697 255 255 255
703.29022 463.05789 0.79255801 255 255 255
11944.344 7990.0498 30.165226 255 255 255
-3090.8662 -1285.5288 -5.7922287 255 255 255
32027.346 8500.9912 33.518433 255 255 255
-1264.6912 -1646.6348 -4.138031 255 255 255
3555.6531 1103.3918 5.7251439 255 255 255
299.36163 691.53748 1.2172222 255 255 255
14961.195 2700.4019 15.944308 255 255 255
2450.3291 908.05194 4.281466 255 255 255
7587.0186 984.16302 14.894206 255 255 255
825.9613 686.29309 1.824674 255 255 255
671.23206 435.02084 0.74791157 255 255 255
564.34583 306.86685 0.61860269 255 255 255
-6597.9185 -4192.1206 -8.8469448 255 255 255
2387.3806 1481.1764 2.5743942 255 255 255
269.54376 832.67017 1.3091416 255 255 255
2986.5667 2387.2207 9.2396784 255 255 255
-935.61694 -1544.9731 -3.7472017 255 255 255
-748.70233 -1053.2321 -3.0439796 255 255 255
3752.042 2112.8828 4.6118855 255 255 255
-678.67792 -467.06876 -2.2646935 255 255 255
848.61682 714.28284 2.5860412 255 255 255
302.73276 177.29646 0.37553242 255 255 255
3230.4814 1368.4974 4.7828045 255 255 255
284.43762 574.19342 1.1111578 255 255 255
997097.62 384324.28 1055.843 255 255 255
2250.0854 2754.1428 5.3599963 255 255 255
1649.6863 709.81415 3.186579 255 255 255
-642.22229 -773.99786 -2.38904 255 255 255
-1449.0641 -2497.8289 -5.8738217 255 255 255
1370.4017 3390.6182 6.4021153 255 255 255
409.90472 413.34772 1.1674963 255 255 255
638.76062 684.34283 1.5555356 255 255 255
3757.2258 2630.1384 10.784991 255 255 255
3115.8882 7887.6934 14.368874 255 255 255
1398.5668 1652.1182 2.4630513 255 255 255
407.36853 1208.2695 1.6339113 255 255 255
2250.7976 806.58655 6.5838637 255 255 255
1414.8693 1439.9303 1.6977692 255 255 255
-9287.3789 -5622.7192 -12.356277 255 255 255
-604.36865 -729.32428 -2.4944181 255 255 255
1022.9413 1232.551 3.6097331 255 255 255
-536.96692 -1376.1393 -3.2462263 255 255 255
-1167.4283 -712.98975 -2.4713974 255 255 255
-504.95578 -746.03412 -2.2635558 255 255 255
-7002.668 -7196.5864 -27.113138 255 255 255
5413.752 2651.1885 5.7566991 255 255 255
-8587.5713 -7205.1455 -29.830963 255 255 255
630.47528 316.14505 0.64147407 255 255 255
5606.1431 2708.6399 5.895875 255 255 255
306.20563 605.15472 1.1556966 255 255 255
2497.8911 1529.4635 3.6644583 255 255 255
-1536.8945 -2661.832 -6.095655 255 255 255
1093.7695 654.75061 3.2332728 255 255 255
123.97064 94.546608 0.43047881 255 255 255
-504.40686 -267.28299 -1.5807595 255 255 255
905.72125 1396.7634 3.1208568 255 255 255
308.26056 652.47192 1.1930755 255 255 255
127739.09 91055.352 215.9763 255 255 255
-1233.7999 -1344.587 -4.2249656 255 255 255
3291.9265 1612.585 10.033439 255 255 255
-1750.0002 -1113.8085 -8.7129555 255 255 255
-1094.3916 -998.33832 -2.5217302 255 255 255
-1053.6062 -280.83588 -2.0178964 255 255 255
931.41687 947.06305 3.0377822 255 255 255
2864.7468 5526.4585 11.70753 255 255 255
382.88486 538.12256 1.1857105 255 255 255
-271.72702 -147.69968 -1.3077458 255 255 255
2850.2251 2706.6155 9.3836479 255 255 255
-1962.083 -1184.8536 -5.9512887 255 255 255
-1307.1353 -883.94763 -4.6908531 255 255 255
459.01364 436.74847 0.81192362 255 255 255
808.68707 523.61212 0.87336969 255 255 255
-596.89008 -524.42017 -1.7487204 255 255 255
410.56116 481.37881 1.1920129 255 255 255
1957.4758 1939.9799 5.332911 255 255 255
3515.0327 1828.1061 4.6123209 255 255 255
1512.757 2718.0039 6.881588 255 255 255
2753.1038 1687.1973 3.8501525 255 255 255
379.62912 785.53229 1.3403982 255 255 255
788.28705 425.0719 1.8604159 255 255 255
-2686.0864 -2268.7468 -5.5618539 255 255 255
-1555.2651 -2939.9661 -6.3945303 255 255 255
-1316.6316 -1829.8297 -5.9743056 255 255 255
448.60565 566.17737 0.59029108 255 255 255
1090.2673 812.73425 2.9612613 255 255 255
636.84583 750.81567 1.5690936 255 255 255
650.80396 429.0094 1.5887196 255 255 255
-1783.724 -843.62097 -6.1014457 255 255 255
-687.62366 -816.64703 -2.6664817 255 255 255
-679.70715 -531.84583 -1.8417246 255 255 255
18.702585 187.14702 0.44590124 255 255 255
-467.68076 -554.05017 -1.9759312 255 255 255
441.18027 194.65308 0.4718765 255 255 255
241.36194 392.39368 0.9162733 255 255 255
1198.1411 1313.6669 3.3811684 255 255 255
279.80527 587.28442 1.1177429 255 255 255
-566.7865 -1097.7294 -2.8228521 255 255 255
-2093.5037 -3091.8413 -6.2811217 255 255 255
676.81189 636.54517 1.5355505 255 255 255
299.95538 689.50598 1.2154542 255 255 255
411.87915 678.45007 1.2984492 255 255 255
548.18127 264.92029 0.57813013 255 255 255
-946.60907 -1376.1356 -3.8883746 255 255 255
1499.2756 1564.6989 2.5636702 255 255 255
756.27924 561.99567 1.731073 255 255 255
548.07245 401.60275 1.4063333 255 255 255
423.28607 138.04552 0.47301981 255 255 255
2526.5642 2116.1333 8.3218508 255 255 255
273.651 388.42001 0.95344609 255 255 255
-610.82648 -468.12891 -1.7121656 255 255 255
573.95105 779.82892 1.5096163 255 255 255
-3394.2954 -1232.2529 -6.7830749 255 255 255
489.83813 480.99268 1.3097535 255 255 255
-109.10406 -389.79968 -1.659408 255 255 255
580.28918 554.57916 1.4524 255 255 255
792.6806 1303.3274 1.9010074 255 255 255
-662.63867 -986.70831 -2.6894529 255 255 255
328.34808 983.22998 1.4487418 255 255 255
-681.62427 -481.42801 -2.2827499 255 255 255
7472.1831 8417.6104 24.542669 255 255 255
-4081.2107 -2754.8315 -7.1382337 255 255 255
1435.5532 950.98511 4.0799551 255 255 255
779.5675 743.01666 1.8908634 255 255 255
-243.69031 -429.46552 -1.9283781 255 255 255
-955.32147 -753.66003 -2.1287668 255 255 255
292.65048 576.09338 1.1209378 255 255 255
1276.0228 1692.7849 1.9064276 255 255 255
3597.5005 3096.2788 7.2764988 255 255 255
1169.974 1017.812 1.2938213 255 255 255
400.7865 380.62177 1.1427288 255 255 255
2157.8171 2536.1641 5.945744 255 255 255
549.35602 449.14371 1.4004302 255 255 255
-944.7973 -799.0816 -3.4858115 255 255 255
481.29956 539.80371 1.3103185 255 255 255
18433.436 19228.623 54.414825 255 255 255
618.10358 300.4238 0.66316694 255 255 255
916.12213 1141.0825 2.3964868 255 255 255
27962.604 26777.002 100.21704 255 255 255
1453.6875 1440.751 1.6705164 255 255 255
4978.9224 11707.952 17.754255 255 255 255
-8820.2373 -4152.7832 -10.584496 255 255 255
-611.44263 -324.57761 -1.6874603 255 255 255
2563.2012 1977.4781 6.5806298 255 255 255
824.29358 721.45172 2.335587 255 255 255
-1114.7072 -1851.6989 -4.8944674 255 255 255
-3544.6384 -8749.5801 -15.709506 255 255 255
7274.8291 6727.7236 20.403885 255 255 255
455.93478 1239.5946 1.6733321 255 255 255
-3170.7859 -6846.4141 -16.425179 255 255 255
-2218.0396 -991.74915 -6.6709352 255 255 255
677.19617 460.60144 1.621423 255 255 255
304.92938 597.74701 1.1474543 255 255 255
8435.582 7455.1929 25.943106 255 255 255
499.03238 235.29359 0.59803087 255 255 255
-1181.5072 -2073.9885 -4.9291511 255 255 255
605.05688 399.20276 1.8059423 255 255 255
483.14236 1259.8826 1.6967901 255 255 255
2285.9783 4165.3496 10.703623 255 255 255
-138121.34 -116501.48 -290.60501 255 255 255
-582.38965 -391.2587 -1.7318906 255 255 255
3046.5198 2769.499 9.6421461 255 255 255
643.16412 519.58972 1.5491802 255 255 255
2360.9785 880.45587 5.5337253 255 255 255
301.37811 588.48804 1.1380395 255 255 255
-802.48779 -735.94757 -2.0087109 255 255 255
466.52502 1102.6823 1.5987157 255 255 255
6895.6001 2788.8777 7.0285258 255 255 255
25544.037 15136.369 30.804493 255 255 255
1818.327 1347.0903 3.8192568 255 255 255
696.90265 493.22031 1.6615899 255 255 255
22229.379 11775.061 49.118969 255 255 255
286.44662 587.56683 1.1246848 255 255 255
-678.48547 -498.19022 -3.5452797 255 255 255
-508.8772 -499.21017 -2.0140624 255 255 255
-3012.7515 -5459.1055 -12.425056 255 255 255
671.28955 684.79523 1.5999165 255 255 255
6594.5151 2521.1001 7.1131573 255 255 255
345.53027 648.66571 1.2195863 255 255 255
-873.85846 -781.64899 -3.3936515 255 255 255
-627.09064 -744.07904 -2.470433 255 255 255
-814.25012 -1267.937 -3.7375968 255 255 255
2740.8914 1686.1133 3.8327947 255 255 255
413.7236 1744.2471 2.7976959 255 255 255
5513.0986 2222.4553 6.4130883 255 255 255
-589.20465 -759.18805 -2.5984874 255 255 255
3628.4221 1337.1476 5.3918047 255 255 255
7280.3628 2112.3069 8.7335272 255 255 255
891.56476 801.80707 2.5461283 255 255 255
1323.4158 1718.0272 5.0587668 255 255 255
282.60492 578.54767 1.1132046 255 255 255
892.05347 540.96344 1.9804682 255 255 255
-436.75748 -268.55179 -1.5352432 255 255 255
303.85806 595.09357 1.1446139 255 255 255
945.00201 197.50858 1.0112783 255 255 255
-539.73102 -327.37595 -1.6875945 255 255 255
-3365.0942 -2413.1399 -6.302783 255 255 255
-696.19611 -969.16821 -3.1675429 255 255 255
611.67401 770.67963 1.5466714 255 255 255
4089.5403 950.72095 4.2483807 255 255 255
332.47961 896.88727 1.3874894 255 255 255
-799.2973 -940.31378 -2.8753235 255 255 255
889.05182 972.10181 0.99520296 255 255 255
-1324.6234 -1500.7639 -5.4993715 255 255 255
319.29413 505.9953 1.093601 255 255 255
11501.74 5889.6157 35.838898 255 255 255
-301.2995 -325.01965 -1.5943738 255 255 255
3075.0535 3416.3857 9.9844446 255 255 255
2753.207 1964.2109 3.8980889 255 255 255
-5515.7148 -2457.7705 -8.5083933 255 255 255
1476.1013 1339.5336 4.2868257 255 255 255
24796.336 61639.637 99.894844 255 255 255
794.97113 797.08398 1.7779344 255 255 255
-543.65283 -602.41022 -2.0646105 255 255 255
-793.84625 -471.11334 -1.9078374 255 255 255
295.12323 264.6727 0.91520786 255 255 255
1047.3352 750.57471 3.0529594 255 255 255
909.80304 994.91443 1.9386995 255 255 255
455.17157 400.43115 1.2398752 255 255 255
-506.24646 -424.99918 -1.600265 255 255 255
5732.9062 2696.9128 6.0296321 255 255 255
827.81384 338.92557 0.84515405 255 255 255
-4904.9956 -1844.4086 -5.7493176 255 255 255
211.48132 140.88483 0.22569899 255 255 255
-1283.2649 -3033.0024 -5.9239702 255 255 255
964.99176 137.35078 1.047201 255 255 255
511.26956 509.64978 1.3448958 255 255 255
678.81085 934.77655 1.6745428 255 255 255
4380.2139 2887.1526 4.6493263 255 255 255
1163.7786 643.31757 1.4475794 255 255 255
1774.757 1344.0709 2.1534097 255 255 255
5557.2666 3130.7122 18.523159 255 255 255
-1343.8718 -1311.7657 -4.2971225 255 255 255
-723.74359 -1403.4827 -3.3303092 255 255 255
-686.61462 -812.66669 -2.8264177 255 255 255
-1832.8762 -917.14508 -6.3532815 255 255 255
9096.0664 2467.2974 9.9373703 255 255 255
1646.262 2187.386 5.6898799 255 255 255
357.13757 1284.514 2.3228774 255 255 255
10285.197 6917.9053 18.00997 255 255 255
4508.188 3677.4575 15.097877 255 255 255
1530.7643 1345.0729 4.5910292 255 255 255
532.41602 699.75 1.4345897 255 255 255
-98994.086 -39523.656 -313.10754 255 255 255
1151.2736 2570.803 4.5082841 255 255 255
-698.50104 -1133.1833 -3.2107723 255 255 255
516.38177 526.09064 1.356266 255 255 255
9324.5684 2720.0562 9.5966902 255 255 255
-949.97839 -732.3064 -2.2642851 255 255 255
433.45172 297.27527 0.46902612 255 255 255
-562.11938 -208.73051 -1.5722721 255 255 255
621.52533 478.5112 1.5200753 255 255 255
537.11121 209.89397 0.55139971 255 255 255
1504.6907 1502.434 2.5711479 255 255 255
-546.40564 -304.43262 -1.6763233 255 255 255
972.09497 870.23242 2.5165064 255 255 255
-2282.9761 -4892.9951 -9.1075459 255 255 255
601.78912 78.871269 0.63272786 255 255 255
-171.77797 -388.37799 -1.7068551 255 255 255
54100.09 179857.55 317.42422 255 255 255
-1442.8759 -2218.0496 -4.7876587 255 255 255
1070.5925 934.23425 3.139097 255 255 255
2306.4351 1251.8463 3.6466818 255 255 255
548.84528 335.94852 1.63016 255 255 255
451.55392 477.99576 1.2516811 255 255 255
-33516.062 -14356.352 -64.436096 255 255 255
-929.76556 -1015.6736 -4.2269883 255 255 255
-714.98285 -591.54645 -2.8580854 255 255 255
-1243.8219 -425.59232 -2.3516865 255 255 255
-590.5448 -1251.9949 -3.0182056 255 255 255
3754.8394 2093.5039 7.2714572 255 255 255
3396.686 2229.7998 4.1560817 255 255 255
-497.78186 -329.19476 -1.576987 255 255 255
668.69019 713.11963 1.6015939 255 255 255
1028.5063 828.46014 2.2954433 255 255 255
2666.8706 2173.8425 10.352525 255 255 255
5348.8745 2238.3345 6.2199039 255 255 255
290.01682 1896.8857 3.7551291 255 255 255
-8420.1943 -3591.3364 -26.045031 255 255 255
-521.53723 -452.32034 -2.5027318 255 255 255
707.97925 882.13416 1.6883495 255 255 255
-219.27516 -668.20911 -2.0859358 255 255 255
11164.075 3370.324 11.88988 255 255 255
-4319.4858 -5925.5825 -17.596071 255 255 255
372.7464 202.87973 0.4101567 255 255 255
1138.6707 975.79663 3.6208658 255 255 255
-648.40015 -1035.3284 -2.9525523 255 255 255
488.38565 570.2406 1.2012351 255 255 255
624.5368 270.35672 0.66379219 255 255 255
919.26129 590.93884 1.2436197 255 255 255
2564.4871 1594.9735 3.688868 255 255 255
1837.2321 1613.9373 2.8877666 255 255 255
-1121.4869 -756.19098 -3.9487565 255 255 255
983.62799 1019.4476 3.1023703 255 255 255
-1438.3354 -3166.7251 -7.0158825 255 255 255
-507.66394 -158.48395 -1.5893661 255 255 255
-204.75298 -432.95624 -1.8676246 255 255 255
673.53711 1039.5088 2.8610668 255 255 255
609.15979 845.85864 1.7666224 255 255 255
-560.79828 -481.54129 -1.6836245 255 255 255
-651.13159 -562.67053 -1.7959045 255 255 255
2565.3091 4382.123 12.754509 255 255 255
1490.6722 1502.5341 2.5579853 255 255 255
902.2832 710.12476 1.1658456 255 255 255
3084.541 2517.5586 3.7408957 255 255 255
1738.9115 1409.6653 2.2145929 255 255 255
-4255.3247 -7115.5137 -13.228603 255 255 255
548.547 708.27277 1.4551814 255 255 255
-2889.26 -4140.6865 -9.1454525 255 255 255
-321.57068 -614.22662 -2.1134949 255 255 255
-708.80475 -873.19983 -2.5378704 255 255 255
7712.1025 12999.37 27.235395 255 255 255
467.92554 744.86243 1.3924756 255 255 255
404.64792 669.43549 1.2860869 255 255 255
5964.1245 2607.4094 6.349719 255 255 255
2884.6406 3277.2544 7.8315792 255 255 255
-551.44537 -419.59738 -1.6336724 255 255 255
3703.7605 1471.2123 5.2776837 255 255 255
578.78375 725.15265 1.4930831 255 255 255
-1086.7024 -1782.8502 -4.3696899 255 255 255
250.48502 642.04858 1.1432477 255 255 255
-1275.5293 -1196.5991 -4.9871488 255 255 255
1642.4521 617.29773 4.8031569 255 255 255
508.12537 487.78397 1.3096628 255 255 255
-835.38885 -288.81177 -2.8432984 255 255 255
1682.2611 1486.385 1.8642967 255 255 255
640.55115 683.14136 2.1774244 255 255 255
282.93927 571.10785 1.1100478 255 255 255
1504.2146 1483.6667 2.5755982 255 255 255
3772.2686 2119.6194 4.6268721 255 255 255
-1700.5258 -2899.0061 -6.4735808 255 255 255
-915.17218 -1153.7905 -2.8729656 255 255 255
-1006.4662 -1413.5222 -2.6063316 255 255 255
521.12439 465.99713 0.61170036 255 255 255
719.34692 475.83539 0.76544273 255 255 255
317.26031 322.7106 0.97913319 255 255 255
348.20224 938.37268 1.426399 255 255 255
8675.293 2983.0859 8.4169626 255 255 255
985.41327 806.62836 2.0387418 255 255 255
-559.64465 -406.38046 -1.692687 255 255 255
-628.14893 -770.70422 -2.5382507 255 255 255
879.60742 611.76929 0.96879512 255 255 255
-752.82288 -667.60529 -1.9118385 255 255 255
-31503.723 -12124.517 -34.184345 255 255 255
463.64935 368.30075 1.2552166 255 255 255
-407.07767 -272.90399 -1.5413504 255 255 255
-717.31659 -469.65115 -1.9446709 255 255 255
-393.74731 -774.14075 -2.6774592 255 255 255
432.92871 1177.0502 1.6246603 255 255 255
780.71008 373.09424 0.89425385 255 255 255
-544.18176 -354.54099 -1.6204616 255 255 255
326.89542 213.4646 0.39423513 255 255 255
2287.5793 1243.9124 3.6254895 255 255 255
-2136.6328 -884.63763 -7.0296311 255 255 255
-513.1969 -534.23956 -1.9553647 255 255 255
4048.5928 2210.5283 10.803013 255 255 255
1281.6786 1396.8787 1.4394352 255 255 255
-565.20514 -987.29602 -2.5792642 255 255 255
1504.3153 1529.0094 2.5687869 255 255 255
211.19577 414.68063 0.69989067 255 255 255
-759.94165 -810.60004 -3.0110102 255 255 255
-489.16232 -209.89592 -1.4892454 255 255 255
-611.90082 -607.93231 -1.8782744 255 255 255
-2267.0664 -3722.5498 -7.4996319 255 255 255
1715.6349 936.39545 4.2709846 255 255 255
-1186.6506 -902.35547 -2.5302017 255 255 255
476.78543 551.47589 1.3707008 255 255 255
386.75317 461.20233 1.1970063 255 255 255
-8810.9727 -7464.3638 -32.286907 255 255 255
489.41556 365.94467 0.54234499 255 255 255
1153.7332 1065.8699 3.4138801 255 255 255
1210.1578 881.64862 3.5137036 255 255 255
1091.8455 1734.8645 3.0060782 255 255 255
-708.36804 -1026.051 -3.1512523 255 255 255
871.75195 821.25122 1.8281933 255 255 255
2690.7532 3883.3347 8.6285954 255 255 255
-586.39856 -777.7854 -2.3419263 255 255 255
667.84717 971.03467 2.0410376 255 255 255
963.86536 230.56978 1.0364268 255 255 255
-1285.0593 -1131.1826 -3.5796115 255 255 255
-1698.1302 -1457.9966 -3.1455195 255 255 255
-12090.062 -4218.0737 -12.865243 255 255 255
2263.8889 2036.1832 6.0460029 255 255 255
-446.05185 -400.57492 -2.3702726 255 255 255
-5005.6401 -3242.7744 -9.4513483 255 255 255
462.83765 741.85919 1.3856547 255 255 255
1615.8342 1073.2932 3.2899919 255 255 255
459.64688 426.7674 1.20348 255 255 255
-817.05389 -1402.1761 -3.6340041 255 255 255
1125.434 3981.3733 5.7947283 255 255 255
1744.6697 746.95844 2.3256857 255 255 255
1818.593 3373.6448 5.7010655 255 255 255
6494.2402 2527.1597 7.0008068 255 255 255
584.85449 598.3858 1.0996034 255 255 255
758.17548 852.61536 0.79946542 255 255 255
-4377.2241 -3556.9768 -6.2724228 255 255 255
-4783.3765 -5178.46 -8.509347 255 255 255
559.15973 692.46729 1.4613743 255 255 255
-1825.0587 -3306.3699 -6.1706738 255 255 255
3141.6663 1570.8125 7.1790009 255 255 255
4780.165 6477.1587 12.109205 255 255 255
352.94431 914.49335 1.4138635 255 255 255
3897.2373 1457.7153 5.5576801 255 255 255
681.27179 592.4903 1.6084738 255 255 255
-1197.5851 -1313.2904 -2.6238027 255 255 255
-1460.9453 -1422.9906 -2.9152477 255 255 255
-432.75482 -624.85693 -2.217165 255 255 255
-115492.88 -224812.47 -410.60782 255 255 255
1570.4557 4508.5283 8.5227556 255 255 255
-11118.938 -6058.0698 -38.764462 255 255 255
205.49538 110.90319 0.42699462 255 255 255
444.5441 297.22632 0.52354836 255 255 255
349.24741 399.59921 0.6237151 255 255 255
592.41821 873.89832 1.5706489 255 255 255
684.67865 1048.3438 1.7195414 255 255 255
1004.3513 846.31189 2.0527236 255 255 255
-1134.5513 -976.2594 -6.0447516 255 255 255
-1105.8199 -2050.1206 -5.0236859 255 255 255
-506.01715 -404.70209 -2.2184238 255 255 255
5054.9648 2098.6143 12.72045 255 255 255
-2921.3381 -2015.4165 -12.809637 255 255 255
704.90784 878.15381 1.6830565 255 255 255
600.177 359.85345 0.64934945 255 255 255
528.01703 543.70978 1.1573732 255 255 255
3530.281 1833.4241 4.6230025 255 255 255
-1102.4923 -1289.098 -3.5142667 255 255 255
590.12433 482.15244 0.72672296 255 255 255
-935.79175 -889.07648 -3.5932658 255 255 255
591.70892 765.40399 2.262234 255 255 255
548.68542 390.42123 1.4102976 255 255 255
-1630.2773 -1665.0148 -6.3597698 255 255 255
423.60379 331.41638 0.46021098 255 255 255
-11718.03 -3750.7249 -15.24029 255 255 255
-1694.9623 -786.93127 -4.8404355 255 255 255
5679.4229 2666.3994 5.9906883 255 255 255
2050.6819 1227.2115 4.6364431 255 255 255
2024.6428 2583.6841 8.172761 255 255 255
11818.756 2000.7747 15.025522 255 255 255
406.73297 383.28986 1.153841 255 255 255
-614.47345 -355.1778 -2.849788 255 255 255
-609.44501 -938.10614 -3.1550102 255 255 255
7248.5962 5665.7974 23.597996 255 255 255
4097.3506 3351.8979 11.551301 255 255 255
1703.6206 2136.6287 5.369185 255 255 255
1692.3058 4045.873 6.8110089 255 255 255
-6555.79 -8666.8682 -23.992371 255 255 255
487.48041 835.93616 1.4566116 255 255 255
1162.6299 1331.3282 1.3887564 255 255 255
1140.0808 1520.5204 3.6514525 255 255 255
-920.08832 -902.94171 -2.1479361 255 255 255
640.88574 686.39453 1.5599439 255 255 255
1354.1152 1222.625 1.4690412 255 255 255
-849.91895 -3320.2966 -6.2580566 255 255 255
49869.727 17197.453 99.491173 255 255 255
