ply
format ascii 1.0
comment PCL generated
element vertex 1106
property float x
property float y
property float z
property uchar red
property uchar green
property uchar blue
element face 0
element camera 0
property float view_px
property float view_py
property float view_pz
property float x_axisx
property float x_axisy
property float x_axisz
property float y_axisx
property float y_axisy
property float y_axisz
property float z_axisx
property float z_axisy
property float z_axisz
property float focal
property float scalex
property float scaley
property float centerx
property float centery
property int viewportx
property int viewporty
property float k1
property float k2
end_header
34254.523 12756.078 38.088718 255 255 255
5535.21 3352.7935 9.4858923 255 255 255
150.64992 332.23575 0.95231515 255 255 255
-890.05725 -825.57574 -2.1728292 255 255 255
248.62123 290.18591 0.38747412 255 255 255
593.05933 749.97791 1.0330127 255 255 255
-645.86224 -602.37561 -2.0190079 255 255 255
-360.9863 -440.65509 -1.6191455 255 255 255
1363.826 623.57104 1.6089765 255 255 255
13580.984 8910.5332 15.986536 255 255 255
1045.8251 694.55444 2.9297998 255 255 255
-2783.0291 -946.6167 -10.323545 255 255 255
616.11572 458.41663 0.78838873 255 255 255
2747.7283 2986.9231 5.0216627 255 255 255
574.32147 886.17365 1.507918 255 255 255
5857.7891 4829.8052 8.2519884 255 255 255
-947.20026 -406.68607 -2.030741 255 255 255
-559.78308 -226.07564 -1.7412661 255 255 255
7380.168 5016.1138 9.9300604 255 255 255
345.13187 608.26697 1.5142254 255 255 255
-1925.3171 -1433.9037 -3.686811 255 255 255
-446.00531 -354.85764 -1.5511121 255 255 255
-49979.785 -24329.359 -62.574169 255 255 255
-463.25415 -326.50497 -1.5812285 255 255 255
604.57385 653.08844 1.9677433 255 255 255
-264.83841 -265.08926 -1.4259101 255 255 255
1592.1489 873.72046 1.9514664 255 255 255
-600.87714 -464.69724 -1.8098047 255 255 255
661.0473 398.64197 0.91139358 255 255 255
-629.22656 -531.44751 -1.7554473 255 255 255
7429.0205 5005.7979 9.4959326 255 255 255
691.98004 630.73785 0.98968893 255 255 255
23563.531 9532.6611 27.339342 255 255 255
7192.5527 4823.2812 9.8138647 255 255 255
-2365.6191 -4136.8052 -9.553256 255 255 255
-493.84024 -331.87619 -1.6282538 255 255 255
716.42084 659.52795 2.1914876 255 255 255
602.04419 614.63086 1.9568895 255 255 255
-14533.343 -9347.8369 -19.283112 255 255 255
1951.6442 1707.4683 2.6123114 255 255 255
684.67902 464.60809 1.7487003 255 255 255
-7858.6206 -3238.2991 -11.266214 255 255 255
43631.738 15563.557 47.249161 255 255 255
-4218.897 -2393.344 -5.4126782 255 255 255
7313.8228 5261.1631 9.7635031 255 255 255
-462.06433 -230.87541 -1.560729 255 255 255
344.72961 720.18597 2.2509589 255 255 255
3019.8159 8751.0703 17.29228 255 255 255
8612.1484 4956.9058 10.150743 255 255 255
566.03357 338.97794 0.75284344 255 255 255
5384.3643 4785.4702 7.3372226 255 255 255
11489.523 6940.4917 13.95186 255 255 255
-2048.9067 -2029.5175 -4.4348593 255 255 255
995.505 835.44147 2.7190313 255 255 255
12717.452 10030.664 38.234909 255 255 255
590.55804 215.6225 0.637586 255 255 255
-1442.1173 -922.93457 -3.7077141 255 255 255
1364.6135 638.51001 3.9276328 255 255 255
10641.119 5626.0874 11.785754 255 255 255
416806.12 89401.961 478.55634 255 255 255
-1660.1462 -1051.0146 -6.2054915 255 255 255
17654.76 12066.449 26.549696 255 255 255
1095.6725 694.75244 3.0543494 255 255 255
11152.314 5975.4854 12.911726 255 255 255
10606.046 12006.425 41.204109 255 255 255
4133.3257 5772.2837 12.925285 255 255 255
747.3111 572.42664 2.2927449 255 255 255
6539.9272 4885.1807 8.9906321 255 255 255
-1018.6243 -949.8775 -2.8111713 255 255 255
6894.9453 4789.2568 9.4613991 255 255 255
-533.34399 -372.5257 -1.6219592 255 255 255
464.98514 164.44374 0.60162854 255 255 255
-2629.3152 -1345.505 -4.0393543 255 255 255
-698.43268 -281.76923 -2.2809503 255 255 255
353.39938 394.6575 1.3818852 255 255 255
939.03925 661.94958 2.6948478 255 255 255
-351.96179 -486.91412 -2.5187049 255 255 255
333.13541 601.3692 1.4938062 255 255 255
6181.7798 5362.624 8.3704615 255 255 255
10858.167 6710.8931 13.049105 255 255 255
8323.5752 4139.145 9.1235685 255 255 255
5410.4419 2692.5474 8.9469824 255 255 255
390.21262 292.23157 0.90349394 255 255 255
462.45343 561.49084 1.4142905 255 255 255
-1315.4072 -562.63251 -5.2537837 255 255 255
1650.3433 728.61121 2.1040621 255 255 255
-4986.0015 -2773.2019 -18.747229 255 255 255
8848.0801 6096.6455 11.24976 255 255 255
24572.42 8913.3613 29.233862 255 255 255
-495.25879 -278.32776 -1.6318049 255 255 255
-764.19165 -564.60071 -2.1075828 255 255 255
-535.64777 -391.42142 -1.6711111 255 255 255
23351.557 8718.8896 27.816696 255 255 255
697.62982 222.4978 0.86444652 255 255 255
7494.8779 5096.9058 8.9241896 255 255 255
938.48621 681.43066 2.6822968 255 255 255
189.81718 453.70963 1.1620545 255 255 255
-486.54343 -431.92755 -1.595243 255 255 255
3018.1401 4466.8389 11.485547 255 255 255
8171.7046 6001.8105 10.570017 255 255 255
-409.3472 -321.59058 -1.6005448 255 255 255
1032.9143 857.12048 2.7860796 255 255 255
-1051.0908 -708.83679 -2.6471064 255 255 255
34598.723 12793.344 38.474243 255 255 255
6271.5952 4899.5723 8.6819429 255 255 255
1891.9767 926.19598 4.5856061 255 255 255
4898.5093 3982.8157 7.3626637 255 255 255
24689.812 8953.667 29.432371 255 255 255
-398.45813 -238.10518 -1.5464581 255 255 255
-852.02869 -1339.8063 -3.9690044 255 255 255
-1051.2339 -1012.9397 -2.4789155 255 255 255
540.19397 314.45508 0.93665385 255 255 255
1495.5433 722.88489 4.0841312 255 255 255
-948.74457 -521.88989 -2.1937542 255 255 255
-1629.1458 -741.17523 -6.657959 255 255 255
-3444.0657 -2808.1626 -8.8132524 255 255 255
782.36536 991.4165 2.762526 255 255 255
8483.3369 5708.0303 10.965059 255 255 255
1410.036 1278.0895 4.2455492 255 255 255
6594.5615 4852.3101 9.0720091 255 255 255
9060.6504 6431.4482 12.221894 255 255 255
293.19022 512.44971 1.4253064 255 255 255
561.75989 258.32086 0.64168942 255 255 255
431.67816 304.83292 0.55391908 255 255 255
1870.9659 989.60376 4.4962559 255 255 255
2521.5039 2316.335 8.4236975 255 255 255
670.24109 572.69403 2.1064737 255 255 255
-2629.9968 -1054.7101 -4.3042884 255 255 255
40038.789 7611.9224 41.950916 255 255 255
-888.73895 -556.30139 -2.0868866 255 255 255
282.05518 295.07935 0.38781503 255 255 255
557.10571 556.96375 1.8602057 255 255 255
192740.69 70957.062 236.54506 255 255 255
7959.2109 5546.7227 10.422259 255 255 255
720.51514 765.9386 1.1162282 255 255 255
1087.1158 838.43518 2.9061539 255 255 255
183.6516 571.698 1.3008866 255 255 255
-102141.33 -38843.133 -112.8381 255 255 255
7424.5303 4029.1394 10.656401 255 255 255
-3334.9858 -2109.7993 -5.9102607 255 255 255
-294.29745 -243.91542 -1.4587733 255 255 255
-682.34918 -566.47601 -2.0401533 255 255 255
7192.1616 2893.6174 11.728798 255 255 255
19085.297 9373.7744 21.601723 255 255 255
437.58145 282.46988 0.59739101 255 255 255
2329.2419 1438.2971 7.5258026 255 255 255
17697.104 8823.0264 20.290361 255 255 255
-2136.0908 -856.94904 -4.8185167 255 255 255
-770.2514 -1317.2456 -2.6717103 255 255 255
16474.982 8332.1992 19.144409 255 255 255
716.98553 656.65839 2.1920218 255 255 255
-12235.186 -5382.2935 -14.138903 255 255 255
-9180.4023 -4370.1714 -10.578963 255 255 255
764.80127 517.94659 0.93858218 255 255 255
-1342.6267 -1477.8734 -5.1897635 255 255 255
14645.291 6072.4468 18.573357 255 255 255
4041.5996 3962.0354 6.3968201 255 255 255
3244.5125 1575.2401 6.5928707 255 255 255
391.45001 351.2504 0.52541697 255 255 255
13611.201 8929.9062 16.02631 255 255 255
-561.43188 -894.13684 -2.1697195 255 255 255
-5476.1621 -2023.1041 -7.2207885 255 255 255
21051.996 9761.4551 23.801884 255 255 255
-2269.3955 -2057.686 -4.168015 255 255 255
1399.2863 724.44647 3.8239946 255 255 255
-367.0961 -230.82324 -1.5353242 255 255 255
-566.85339 -245.28883 -1.7506908 255 255 255
43.568951 256.69604 0.70376956 255 255 255
13272.249 7113.29 16.028694 255 255 255
71.719345 272.88821 0.75948131 255 255 255
-48874.812 -27810.002 -59.540691 255 255 255
2048.2747 2188.2256 6.6581264 255 255 255
556.59668 703.33545 1.8146346 255 255 255
3443.1721 3071.1519 4.8680062 255 255 255
-1342.8918 -1427.4491 -2.9168558 255 255 255
22842.438 9163.3545 26.705978 255 255 255
-818.3927 -568.85034 -2.2127488 255 255 255
1342.0107 1523.5693 3.5262454 255 255 255
1903.501 979.90381 4.5868812 255 255 255
3755.041 3795.0872 6.1212139 255 255 255
15375.753 5405.2197 21.23929 255 255 255
6794.4126 4808.9365 9.3309822 255 255 255
1162.4695 1421.9048 2.9506409 255 255 255
184620.75 40207.18 222.94087 255 255 255
922.54279 855.86969 1.833626 255 255 255
778.35846 1013.2202 2.3573394 255 255 255
-4909.2427 -2608.3259 -8.697175 255 255 255
-816.83203 -390.13132 -1.9261239 255 255 255
1056.375 828.6936 2.8535516 255 255 255
-889.4682 -574.85144 -2.2594326 255 255 255
-384.68134 -330.33905 -1.6697742 255 255 255
-785.15582 -543.67499 -2.1073375 255 255 255
-345.16309 -134.89572 -1.3930345 255 255 255
1285.8286 1079.2072 1.8842483 255 255 255
356.70837 68.389275 0.37129247 255 255 255
590.6944 584.67822 1.9299712 255 255 255
8333.5928 5812.3125 10.79361 255 255 255
10725.052 8109.4502 15.730717 255 255 255
-298.52435 -167.19617 -1.4071206 255 255 255
138.06169 538.75964 1.2179325 255 255 255
1832.2174 916.99548 4.5254512 255 255 255
-183679.5 -35862.406 -197.00681 255 255 255
-2319.8264 -2578.4041 -4.9687805 255 255 255
622.7923 211.72845 0.68385303 255 255 255
2614.9707 2117.5112 3.703054 255 255 255
-2236.1465 -3109.3306 -8.0614042 255 255 255
-712.65802 -930.51031 -2.213093 255 255 255
14253.165 9484.541 16.626114 255 255 255
771.2915 589.68939 2.3385057 255 255 255
2022.0973 801.91364 5.4415011 255 255 255
1988.7722 794.31177 5.3804116 255 255 255
-6329.1812 -7299.4297 -19.826046 255 255 255
317.13992 286.10281 0.45890975 255 255 255
593.8277 614.57397 0.8913644 255 255 255
1025.124 719.43964 2.8527875 255 255 255
439.95517 299.88254 0.83215559 255 255 255
646.26904 605.6076 2.0496776 255 255 255
87.619774 210.78473 0.32883117 255 255 255
1218.3378 1147.1598 1.9677801 255 255 255
3271.4246 2845.1624 4.0757332 255 255 255
790.14453 659.88654 2.3542604 255 255 255
4857.9033 5459.7437 8.3570004 255 255 255
-153104.45 -27684.75 -175.32059 255 255 255
3795.1821 3794.2639 6.148952 255 255 255
-345830.78 -85694.133 -428.10181 255 255 255
4544.811 2341.8022 7.5377688 255 255 255
-1125.0884 -1037.782 -2.4978399 255 255 255
25024.85 9881.8213 28.77109 255 255 255
132.30255 279.47778 0.78862309 255 255 255
716.30969 658.97498 2.1904004 255 255 255
-1260.2064 -760.45209 -2.6539221 255 255 255
381.75177 725.75092 1.659137 255 255 255
747.18958 549.54797 2.3064244 255 255 255
990.80011 796.30133 2.7259884 255 255 255
1337.8269 1115.4849 3.2468612 255 255 255
-559.89252 -466.69296 -1.7407835 255 255 255
-690.52155 -441.91922 -2.0099039 255 255 255
2743.7815 2983.2112 5.0146461 255 255 255
-970.48621 -835.72614 -2.5178638 255 255 255
962.06787 740.22021 2.6967375 255 255 255
346500.62 74967.273 404.30853 255 255 255
986.24878 744.54169 2.7474136 255 255 255
7934.0112 5450.2964 10.419104 255 255 255
38788.5 25455.242 84.160912 255 255 255
8149.3765 5461.626 10.661651 255 255 255
-510.50198 -333.04904 -1.6269163 255 255 255
1672.4354 701.98328 4.7058597 255 255 255
6986.231 4899.48 9.5218191 255 255 255
1809.2539 968.04895 4.3817258 255 255 255
147.4971 438.8428 1.0930016 255 255 255
-1022.38 -834.78479 -2.5062115 255 255 255
3525.5703 2467.4512 4.3238249 255 255 255
-570.82092 -502.93051 -2.0194092 255 255 255
706.45166 253.45236 0.87423629 255 255 255
394.70486 535.65601 1.6206203 255 255 255
1430.9475 1263.5236 3.3641241 255 255 255
1554.7191 740.97101 4.2224531 255 255 255
1152.2703 2496.0776 5.0126781 255 255 255
837.17407 1849.3508 2.8050771 255 255 255
-471.53009 -549.48999 -1.7421465 255 255 255
2917.9834 1790.5615 7.4217043 255 255 255
7246.5127 6999.2998 25.724031 255 255 255
7004.2295 3948.8542 10.141903 255 255 255
186.89241 433.50027 1.1328253 255 255 255
1097.9534 623.37201 1.2193086 255 255 255
-1121.059 -818.54498 -2.9074371 255 255 255
7305.7476 5189.7773 9.7738609 255 255 255
-610.91034 -252.24521 -2.6498139 255 255 255
925.77478 980.28394 2.5725107 255 255 255
873.10272 651.85248 2.5459747 255 255 255
984.2912 658.77136 2.8109779 255 255 255
5554.2583 2946.313 6.2243323 255 255 255
1805.8862 967.763 4.3662591 255 255 255
-10173.636 -4242.5537 -14.401422 255 255 255
22470.93 8402.0977 27.065571 255 255 255
-815.92999 -746.11462 -2.033896 255 255 255
-405.03345 -624.41583 -1.7097889 255 255 255
988.13226 1050.9084 2.6736369 255 255 255
780.55511 616.89642 2.3492606 255 255 255
8693.7637 5889.6226 10.684214 255 255 255
-2271.0425 -2648.2754 -8.8612576 255 255 255
17082.576 8546.8105 19.76305 255 255 255
5829.355 5545.2446 10.068568 255 255 255
796.4483 709.51978 2.5489862 255 255 255
857.67236 548.50433 2.6071584 255 255 255
-713.26941 -505.29321 -1.9296724 255 255 255
1316.9622 726.9035 3.5802305 255 255 255
8066.4575 5793.7505 10.475094 255 255 255
970.72742 655.62701 2.7879827 255 255 255
23369.938 9306.5488 27.265648 255 255 255
7158.8618 4800.6528 9.7660875 255 255 255
85.975281 286.81534 0.7986666 255 255 255
4606.7314 4340.6514 7.7280331 255 255 255
-45285.949 -5435.752 -56.192867 255 255 255
1902.5071 1004.3531 4.5378275 255 255 255
-2859.4368 -1732.5353 -5.1086187 255 255 255
30832.393 11636.882 34.575191 255 255 255
-23756.783 -14945.694 -35.457207 255 255 255
-8726.6123 -3345.6023 -10.802155 255 255 255
7042.2202 3959.75 10.147893 255 255 255
22425.432 7187.6523 28.185631 255 255 255
2525.1338 2070.9026 3.1574731 255 255 255
-550.76154 -194.26546 -1.5906217 255 255 255
-1176.6501 -960.79175 -2.6157997 255 255 255
789.99921 624.1756 2.3651218 255 255 255
-15355.726 -7078.8364 -18.849585 255 255 255
196.34776 681.91077 1.4395741 255 255 255
-858.06451 -546.05536 -2.0414896 255 255 255
946.11493 1308.1648 1.6618557 255 255 255
427.69092 338.56418 0.55577224 255 255 255
-3938.5117 -4657.8701 -13.113982 255 255 255
-876.0976 -835.25702 -2.4462109 255 255 255
12513.7 6307.6519 15.763854 255 255 255
760683 461837.75 1008.6871 255 255 255
6702.0884 4931.1841 9.156826 255 255 255
312.72598 132.49075 0.35786605 255 255 255
594.6449 629.49585 0.94405997 255 255 255
1089.302 794.97559 2.9356356 255 255 255
1076.6116 791.69806 2.9165609 255 255 255
982.94763 775.68726 2.7182846 255 255 255
487.5947 776.07587 1.8337275 255 255 255
144.71118 66.158524 0.1664456 255 255 255
360.99161 449.29526 1.8801842 255 255 255
6868.3315 3570.9167 16.844574 255 255 255
660.68591 525.44061 1.9441817 255 255 255
220730.7 46948.066 264.68607 255 255 255
4873.416 3970.0322 7.3449025 255 255 255
-506394.16 -93285.875 -616.16724 255 255 255
645.17957 397.32965 1.0636144 255 255 255
955.73846 615.72137 2.7878118 255 255 255
-422.76514 -700.05737 -1.9167391 255 255 255
6973.6963 3184.459 7.993825 255 255 255
151.26569 332.83688 0.95471692 255 255 255
-645.55743 -348.35968 -1.7131234 255 255 255
1007.4462 673.03149 2.8549576 255 255 255
1862.054 960.53107 4.5215049 255 255 255
-403.07834 -270.30231 -1.5727216 255 255 255
13151.379 13861.535 37.759186 255 255 255
1519.9529 1708.2405 6.7737994 255 255 255
-780.22656 -510.47232 -2.0937183 255 255 255
-519.96582 -455.68066 -2.3370993 255 255 255
890.78088 850.32147 2.5082188 255 255 255
-556.19818 -686.99396 -2.2665691 255 255 255
654.06683 206.53722 0.74816447 255 255 255
6679.9937 4707.2046 8.2123442 255 255 255
-478.5087 -263.84625 -1.6144971 255 255 255
967.42267 918.01538 1.3727181 255 255 255
-939.92145 -855.10352 -2.4477272 255 255 255
27399.508 17299.604 37.091347 255 255 255
7067.2681 3991.1948 10.178441 255 255 255
17055.209 8508.8096 19.755842 255 255 255
245.87085 260.57437 1.0898565 255 255 255
925.31244 989.14032 2.5709872 255 255 255
992.87634 1059.541 2.6871536 255 255 255
880.41907 725.60663 2.5134549 255 255 255
388.23657 803.93427 1.7331696 255 255 255
1889.1757 1006.2267 4.5041537 255 255 255
1142.6052 743.54047 1.5709977 255 255 255
-732.48291 -396.38034 -1.9523637 255 255 255
6826.5298 5042.4194 9.2820864 255 255 255
19724.119 8096.2446 23.543537 255 255 255
640.79901 414.1918 0.85348177 255 255 255
6704.377 2707.9583 11.295901 255 255 255
2706.1848 1861.6337 3.2742708 255 255 255
-491.64026 -423.07404 -1.6538488 255 255 255
-1970.489 -1162.9729 -3.6127627 255 255 255
-5689.769 -2042.0851 -7.5644188 255 255 255
471.42276 189.33783 0.59193397 255 255 255
2715.5962 1868.6007 3.2882268 255 255 255
829.50946 649.3158 1.3339614 255 255 255
1308.1162 699.37939 1.4792023 255 255 255
-1078.3557 -674.97791 -2.8878496 255 255 255
981.88312 777.164 2.7153962 255 255 255
-8326.9023 -4289.2769 -12.842858 255 255 255
5654.0605 1601.4457 7.1094227 255 255 255
6348.2769 4855.9238 8.7784653 255 255 255
19247.609 7907.3423 23.189684 255 255 255
-3419.2104 -4503.3516 -10.44277 255 255 255
989.06195 767.68451 2.7349513 255 255 255
2720.5774 642.26758 3.3463342 255 255 255
1868.3319 2473.5266 6.1328535 255 255 255
-797.33539 -479.74115 -1.8671085 255 255 255
-344.37006 -241.78885 -1.476597 255 255 255
-658.12683 -948.64258 -1.9998442 255 255 255
-515.05298 -561.98993 -1.8901223 255 255 255
-23317.734 -10359.408 -29.827791 255 255 255
535.69434 444.21136 1.8262275 255 255 255
-3182.5032 -785.33618 -4.4557209 255 255 255
43613.758 15550.799 47.226986 255 255 255
-1044.2028 -702.50012 -2.633606 255 255 255
1200.0376 733.91937 3.2685056 255 255 255
20252.072 6276.6968 27.999813 255 255 255
-692.84625 -529.82788 -2.05931 255 255 255
996.36237 822.40247 2.7218618 255 255 255
-80977.695 -12359.792 -98.869987 255 255 255
195.07639 489.77869 1.2117923 255 255 255
575.97662 130.21777 0.68491131 255 255 255
-1147.6237 -1118.3215 -2.9321895 255 255 255
471.62766 774.64142 1.8090359 255 255 255
686.27765 635.35767 2.1343641 255 255 255
5072.4336 2062.3369 5.6225963 255 255 255
287140.16 60180.625 344.34787 255 255 255
1279.766 1083.5236 4.8837156 255 255 255
2284.8381 3028.5649 7.5899901 255 255 255
7878.0068 5594.2456 10.322804 255 255 255
25405.014 11170.983 28.001741 255 255 255
583.70331 637.38458 1.9235355 255 255 255
-2806.7683 -971.83069 -4.5278811 255 255 255
20518.615 8556.2236 24.252979 255 255 255
-155704.98 -37100.426 -189.75507 255 255 255
-1126.4559 -1085.8082 -3.020597 255 255 255
-24402.082 -7261.5903 -30.729284 255 255 255
154.91579 541.49915 1.2370532 255 255 255
-76818.109 -29534.084 -85.792603 255 255 255
-35136.227 -16337.396 -45.367302 255 255 255
-656.44226 -458.30939 -1.7561889 255 255 255
18645.119 7329.9067 23.118511 255 255 255
8443.833 5540.3691 10.948747 255 255 255
6834.8809 4812.5845 8.5221415 255 255 255
43857.062 15598.22 47.549824 255 255 255
848.29901 680.18854 2.4694133 255 255 255
609.9541 322.06375 0.72012734 255 255 255
80.036583 305.73489 0.8243708 255 255 255
6350.4517 4439.6582 7.7017374 255 255 255
1421.9052 748.90002 3.8249457 255 255 255
105.60564 302.74979 0.84821874 255 255 255
-234.80826 -190.49712 -1.6612219 255 255 255
-1012.0854 -1216.9487 -2.8149319 255 255 255
225.75572 726.74921 1.5138805 255 255 255
-274.04004 -138.2809 -1.3484643 255 255 255
808.63202 650.91541 2.3985755 255 255 255
8653.5146 2888.9958 9.2478714 255 255 255
-558.04889 -510.10815 -2.0551639 255 255 255
-54189.117 -28109.523 -72.671478 255 255 255
1498.014 744.34607 4.0491257 255 255 255
1694.5448 757.40887 4.5998874 255 255 255
989.95947 1060.4509 2.6806142 255 255 255
1007.1476 807.22021 2.7522295 255 255 255
515.14124 828.02618 0.88796991 255 255 255
263.42972 169.14639 0.49473807 255 255 255
-1601.2627 -923.29883 -2.9056969 255 255 255
-897.20654 -295.57303 -2.5736058 255 255 255
362.36279 768.82544 1.6760195 255 255 255
7402.3403 5094.2988 10.337386 255 255 255
1681.8961 752.31445 4.5768533 255 255 255
774.67932 1022.0916 2.3577132 255 255 255
94237.445 44373.855 110.23093 255 255 255
-499.49554 -398.92706 -1.6515355 255 255 255
311.87878 596.30737 1.4620349 255 255 255
-387.71323 -144.26367 -1.432651 255 255 255
-649.77228 -677.38281 -1.9483727 255 255 255
910.22699 698.10645 2.6041741 255 255 255
-1145.0209 -862.14246 -2.9727337 255 255 255
381.27344 728.65753 1.6610618 255 255 255
952.74872 1006.5704 2.6169524 255 255 255
-322.72043 -176.75171 -1.4076822 255 255 255
700.58191 596.32312 2.1714783 255 255 255
824.31757 495.80533 0.98740441 255 255 255
-463.70233 -198.84569 -1.5331287 255 255 255
-502.10275 -229.03693 -1.9564419 255 255 255
-567.5434 -477.48019 -1.8211601 255 255 255
-442.35205 -428.80295 -1.731711 255 255 255
-631.96356 -759.80066 -2.049361 255 255 255
-2440.3267 -1663.3057 -5.8714547 255 255 255
-7150.478 -2775.3657 -9.3061895 255 255 255
1202.3876 780.24677 3.2146037 255 255 255
411.32877 634.98114 1.4506878 255 255 255
-376.33875 -275.26874 -1.543865 255 255 255
1460.2739 724.99579 3.99367 255 255 255
2454.491 2022.1592 3.1638546 255 255 255
-607.23602 -407.7041 -2.4539692 255 255 255
428.47891 890.53986 1.8521804 255 255 255
1009.1082 982.45605 2.7032018 255 255 255
332.23416 633.62286 0.63759446 255 255 255
834.50128 616.0412 2.4744573 255 255 255
1289.1562 1345.0956 3.1247604 255 255 255
596.46838 634.06024 1.9470081 255 255 255
-489.90204 -418.08148 -1.7783695 255 255 255
346.15945 257.89941 0.47994709 255 255 255
1543.5245 1733.46 2.0746961 255 255 255
8893.3809 6154.2793 11.305017 255 255 255
-1417.6924 -781.1955 -3.4161041 255 255 255
15961.508 8989.3623 20.933971 255 255 255
-719.73108 -495.91119 -2.0669296 255 255 255
421.2688 259.10208 0.49789909 255 255 255
745.67981 616.96307 2.2694573 255 255 255
1697.1987 746.03473 4.6379924 255 255 255
660.6828 607.88666 2.0778563 255 255 255
-306.53943 -300.37656 -1.5798314 255 255 255
-1130.7197 -799.00317 -2.3836699 255 255 255
947.43597 661.75256 2.7186093 255 255 255
2337.6138 1034.2865 2.5696526 255 255 255
8582.0332 4763.8311 11.665849 255 255 255
-1939.2029 -1197.5377 -6.7568955 255 255 255
797.53284 657.96973 1.5427848 255 255 255
537.36884 339.36682 1.9266185 255 255 255
48.166214 194.44991 0.58741754 255 255 255
-926.20557 -622.59674 -2.1352115 255 255 255
-578.78589 -484.6319 -1.8823905 255 255 255
5766.7402 2441.4529 6.4917631 255 255 255
-419.78265 -236.61307 -1.5182225 255 255 255
-566.90674 -402.63953 -1.8252627 255 255 255
-26461.771 -18744.572 -34.62413 255 255 255
13307.216 7122.96 16.074957 255 255 255
909.40198 697.22241 2.6015849 255 255 255
205501.22 44621.773 248.63956 255 255 255
12583.349 4503.5391 18.14534 255 255 255
-19859.955 -13389.364 -24.498667 255 255 255
-46905.441 -5806.4058 -58.141201 255 255 255
-1716.9469 -1035.3409 -3.0020273 255 255 255
379.57916 727.80353 1.6584319 255 255 255
-5831.8198 -2166.2212 -7.3984747 255 255 255
727.3736 578.46503 2.2438383 255 255 255
664.77191 586.71899 2.0921628 255 255 255
565.83441 381.22705 0.80696166 255 255 255
454.91968 179.9164 0.51536715 255 255 255
990.5495 1056.9486 2.6802223 255 255 255
1129.0304 768.35315 3.0592008 255 255 255
25514.018 11218.926 28.133131 255 255 255
-1163.2301 -661.63171 -2.3815796 255 255 255
6911.3643 4842.9351 9.4239807 255 255 255
68721.328 16911.637 85.220207 255 255 255
7112.5547 3985.1304 10.234003 255 255 255
1575.0573 745.6629 4.2743239 255 255 255
982.31311 777.70599 2.7172885 255 255 255
5932.1826 2567.6804 6.3162289 255 255 255
879.63324 724.92944 2.5114737 255 255 255
4289.6997 4176.5732 7.4798837 255 255 255
1546.3993 1738.2507 2.0790269 255 255 255
923.4472 683.84332 2.649065 255 255 255
988.8382 662.68073 2.8263869 255 255 255
1534.7144 1579.6166 2.1337259 255 255 255
-1708.3545 -1039.5417 -2.9997375 255 255 255
437.18912 282.50797 0.59722489 255 255 255
657.02081 794.31293 0.9081074 255 255 255
19603.865 8069.9385 23.553017 255 255 255
5411.1719 2693.1421 8.9510374 255 255 255
-1126.2454 -960.39661 -2.4910445 255 255 255
102.58588 314.50833 0.87313217 255 255 255
8127.9395 5450.8315 10.634934 255 255 255
397.94052 169.98393 0.52170473 255 255 255
7072.3604 3091.3828 7.9532132 255 255 255
1554.0465 735.36676 1.6386623 255 255 255
1017.9166 852.8587 2.7585845 255 255 255
-3063.5093 -3603.9136 -6.4940643 255 255 255
925.98779 980.74115 2.5736589 255 255 255
136286.41 71531.555 171.79497 255 255 255
361.81583 767.17737 1.6729879 255 255 255
-319.47357 -244.75768 -1.4020129 255 255 255
-449.42294 -276.75513 -1.6135528 255 255 255
1556.6949 738.38153 4.2404966 255 255 255
680.59113 579.9101 0.94266891 255 255 255
-778.11554 -464.69116 -2.0095811 255 255 255
717.58667 658.08679 2.1934764 255 255 255
478.83597 348.80896 0.57736897 255 255 255
1436.0919 1216.3784 4.0151033 255 255 255
83399.359 19464.428 103.73902 255 255 255
3781.4688 3793.5547 6.1475797 255 255 255
-338.19263 -272.25897 -1.505428 255 255 255
794.07855 617.44867 2.3794329 255 255 255
-1143.198 -862.4389 -2.9711001 255 255 255
4038.9014 923.19446 5.0069366 255 255 255
25281.834 8935.5029 30.24119 255 255 255
-2546.0491 -2033.8459 -8.0099564 255 255 255
20208.668 6277.4883 27.951532 255 255 255
6998.1167 3320.3149 10.790321 255 255 255
1436.0295 591.06689 3.0665116 255 255 255
-11566.642 -4596.1265 -14.386976 255 255 255
-159809.33 -28929.482 -183.06142 255 255 255
583.77466 474.42413 1.9346325 255 255 255
17918.252 14136.59 28.89855 255 255 255
1009.1387 809.58704 2.7596629 255 255 255
-556.50073 -423.09561 -1.7510408 255 255 255
878.67682 561.78735 2.6450934 255 255 255
-892.08008 -473.77972 -2.7075224 255 255 255
1705.5548 737.47626 1.8359883 255 255 255
5763.7578 2433.2407 9.6422949 255 255 255
884.2572 1582.5402 3.2240477 255 255 255
-999.56079 -723.8551 -2.3275366 255 255 255
-554.71722 -394.70618 -1.8416198 255 255 255
1092.9574 693.9577 3.0479395 255 255 255
1085.7622 702.83081 1.2969735 255 255 255
1675.8861 618.44647 1.8814195 255 255 255
-374.6615 -176.77199 -1.5328707 255 255 255
6579.0381 4870.5967 9.0373383 255 255 255
2497.9893 1488.1138 4.2418218 255 255 255
1042.8583 783.39081 1.3320614 255 255 255
748.63263 573.34473 2.2975471 255 255 255
2061.9946 626.22449 2.269892 255 255 255
-79770.805 -38190.48 -101.80478 255 255 255
300.561 189.84628 0.36283788 255 255 255
-50699.547 -6721.5815 -61.563347 255 255 255
1822.4237 742.89032 2.436384 255 255 255
1366.6387 739.16223 3.6975725 255 255 255
8346.6562 3723.6467 9.4182997 255 255 255
1531.5046 726.06805 4.1911521 255 255 255
7920.2256 5520.689 10.373062 255 255 255
4988.1729 3018.9497 5.6562734 255 255 255
4842.2563 3946.1694 7.2975364 255 255 255
2011.3668 799.44019 5.4160051 255 255 255
17478.264 10618.898 25.255169 255 255 255
-82338.57 -12649.737 -100.88592 255 255 255
699.32642 595.01001 2.1675873 255 255 255
-81166.672 -12403.668 -99.150017 255 255 255
-29943.09 -15913.226 -34.791843 255 255 255
138.09911 538.73291 1.2178786 255 255 255
-537.3717 -449.69205 -1.8130869 255 255 255
-958.73999 -1012.4894 -2.7867892 255 255 255
22514.16 8393.3174 27.13755 255 255 255
-361.5289 -232.41794 -1.4988379 255 255 255
-388.5722 -262.68951 -1.5365194 255 255 255
3525.8076 1690.1407 3.7268867 255 255 255
777.93365 1775.7306 2.7150304 255 255 255
-1951.9471 -1108.6741 -3.4576559 255 255 255
729.31586 956.33167 1.1596828 255 255 255
-869.83826 -1649.3938 -3.5194623 255 255 255
67853.75 27568.236 88.839241 255 255 255
-8709.8428 -6520.1001 -15.218365 255 255 255
1837.6936 919.39966 4.53827 255 255 255
1242.4558 1043.3667 1.9802967 255 255 255
-370.31177 -175.48987 -1.4083472 255 255 255
249604.12 52763.766 298.78711 255 255 255
41064.637 12712.885 47.312256 255 255 255
-694.7525 -636.4552 -1.912576 255 255 255
291855.12 63175.395 340.53476 255 255 255
513.94836 678.12054 0.80055869 255 255 255
804.28491 727.10925 1.9977068 255 255 255
-2771.0376 -3447.3955 -6.7456985 255 255 255
-994.09692 -1523.1289 -3.3865125 255 255 255
-7953.3994 -3049.0234 -10.291967 255 255 255
-326.34894 -364.03555 -1.5816007 255 255 255
-7141.4839 -9363.0908 -20.883154 255 255 255
953.47168 614.04944 2.7796462 255 255 255
-467.80328 -227.11761 -1.5815955 255 255 255
-2773.3311 -2634.7981 -4.9660339 255 255 255
-841.60571 -707.80261 -2.1877241 255 255 255
6734.3398 3104.1101 10.68576 255 255 255
538.68414 339.90326 1.9302716 255 255 255
-387.1506 -514.43561 -1.7146541 255 255 255
472.06015 776.0484 1.811541 255 255 255
15467.928 8569.7148 18.009449 255 255 255
555.7168 555.68604 1.85579 255 255 255
-498.29633 -348.97778 -1.667405 255 255 255
-4509.897 -2005.3888 -7.2078838 255 255 255
-734.34357 -341.0578 -2.2259336 255 255 255
-996.38153 -1208.2079 -2.8104532 255 255 255
-512.25885 -403.65637 -1.6554806 255 255 255
935.3584 608.63812 2.7431834 255 255 255
695.83472 717.6261 2.4724784 255 255 255
24482.209 8886.4346 29.139547 255 255 255
16988.883 8501.5586 19.659107 255 255 255
5457.1396 2821.5298 6.0328794 255 255 255
1151.1661 691.65076 3.1943243 255 255 255
14458.81 7807.2378 17.060009 255 255 255
1160.8827 693.17761 3.2260385 255 255 255
134.41963 177.10159 0.70402199 255 255 255
13233.875 7567.5371 15.693215 255 255 255
-968.20575 -1225.0057 -2.7712803 255 255 255
1587.6139 759.49414 4.2606764 255 255 255
112.81881 166.1514 0.2564024 255 255 255
1410.7352 2276.1372 5.0577555 255 255 255
6132.9888 2593.5513 10.455014 255 255 255
953.43243 650.49432 2.7452836 255 255 255
-665.96405 -568.32056 -2.013608 255 255 255
5232.4346 3844.7815 7.0774579 255 255 255
-770.10315 -1201.9009 -3.2829223 255 255 255
-392.7359 -359.61557 -1.7428889 255 255 255
22413.307 8299.3174 27.127588 255 255 255
-598.68427 -381.23615 -1.798191 255 255 255
8318.9482 4380.0029 11.573352 255 255 255
12742.286 8859.1064 17.651831 255 255 255
1352.6068 661.70038 4.7625837 255 255 255
1339.6687 1118.1077 3.2527204 255 255 255
2453.8049 737.78235 2.9815564 255 255 255
-514.08502 -421.7576 -1.6647789 255 255 255
-687.28253 -624.48633 -3.0140829 255 255 255
-1219.7007 -930.84698 -2.8539548 255 255 255
519.74988 357.56409 0.61914116 255 255 255
-393.42099 -259.12985 -1.5476778 255 255 255
5489.377 6080.3315 9.2984095 255 255 255
787.84497 657.92053 2.3458645 255 255 255
10723.357 6517.8652 13.245657 255 255 255
1190.0659 761.47382 3.204098 255 255 255
644.20856 604.12714 2.043802 255 255 255
941.08228 663.56927 2.7013743 255 255 255
13079.035 8372.8154 15.59078 255 255 255
-921.90997 -455.58212 -2.6762111 255 255 255
-1041.1508 -745.29865 -2.4144015 255 255 255
737.05688 350.59204 0.87431741 255 255 255
1060.3253 923.42114 2.8148293 255 255 255
-76743.695 -43311.516 -92.273529 255 255 255
955.88416 736.03638 2.6803997 255 255 255
-51803.012 -6606.5874 -64.333664 255 255 255
-1346.4766 -1763.0453 -3.8082123 255 255 255
-925.91309 -1092.9329 -2.5841374 255 255 255
18209.189 10856.641 21.188568 255 255 255
218.40002 379.95074 0.98011327 255 255 255
-816.573 -1370.6526 -4.9721041 255 255 255
-1726.6592 -2123.7368 -4.1418929 255 255 255
-210795.25 -38462.062 -250.55579 255 255 255
4887.5952 3976.7693 7.3513088 255 255 255
1362.5854 637.21045 3.9222116 255 255 255
18571.988 7799.8472 22.401011 255 255 255
-629.59143 -183.15161 -1.7746236 255 255 255
-601.60773 -455.45493 -1.7883673 255 255 255
3715.6716 3106.4419 12.199909 255 255 255
790.39948 1104.837 1.4197514 255 255 255
-940.2561 -862.03143 -2.3184443 255 255 255
2013.8085 2064.1973 3.0069931 255 255 255
6535.6177 4867.9702 9.0039444 255 255 255
1465.2913 643.89502 4.2425346 255 255 255
11511.712 6960.832 13.984102 255 255 255
1698.071 746.51031 4.6440277 255 255 255
-528.25696 -387.8013 -1.7439343 255 255 255
1798.7384 963.99841 4.3569889 255 255 255
-817.22119 -686.66705 -2.1329582 255 255 255
8516.5928 5771.2378 10.998253 255 255 255
11209.501 6839.375 13.715543 255 255 255
846.98383 679.97675 2.4676895 255 255 255
595.68671 633.67987 1.9451215 255 255 255
-47001.738 -29318.287 -57.615543 255 255 255
-444.28534 -339.9473 -1.5233146 255 255 255
989.62512 768.08923 2.7372169 255 255 255
14690.853 8069.7759 17.166857 255 255 255
-602.16101 -752.57172 -1.8988169 255 255 255
536.68329 322.82846 0.63827717 255 255 255
1618.6697 1591.8041 2.4246762 255 255 255
-287448.88 -52663.906 -343.58429 255 255 255
20688.066 8621.5137 24.418709 255 255 255
-794.07147 -674.68378 -2.2591541 255 255 255
-92936.336 -62153.613 -129.69264 255 255 255
9477.2402 2714.9546 10.465416 255 255 255
293.20346 178.76996 0.36578703 255 255 255
4019.1299 820.71814 4.5833583 255 255 255
-414.11182 -257.32101 -1.4990367 255 255 255
-922.86523 -534.28217 -2.177959 255 255 255
21097.35 8007.5039 25.583216 255 255 255
-543.16724 -267.56445 -1.6923801 255 255 255
16956.244 8456.208 19.650534 255 255 255
49130.016 20382.773 64.779083 255 255 255
123851.18 32946.371 136.85564 255 255 255
-540.87903 -433.70834 -1.7697601 255 255 255
267.27771 538.15302 0.60888118 255 255 255
536.60114 444.81464 1.8293185 255 255 255
-1959.0605 -1367.9647 -6.5320401 255 255 255
48.108082 194.35591 0.58700722 255 255 255
6160.0605 2351.7354 6.8744235 255 255 255
-399.50525 -80.302071 -1.5061256 255 255 255
1466.1709 1229.7092 3.4299529 255 255 255
593.43945 402.17401 0.73280501 255 255 255
83123.227 19773.66 102.05014 255 255 255
551.45789 158.3156 0.76619256 255 255 255
469.86133 177.24232 0.47964481 255 255 255
-571.2345 -788.60638 -2.1805069 255 255 255
-2161.8147 -1150.5709 -3.5512805 255 255 255
4505.3066 1231.7371 5.044312 255 255 255
402.09894 242.86475 0.54101712 255 255 255
221.75925 615.03363 1.3841478 255 255 255
362.43594 656.83606 1.3895714 255 255 255
637.95795 510.00635 2.0592067 255 255 255
-315.07571 -169.62402 -1.4126618 255 255 255
1687.4423 474.35837 2.0518208 255 255 255
31530.268 11905.21 35.362209 255 255 255
-502.83292 -289.81659 -1.7384818 255 255 255
13567.883 8921.042 17.069908 255 255 255
384.98834 389.16718 0.76498348 255 255 255
-3190.2637 -2777.0244 -8.7180176 255 255 255
-39947.988 -15615.354 -45.269272 255 255 255
898.86517 803.90674 2.0787876 255 255 255
-488.13358 -290.26703 -1.6121649 255 255 255
399.36295 753.97412 1.7031896 255 255 255
-562.42822 -576.83417 -1.8526651 255 255 255
-740.16907 -812.60535 -1.9720842 255 255 255
744.74329 616.51819 2.2665045 255 255 255
-261.87222 -244.98181 -1.3441046 255 255 255
388.6868 804.15887 1.7342085 255 255 255
-2010.0996 -543.66547 -3.0898225 255 255 255
-811009.19 -329061.31 -1019.3729 255 255 255
-593.17358 -504.9538 -1.7998627 255 255 255
776.76392 1011.9436 2.3546596 255 255 255
-1510.4009 -1611.7841 -3.9133785 255 255 255
1418.4281 1807.7267 6.2845807 255 255 255
-513.77228 -978.93475 -3.0929899 255 255 255
183.46933 571.44513 1.2994539 255 255 255
844.78668 643.52112 2.4837296 255 255 255
-1596.1149 -1574.9603 -3.9255791 255 255 255
-1180.5176 -1202.6334 -2.4899113 255 255 255
-1502.9161 -633.9679 -2.7664309 255 255 255
-11924.984 -5073.9238 -16.780474 255 255 255
151.3652 332.79886 0.95486814 255 255 255
-522.51263 -372.03436 -1.7260567 255 255 255
623.1311 316.24286 0.75380594 255 255 255
-4861.9473 -5533.2695 -23.314425 255 255 255
-1784.1509 -2113.0103 -4.9338393 255 255 255
-763.09888 -898.3313 -2.0609806 255 255 255
-3416.301 -2451.4243 -6.482542 255 255 255
-9729.8965 -7424.6812 -16.972881 255 255 255
2051.3945 614.58569 2.5800898 255 255 255
-402.36407 -265.34457 -1.6464171 255 255 255
-39495.414 -7084.8057 -48.067142 255 255 255
7527.1826 5571.647 9.9379215 255 255 255
-505.09204 -251.37263 -1.6717628 255 255 255
282.61029 758.95087 1.6652666 255 255 255
18742.154 14342.591 25.822754 255 255 255
2308.0903 271.12234 2.745033 255 255 255
-1203.8256 -787.1864 -3.2965715 255 255 255
31283.74 13274.643 33.622692 255 255 255
1051.0989 1120.825 1.5551413 255 255 255
-466.68903 -327.46735 -1.6333028 255 255 255
11249.012 4479.0444 16.018513 255 255 255
-2203.2124 -2735.7642 -5.1063004 255 255 255
-511.78979 -528.71027 -1.8843204 255 255 255
147.63246 438.43234 1.0913695 255 255 255
-5583.7993 -2625.3679 -7.4029965 255 255 255
-31786.805 -12009.21 -35.271496 255 255 255
-991.75824 -768.21472 -2.5345409 255 255 255
7106.6348 2888.9949 11.592848 255 255 255
-4714.1245 -1892.6711 -7.2076359 255 255 255
1810.7048 594.10059 3.4030235 255 255 255
2939.7449 2286.9651 3.7669024 255 255 255
579.86774 237.88788 0.64313918 255 255 255
612.27618 511.70084 1.0537006 255 255 255
-31426.662 -18376.363 -42.243446 255 255 255
-222176.89 -41666.25 -256.00052 255 255 255
493.02621 575.54419 1.7313565 255 255 255
6862.1821 4767.7432 9.4162521 255 255 255
2934.2622 3191.748 9.0694542 255 255 255
482.42917 777.48785 1.8295368 255 255 255
6826.6201 4975.9336 9.2823706 255 255 255
902.52222 855.03149 2.5308087 255 255 255
11462.562 1417.5635 12.631106 255 255 255
7668.9326 5951.7578 10.728962 255 255 255
8384.9775 6366.2715 10.785846 255 255 255
1043.1766 899.99054 1.6264172 255 255 255
27438.861 17236.496 51.164532 255 255 255
231.39381 205.59183 0.3153713 255 255 255
3069.4839 2242.1479 8.2638979 255 255 255
1199.0875 778.86658 3.2075589 255 255 255
-673.99933 -834.9917 -1.9718196 255 255 255
1644.1199 1074.0554 2.4278777 255 255 255
14146.981 8293.6025 16.039137 255 255 255
-1157.447 -793.92773 -2.551897 255 255 255
9461.4355 6509.9302 11.844059 255 255 255
-639.46857 -647.40466 -1.9075032 255 255 255
1210.6481 1171.4648 2.809654 255 255 255
-305.33478 -187.22935 -1.4337339 255 255 255
14437.296 10670.915 36.79023 255 255 255
158.55341 180.4099 0.23686129 255 255 255
-277.52011 -264.24362 -1.4600111 255 255 255
-565.44946 -570.43951 -1.8728635 255 255 255
24897.701 8951.1191 29.74667 255 255 255
24733.674 8970.5791 29.435972 255 255 255
22286.354 8248.1221 26.970301 255 255 255
-247046.77 -45220.68 -300.9787 255 255 255
543.00946 1465.3717 2.6341858 255 255 255
-53375.766 -7084.0698 -64.761848 255 255 255
-40944.996 -9319.1592 -50.698883 255 255 255
-24235.857 -6690.9312 -30.258007 255 255 255
6035.7432 4672.2466 8.4693127 255 255 255
8125.6245 5531.6514 9.814189 255 255 255
-437.2789 -267.62286 -1.6205885 255 255 255
885.39502 598.30688 2.6210926 255 255 255
725.68262 611.51129 2.2251692 255 255 255
153.93398 540.45239 1.2341182 255 255 255
679.0202 655.67334 2.2642858 255 255 255
1563.219 663.24585 4.4704299 255 255 255
6049.9023 4706.084 8.4860039 255 255 255
-661.4505 -629.99255 -2.0186198 255 255 255
744.48315 615.76776 2.266171 255 255 255
13300.182 7116.5381 16.060099 255 255 255
5745.4541 2491.1165 6.4614439 255 255 255
1211.387 1030.2361 2.915005 255 255 255
-486.44818 -352.78061 -1.8799471 255 255 255
-788.37524 -678.57318 -3.1806445 255 255 255
-1115.9915 -628.96979 -2.2327294 255 255 255
-9250.9238 -3958.2678 -10.425546 255 255 255
9954.1602 3930.2222 11.167812 255 255 255
700.93481 596.78375 2.1736498 255 255 255
49918.633 28814.674 64.512398 255 255 255
941.97351 921.17999 1.3424665 255 255 255
13519.223 7653.2295 15.958529 255 255 255
-1719.285 -631.99524 -6.6819358 255 255 255
1179.7866 541.47809 1.4176441 255 255 255
1435.9658 6419.626 15.221785 255 255 255
-438.80173 -210.11082 -1.480229 255 255 255
745.49707 547.95709 2.3021717 255 255 255
-482.77966 -331.88654 -1.6634358 255 255 255
-593.69 -436.31409 -1.7398483 255 255 255
1077.5389 697.7688 1.2519275 255 255 255
717.01154 659.65704 2.1945987 255 255 255
13268.742 7581.0645 15.73741 255 255 255
1159.944 692.3269 3.2204432 255 255 255
-416.88245 -211.87758 -1.5159919 255 255 255
583.21436 256.60791 0.65741867 255 255 255
585.52124 474.83765 1.9392246 255 255 255
-5957.1465 -937.83105 -7.974597 255 255 255
20362.861 6320.8354 28.168291 255 255 255
7133.3252 4665.5229 8.2962055 255 255 255
223.55888 732.92334 1.5171762 255 255 255
23124.621 8432.502 27.88007 255 255 255
-1210.0593 -855.25104 -2.5534811 255 255 255
-5784.3315 -2109.0681 -7.1860681 255 255 255
595.55145 585.70587 0.82861066 255 255 255
880.44287 1000.23 2.8526247 255 255 255
2314.4353 1690.6741 2.7953424 255 255 255
286.69345 406.05051 0.99245876 255 255 255
983.01886 777.44104 2.7181263 255 255 255
5423.5635 3891.3193 7.3660145 255 255 255
984.75482 659.09064 2.8123519 255 255 255
919.02063 657.0094 1.6477575 255 255 255
-341.80289 -128.02373 -1.36567 255 255 255
-496.1698 -551.30762 -1.8386995 255 255 255
900.07416 854.67615 2.5270991 255 255 255
-1421.485 -978.2915 -3.1232927 255 255 255
-5299.9897 -678.75836 -6.642488 255 255 255
2846.6057 3009.0159 6.9706292 255 255 255
909.5603 697.14313 2.6019468 255 255 255
-79674.648 -12171.516 -97.306313 255 255 255
438.26019 296.06842 0.60406286 255 255 255
1009.4917 674.96783 1.1869924 255 255 255
-371.23578 -222.80603 -1.4530406 255 255 255
-25303.221 -6376.7251 -31.839237 255 255 255
-493.9873 -341.53784 -1.8912998 255 255 255
7138.9512 3997.4155 10.273011 255 255 255
-3615.4128 -2819.8997 -6.9221683 255 255 255
-1256.7542 -974.06683 -2.7358556 255 255 255
-748.85333 -1139.1641 -2.4935441 255 255 255
-4169.4175 -1468.7791 -5.5349131 255 255 255
600.53394 190.19724 0.83576035 255 255 255
40699.367 12641.508 46.857941 255 255 255
-3073.8811 -1619.1234 -6.1899896 255 255 255
24276.412 7335.9893 32.351566 255 255 255
1191.9788 761.98676 3.2091994 255 255 255
-622.89893 -855.37366 -2.1895452 255 255 255
60436.512 40119.535 73.845032 255 255 255
1080.5659 760.96759 1.3217428 255 255 255
7399.2534 4009.7117 10.616363 255 255 255
-596.31757 -327.15796 -1.752735 255 255 255
-656.76044 -339.15652 -1.8614802 255 255 255
990.02783 793.84302 2.7214835 255 255 255
-6231.312 -2214.9143 -7.9414334 255 255 255
4861.1226 5502.3174 8.4343882 255 255 255
-917.87512 -806.4726 -2.3172791 255 255 255
25661.104 10131.027 29.509499 255 255 255
135.66409 178.46796 0.71018541 255 255 255
-6250.4536 -2400.6619 -7.9476638 255 255 255
-340679.06 -62971.93 -413.0495 255 255 255
-81918.844 -12712.595 -99.493958 255 255 255
13655.819 8961.8398 16.087654 255 255 255
-8642.1387 -3071.178 -28.534435 255 255 255
8311.252 4408.8457 11.585388 255 255 255
-89191.969 -13719.927 -109.15426 255 255 255
5190.7441 2084.0454 5.8557463 255 255 255
883.49854 565.32471 2.6607547 255 255 255
-5235.0474 -2894.313 -7.3566108 255 255 255
-8251.4521 -3927.3982 -11.638125 255 255 255
7488.1719 6441.812 22.619234 255 255 255
-891.22815 -434.4603 -2.1079845 255 255 255
-11741.533 -4726.439 -14.752466 255 255 255
6701.7969 2704.9109 11.293393 255 255 255
987.79883 1051.502 2.6757045 255 255 255
-753.0473 -506.76834 -2.8470747 255 255 255
1701.1064 747.35358 4.649673 255 255 255
8346.624 4392.21 11.608341 255 255 255
-155239.08 -28093.922 -177.81947 255 255 255
-3478.9292 -2043.5618 -7.4615564 255 255 255
-17773.324 -12386.081 -25.486841 255 255 255
10172.898 4229.2295 29.994532 255 255 255
-39922.445 -22427.076 -51.152462 255 255 255
-15840.604 -6568.2739 -22.615576 255 255 255
23429.48 9470.5547 27.184877 255 255 255
4035.8984 2822.781 5.6295595 255 255 255
-12568.248 -16878.861 -50.713245 255 255 255
224611.45 48103.289 268.88553 255 255 255
-1111.9364 -931.26245 -2.738894 255 255 255
10727.528 14076.54 36.725277 255 255 255
-412.3642 -259.08514 -1.4975306 255 255 255
1355.5524 635.49884 3.8956151 255 255 255
1675.7812 737.95776 4.5930791 255 255 255
-1815.3185 -2422.9485 -7.3182235 255 255 255
641.39801 463.97107 0.81757063 255 255 255
-1127.9357 -1178.1499 -2.5026159 255 255 255
7616.0903 2047.1332 9.0760441 255 255 255
288237.25 62306.762 336.26706 255 255 255
9461.373 6688.9414 12.006871 255 255 255
570.07605 551.54443 1.8869026 255 255 255
679.70135 532.64758 2.2048843 255 255 255
3557.1868 3801.4597 5.3095584 255 255 255
-304.9541 -162.40146 -1.4136482 255 255 255
880.08203 652.21387 2.5609887 255 255 255
-372.50687 -193.02504 -1.495881 255 255 255
143312.97 31184.449 172.76019 255 255 255
845.75714 1047.9319 1.3462458 255 255 255
816.14154 366.71295 1.0559037 255 255 255
663.55627 428.66135 0.84134871 255 255 255
26106.639 12655.105 28.033001 255 255 255
1467.8441 644.93097 4.2487836 255 255 255
-773.06805 -810.73853 -2.4369731 255 255 255
923.23834 978.37592 2.5643497 255 255 255
1511.6572 3534.4871 7.2223339 255 255 255
5677.5522 3527.9841 7.0011816 255 255 255
-1038.5865 -1039.1116 -2.4626191 255 255 255
-360.46524 -214.35866 -1.6802542 255 255 255
-186.94092 -254.0519 -1.3231626 255 255 255
726.19501 576.57819 2.2388937 255 255 255
-6778.0493 -2784.9902 -8.5664978 255 255 255
-1184.9098 -867.91498 -2.9094834 255 255 255
1527.1074 654.53131 4.421751 255 255 255
6686.6602 4871.1572 9.1565542 255 255 255
34999.781 12963.297 38.798306 255 255 255
1414.7551 1804.5905 6.2678576 255 255 255
-8043.1401 -2852.2307 -10.538241 255 255 255
647.33368 497.81558 0.82551152 255 255 255
-1362.3358 -1056.8517 -5.90481 255 255 255
745.84302 571.3233 2.2887368 255 255 255
19473.107 7939.2939 23.464088 255 255 255
811.11603 1093.4514 1.4401296 255 255 255
8516.9141 5768.1553 10.995096 255 255 255
11245.41 10692.264 38.654972 255 255 255
728.15338 571.75043 2.2422264 255 255 255
508.94714 644.08972 1.1261797 255 255 255
40556.559 13419.001 46.029716 255 255 255
1716.4412 733.58368 1.8431765 255 255 255
1978.7876 524.2796 2.1358137 255 255 255
9175.6006 5994.6357 11.607373 255 255 255
-9006.0449 -3745.8242 -11.671909 255 255 255
7214.2427 4839.6807 9.8470621 255 255 255
1716.8981 1847.9459 3.871068 255 255 255
6655.8535 2738.2712 7.3854322 255 255 255
5888.6924 2176.2122 6.2624302 255 255 255
14788.934 8086.832 17.263781 255 255 255
381.28403 728.82886 1.6624053 255 255 255
7290.1074 4002.5442 10.466785 255 255 255
-392.98386 -243.74133 -1.5344321 255 255 255
6949.54 4867.9082 9.4753866 255 255 255
-1569.2253 -860.50983 -2.8410075 255 255 255
34369.457 12718.848 38.198498 255 255 255
22392.529 8346.5898 26.981781 255 255 255
9031.5049 5642.7637 11.163939 255 255 255
6874.8022 4771.02 9.4333925 255 255 255
11091.609 6763.8696 13.56832 255 255 255
1035.2178 827.21759 2.8049738 255 255 255
11420.335 6907.3945 13.871563 255 255 255
892.54791 370.00314 1.4755317 255 255 255
549.95483 556.35968 1.8453089 255 255 255
12562.776 4513.7031 18.10664 255 255 255
788.78864 659.01294 2.3505504 255 255 255
-14891.65 -10375.413 -24.056524 255 255 255
6696.9609 3092.0103 10.627238 255 255 255
10555.681 6414.3457 13.06979 255 255 255
4725.0469 2525.0698 12.214212 255 255 255
400.96857 755.28674 1.7081801 255 255 255
-511.24734 -335.80286 -1.6577783 255 255 255
2289.8274 759.48743 3.0455348 255 255 255
590.72064 400.15363 1.0544105 255 255 255
427.45404 887.61401 1.8466802 255 255 255
10758.292 6535.6353 13.289884 255 255 255
-5436.1763 -1024.043 -13.03047 255 255 255
324.24304 484.81628 2.043921 255 255 255
11061.438 6655.9082 13.556417 255 255 255
-1007.2838 -686.659 -2.6600525 255 255 255
2216.7852 2790.3748 5.075325 255 255 255
2031.4346 805.25928 5.4655905 255 255 255
563.0249 447.27823 1.2826959 255 255 255
-4095.7336 -3328.9348 -7.8313103 255 255 255
324.50558 278.33685 0.41309145 255 255 255
708.98376 604.46686 2.1896925 255 255 255
1018.334 1155.0206 2.2027588 255 255 255
349344 73316.43 419.38675 255 255 255
-876.12061 -842.96814 -2.4599891 255 255 255
-377.5304 -215.22183 -1.519877 255 255 255
107610.61 25227.039 128.91367 255 255 255
1822.0735 1417.6649 2.4473255 255 255 255
497.23022 124.91048 0.52999848 255 255 255
1748.6118 2601.6797 6.5473361 255 255 255
3053.0315 1614.4452 6.1298022 255 255 255
119713.34 31810.697 132.20729 255 255 255
1575.9248 719.04016 5.2951555 255 255 255
111931.86 71899.234 140.67169 255 255 255
36846.598 18283.639 47.483414 255 255 255
-979.91272 -660.40125 -4.39639 255 255 255
-51072.059 -6502.4058 -63.42498 255 255 255
1006.72 979.14374 2.7022555 255 255 255
1937.9312 849.59088 2.4991574 255 255 255
1003.8352 641.86902 2.8770819 255 255 255
1250.9062 618.1098 1.7658362 255 255 255
7011.854 3933.9109 10.109541 255 255 255
-1879.7771 -1116.3038 -3.9016078 255 255 255
361.56558 765.9162 1.6710618 255 255 255
-373.57278 -257.03375 -1.5299085 255 255 255
-636.35797 -576.58472 -2.0514641 255 255 255
33197.035 14069 35.190739 255 255 255
3990.4663 3740.1399 6.8354616 255 255 255
2713.4553 1867.1249 3.2860117 255 255 255
665.36774 585.98462 2.0930579 255 255 255
-6066.8838 -5131.0918 -11.12735 255 255 255
4321.6523 2557.8098 16.949768 255 255 255
7311.896 5259.48 9.7616806 255 255 255
38608.297 21616.744 47.813602 255 255 255
-920.30597 -473.49881 -2.6805189 255 255 255
-1524.2086 -1502.991 -3.3277235 255 255 255
10822.212 6635.9648 13.301576 255 255 255
1627.5359 2265.1873 5.1638174 255 255 255
-459.36371 -739.46234 -1.9956225 255 255 255
-8703.0508 -2076.0593 -9.9342937 255 255 255
7032.8193 10688.02 22.416168 255 255 255
