ply
format ascii 1.0
comment PCL generated
element vertex 1106
property float x
property float y
property float z
property uchar red
property uchar green
property uchar blue
element face 0
element camera 0
property float view_px
property float view_py
property float view_pz
property float x_axisx
property float x_axisy
property float x_axisz
property float y_axisx
property float y_axisy
property float y_axisz
property float z_axisx
property float z_axisy
property float z_axisz
property float focal
property float scalex
property float scaley
property float centerx
property float centery
property int viewportx
property int viewporty
property float k1
property float k2
end_header
842.11188 1331.4961 1.9679748 255 255 255
3062.1985 1888.2002 6.8485804 255 255 255
1123.4255 882.93518 3.0136259 255 255 255
960.93231 627.41315 2.6794786 255 255 255
872.37274 609.0694 2.023613 255 255 255
2166.624 4461.8813 6.1149669 255 255 255
-912.68701 -778.04877 -2.848419 255 255 255
1596.0297 2229.8464 3.9875705 255 255 255
-515.8324 -1172.275 -2.9205225 255 255 255
2107.9756 1873.6934 4.5145683 255 255 255
1327.1968 260.55057 3.5596175 255 255 255
4583.5098 3821.9255 10.755359 255 255 255
-8885.1924 -2798.6213 -17.976515 255 255 255
-1332.594 -1785.4275 -4.5153694 255 255 255
8872.4424 11992.857 28.366781 255 255 255
-545.49023 -372.38925 -1.7487447 255 255 255
2762.1807 2831.1821 7.9179406 255 255 255
679.90631 339.11646 1.6001923 255 255 255
-1185.8339 -786.87079 -2.6859467 255 255 255
2678.0728 3218.4231 6.5213046 255 255 255
750.26343 953.40051 1.5657814 255 255 255
575.02039 661.57501 1.5763948 255 255 255
-1888.1899 -2207.3923 -4.6840601 255 255 255
-884.36597 -1154.3771 -2.8397658 255 255 255
-1574.3333 -834.57593 -3.1045961 255 255 255
3409.2808 3522.1145 9.833497 255 255 255
-635.1684 -1162.5842 -2.8034 255 255 255
-4320.7314 -3162.4641 -11.120109 255 255 255
29735.029 17394.148 50.820736 255 255 255
743.69263 646.82074 1.7033354 255 255 255
666.28973 579.14807 1.3646196 255 255 255
860.5235 596.98859 2.3522031 255 255 255
913.151 584.05054 1.9249097 255 255 255
-1066.7328 -865.60889 -2.8194115 255 255 255
3658.1377 3158.1631 8.0449409 255 255 255
3431.9231 2740.6067 6.7129121 255 255 255
975.4718 1223.7179 2.5113616 255 255 255
644.11975 1123.2518 1.6538932 255 255 255
389.20926 387.76144 0.97418511 255 255 255
-7638.3325 -4249.6543 -16.937355 255 255 255
-9696.2549 -5044.3208 -13.96362 255 255 255
-2536.8872 -2069.9177 -7.1164441 255 255 255
-11877.777 -9591.3584 -29.637882 255 255 255
-2124.1411 -1712.5319 -5.0179667 255 255 255
-7706.4106 -7042.0186 -17.658995 255 255 255
-4020.1357 -2327.2312 -10.657344 255 255 255
2550.8135 5142.6836 9.504262 255 255 255
9733.7734 5786.1797 18.272247 255 255 255
-5888.9248 -3342.9983 -14.474328 255 255 255
-5274.7183 -9656.9814 -14.200729 255 255 255
-1039.5649 -794.09729 -2.6791165 255 255 255
640.60992 459.2135 1.1971302 255 255 255
962.48688 763.07501 1.8546617 255 255 255
318.92477 393.39157 0.64917874 255 255 255
-67517.828 -41886.688 -172.62032 255 255 255
-5862.9131 -5979.4536 -17.241264 255 255 255
-2210.4446 -1853.8192 -6.2694526 255 255 255
39144.566 22622.363 66.918716 255 255 255
1076.713 653.66241 2.2242713 255 255 255
11327.365 21374.861 49.719555 255 255 255
-2118.3027 -2175.9746 -6.8185859 255 255 255
3201.114 2529.2197 7.4536715 255 255 255
2475.6938 1698.8521 5.2593732 255 255 255
841.5545 1116.4233 2.1447055 255 255 255
334.27142 410.00424 0.86215621 255 255 255
902.41394 709.96759 1.9540201 255 255 255
-8286.5459 -4648.0044 -21.21826 255 255 255
1358.1848 1803.5432 3.1585903 255 255 255
711.20862 295.00653 1.5805618 255 255 255
-2947.77 -2478.9626 -6.2300153 255 255 255
-1172.5393 -1136.2083 -3.7622983 255 255 255
-106815.25 -40560.41 -228.54836 255 255 255
718.83313 1149.5042 1.9417466 255 255 255
359.94711 662.27203 1.3178169 255 255 255
-439.20398 -642.16846 -1.9551945 255 255 255
2722.0093 1709.9215 5.1550846 255 255 255
3127.5232 1972.0795 7.0278473 255 255 255
-4777.251 -5308.0059 -13.980892 255 255 255
661.74176 221.133 1.4524004 255 255 255
-1163.6521 -780.99719 -3.0234752 255 255 255
820.33948 428.79279 2.0045478 255 255 255
164.34413 584.95862 0.83698362 255 255 255
2273.6616 1634.9227 5.4171391 255 255 255
-4255.7905 -5382.0527 -16.478359 255 255 255
1627.8319 1425.3411 3.4038229 255 255 255
986.78314 1196.6171 3.258044 255 255 255
4953.4248 4726.832 9.9382849 255 255 255
-2887.2109 -3729.6772 -9.9306622 255 255 255
1339.0013 1337.6993 3.2351208 255 255 255
-3088.5403 -2103.6011 -7.6608486 255 255 255
-1252.537 -1944.11 -4.0434723 255 255 255
-1319.4137 -1246.2629 -3.9483273 255 255 255
-1018.205 -716.91211 -3.8573036 255 255 255
-688.5564 -537.73315 -2.2216489 255 255 255
2348.9851 3036.1863 6.151526 255 255 255
-3202.1934 -2209.5928 -8.0931435 255 255 255
1665.9446 2612.7422 5.1299801 255 255 255
1143.4692 1079.6263 2.2340968 255 255 255
8482.1201 10344.469 25.095875 255 255 255
18782.816 8359.2832 39.699959 255 255 255
-1682.8444 -1417.9792 -4.0927711 255 255 255
3015.5383 2186.9119 7.6389675 255 255 255
3294.1401 3939.323 8.0452166 255 255 255
654.9989 920.55902 2.2610345 255 255 255
3571.3384 3665.2705 7.0069561 255 255 255
2299.5535 2216.3132 4.7531743 255 255 255
1904.4791 2479.624 5.9746161 255 255 255
-14456.073 -12861.182 -40.582355 255 255 255
1980.4515 4327.3013 6.4257054 255 255 255
273.26016 302.8497 0.59701991 255 255 255
-1233.0211 -925.14636 -3.5437436 255 255 255
182.24178 479.70505 0.76290727 255 255 255
-1583.9694 -1426.3567 -6.0443182 255 255 255
3146.9841 3780.6987 7.4537396 255 255 255
29172.775 21969.775 40.345596 255 255 255
4593.2065 4339.6895 13.600204 255 255 255
39112.914 40605.477 119.04763 255 255 255
4450.623 6451.2109 15.937299 255 255 255
-1597.6357 -1578.8754 -3.7096512 255 255 255
154.901 223.02795 0.37058711 255 255 255
3287.8525 3812.6248 8.6341839 255 255 255
-19302.812 -36574.23 -64.324883 255 255 255
-107048.34 -133859.75 -346.55444 255 255 255
-1170.981 -755.60272 -2.7330458 255 255 255
-602.5177 -1005.4922 -2.6899924 255 255 255
1629.3999 2250.7839 5.3556919 255 255 255
753.38019 1468.3292 2.2154808 255 255 255
1147.8534 1603.1125 2.7019942 255 255 255
-3128.3032 -4658.6079 -11.041626 255 255 255
-1853.5648 -826.61871 -4.5824857 255 255 255
-1598.3563 -1173.3723 -5.0602436 255 255 255
4918.0635 5561.6719 13.301847 255 255 255
-3661.5039 -2425.6592 -8.6558542 255 255 255
1698.1742 1575.246 3.6000273 255 255 255
631.49261 819.55115 1.6829284 255 255 255
-2224.1074 -2092.7273 -5.4834061 255 255 255
458.34027 582.21332 0.97755498 255 255 255
2669.0996 2472.824 6.3997703 255 255 255
-4577.3408 -2373.5015 -11.401616 255 255 255
2748.0762 3013.7856 5.7638965 255 255 255
2568.6592 2142.1465 5.5345278 255 255 255
1028.3663 1518.7627 2.486722 255 255 255
1746.8245 2546.7063 5.0951014 255 255 255
-928.04156 -728.12305 -2.132766 255 255 255
2532.1433 2462.9456 4.883029 255 255 255
-1286.4823 -1672.1578 -4.7904162 255 255 255
687.76331 1246.0017 2.2933366 255 255 255
-2744.8613 -1422.1494 -6.4400978 255 255 255
-1110.0054 -1395.767 -3.3077376 255 255 255
939.32062 661.05219 1.4681257 255 255 255
37048.449 65984.922 100.72019 255 255 255
929.56128 1453.8334 2.2206013 255 255 255
886.68256 1164.5887 1.916502 255 255 255
-431.37967 -542.2522 -1.858379 255 255 255
602.82532 498.13455 1.3654354 255 255 255
-2275.0103 -2616.0801 -6.8756299 255 255 255
3267.7874 2740.053 6.303782 255 255 255
1084.6586 744.72284 2.745749 255 255 255
524.06995 944.26343 1.4411124 255 255 255
4696.9004 3079.437 9.4891844 255 255 255
3720.5161 3743.0911 9.1523094 255 255 255
1160.5658 823.39075 3.2491193 255 255 255
779.85553 1271.8101 2.426544 255 255 255
1247.4587 1653.792 3.4569149 255 255 255
64198.406 36239.414 109.36342 255 255 255
-1887.879 -1698.4169 -5.5355296 255 255 255
-603.6369 -746.92896 -2.269321 255 255 255
499.63394 406.14282 1.242147 255 255 255
492.57971 444.95325 1.1384587 255 255 255
673.61877 1172.3707 2.9687459 255 255 255
-1899.6462 -1643.7039 -4.6104536 255 255 255
697.99158 1112.5718 2.0267892 255 255 255
1261.8805 1524.3528 4.5021958 255 255 255
15521.303 28761.961 43.456745 255 255 255
467.05783 301.92789 1.0397418 255 255 255
2154.3682 2177.4741 6.7548418 255 255 255
639.64264 1130.3837 1.7840464 255 255 255
616.3313 1100.3712 1.6846089 255 255 255
425.18863 391.69473 1.0225201 255 255 255
582.13562 397.42587 1.4469501 255 255 255
-1031.2925 -2557.2212 -4.7515073 255 255 255
620.03424 1539.5623 2.0371363 255 255 255
-9959.5049 -14924.756 -27.740946 255 255 255
1794.97 1511.5638 4.1521921 255 255 255
1172.2462 1116.7961 3.3348303 255 255 255
1952.6266 1379.1436 3.9608874 255 255 255
10877.412 11367.473 26.902426 255 255 255
2145.7546 2697.6458 7.1387868 255 255 255
229.1964 721.30164 1.2121021 255 255 255
27900.836 16733.262 91.722069 255 255 255
-1801.11 -2314.3208 -4.8090324 255 255 255
1714.2415 2236.7827 4.1835184 255 255 255
732.83667 904.78009 3.3783562 255 255 255
400.80368 1025.9631 1.3464111 255 255 255
31972.773 28324.668 108.77346 255 255 255
-2412.6831 -3230.5593 -8.8410139 255 255 255
200.53004 749.65253 1.1931815 255 255 255
-4349.5894 -6236.5269 -10.898615 255 255 255
1386.479 1675.7463 3.0906119 255 255 255
-1920.0751 -1044.5508 -5.0359511 255 255 255
-10686.224 -11073.438 -30.166672 255 255 255
479.95996 392.78412 0.94066143 255 255 255
-1074.5869 -533.10193 -3.4054508 255 255 255
1026.3248 1571.6 2.5835714 255 255 255
-5274.9404 -4395.8931 -12.830203 255 255 255
-1099.1573 -814.17236 -2.5945661 255 255 255
724.12579 1089.4705 1.6693407 255 255 255
12182.663 10785.799 28.987768 255 255 255
1084.7764 644.02753 1.9025403 255 255 255
1210.6749 1794.4385 4.460001 255 255 255
-1274.5011 -966.31012 -4.0371127 255 255 255
763.72943 1074.5486 1.7444576 255 255 255
526.9422 556.71387 1.479138 255 255 255
1035.9487 1075.674 1.8519363 255 255 255
774.26465 1119.2739 2.3004932 255 255 255
5161.3208 5474.6616 12.606554 255 255 255
1615.7413 3284.9778 5.7621369 255 255 255
1694.8723 1692.7524 3.724643 255 255 255
498.60681 502.33322 1.1209224 255 255 255
-3285.7078 -5012.5068 -15.101014 255 255 255
1933.733 1613.5476 5.1741085 255 255 255
2590.2075 5088.689 9.5389652 255 255 255
3021.3325 3028.8586 7.2439547 255 255 255
1406.7052 1486.5471 3.1970155 255 255 255
454.88132 540.61761 0.90985602 255 255 255
-358.05438 -722.23486 -1.9962142 255 255 255
-797.75458 -739.58429 -2.4254692 255 255 255
382.19095 477.52011 0.89099222 255 255 255
639.80725 822.50446 1.480348 255 255 255
1223.1942 984.12103 2.294903 255 255 255
1218.0903 905.39661 2.2418914 255 255 255
-888.21814 -661.96698 -2.9550908 255 255 255
2996.1804 4599.5659 9.2877445 255 255 255
1310.1819 1151.3127 3.0819569 255 255 255
651.57361 575.8504 1.4451966 255 255 255
2037.4725 1664.4006 4.9636369 255 255 255
-3386.7344 -4704.8247 -9.0698099 255 255 255
1977.7209 5204.9639 6.6052475 255 255 255
-2683.9138 -2073.9897 -6.93437 255 255 255
549.60516 480.59735 1.1001885 255 255 255
2757.7146 1044.1331 5.3866177 255 255 255
2808.3757 2704.2791 6.7135367 255 255 255
3371.9861 2652.3821 6.6868339 255 255 255
-1543.7119 -1247.4327 -3.3425186 255 255 255
5760.5039 6250.2734 16.636705 255 255 255
411.06042 358.92142 0.91497904 255 255 255
65614.055 30433.535 127.80085 255 255 255
173.66673 242.15317 0.55781841 255 255 255
6259.5225 5297.1582 13.809547 255 255 255
2020.4741 1212.9274 4.4744182 255 255 255
9785.9277 8956.7852 26.351807 255 255 255
1232.6075 1041.4261 3.3406923 255 255 255
-3161.4834 -1659.8176 -6.1536889 255 255 255
11112.564 4444.2749 25.921618 255 255 255
763.10938 687.25171 1.4847454 255 255 255
1060.1594 690.06531 2.8488443 255 255 255
1268.1791 1488.1669 2.7419875 255 255 255
1179.9186 568.00751 2.5840778 255 255 255
-2032.1455 -2038.2357 -6.1768017 255 255 255
593.8028 481.61932 1.0797768 255 255 255
1719.4448 2283.48 3.9486938 255 255 255
1033.5045 809.84674 2.8883567 255 255 255
2942.8694 2591.877 5.716423 255 255 255
-4239.9712 -5194.3281 -11.521543 255 255 255
556.49982 402.88748 1.0513936 255 255 255
-3587.5066 -2191.5051 -5.2442813 255 255 255
1111.8916 1647.8413 2.6134872 255 255 255
-1195.0433 -1942.4121 -5.2673182 255 255 255
1952.8422 3377.2917 5.1099758 255 255 255
1376.0636 1077.2828 2.0531592 255 255 255
-853.68646 -963.96759 -2.7253463 255 255 255
698.41211 963.84039 2.4899106 255 255 255
-12442.063 -9698.9346 -29.640343 255 255 255
665.20819 410.4201 1.7863361 255 255 255
3266.3223 2326.0913 7.8482857 255 255 255
2332.823 2580.2441 5.3726573 255 255 255
-2593.7795 -2923.1023 -7.8283744 255 255 255
4544.1978 5626.8691 12.135367 255 255 255
1855.5725 1745.616 4.0501733 255 255 255
1226.5627 1927.5444 3.4297693 255 255 255
2022.8766 2073.8735 6.4199343 255 255 255
-3315.2041 -3600.759 -7.5368075 255 255 255
1092.4229 619.2561 2.705961 255 255 255
344.92191 327.0282 1.0194199 255 255 255
653.67859 527.73846 1.3891732 255 255 255
1000.5945 1232.3328 2.5580909 255 255 255
1276.205 1514.134 2.8323858 255 255 255
2090.9141 1251.6495 5.9494252 255 255 255
22336.402 11499.106 42.529575 255 255 255
-1666.9541 -2080.8286 -4.6528316 255 255 255
1271.7208 1183.0151 2.564342 255 255 255
7578.5083 12692.947 22.379501 255 255 255
994.5 1216.7638 2.3709345 255 255 255
1537.0598 1546.5162 2.528914 255 255 255
2769.9148 2715.5776 5.9041262 255 255 255
656.72156 615.21301 1.8967172 255 255 255
15219.656 6944.5107 32.194008 255 255 255
739.19385 1114.3009 2.8086376 255 255 255
-21041.801 -8254.2354 -41.36742 255 255 255
311.95523 1092.8833 1.4123898 255 255 255
712.37488 550.47418 1.1098933 255 255 255
863.28015 1066.6338 1.7379029 255 255 255
2506.7424 3549.1831 9.2154055 255 255 255
-1133.5819 -935.40027 -3.0111411 255 255 255
-3576.1692 -3831.7361 -11.209754 255 255 255
-17410.684 -14315.448 -41.45715 255 255 255
-1299.6508 -1016.6444 -4.3246322 255 255 255
27261.83 16160.632 46.552277 255 255 255
43283.547 20583.123 83.996086 255 255 255
1249.9016 1049.464 2.9299572 255 255 255
-909.44604 -847.69666 -2.5230365 255 255 255
834.18518 1402.319 2.0634882 255 255 255
10278.488 7194.6016 25.425714 255 255 255
-985.89423 -2350.9941 -4.3590589 255 255 255
-2026.8055 -1045.8527 -6.6387506 255 255 255
-35961.352 -29533.043 -86.559509 255 255 255
888.11664 1119.2903 2.3124578 255 255 255
446.48007 437.42566 1.0948677 255 255 255
17122.611 16711.389 40.137314 255 255 255
4813.5024 4584.4917 9.6209106 255 255 255
5554.3647 6203.6567 19.140589 255 255 255
-11130.257 -5764.6167 -15.90687 255 255 255
654.25714 632.51483 1.5180019 255 255 255
14814.634 6711.3735 31.530832 255 255 255
-4054.7976 -7929.7075 -18.003922 255 255 255
-2886.938 -1012.5984 -5.5968146 255 255 255
584.15295 493.04578 1.1949048 255 255 255
657.35974 815.66333 1.919511 255 255 255
1388.9662 1315.5475 3.1401076 255 255 255
2484.9912 3195.9368 6.8755107 255 255 255
-7200.2295 -3035.4714 -10.685184 255 255 255
5460.9922 4743.6094 14.499147 255 255 255
1245.5377 1113.6434 3.3119953 255 255 255
2617.7886 1765.0822 6.5672541 255 255 255
1731.8358 1487.1239 4.2253089 255 255 255
-7820.5674 -12342.879 -34.084938 255 255 255
777.65942 375.6684 1.7595433 255 255 255
7508.6216 5337.2686 11.572256 255 255 255
3575.3083 4160.3516 8.8542709 255 255 255
-1733.6758 -875.8894 -5.9237785 255 255 255
31968.957 36872.801 96.565742 255 255 255
-3895.6052 -2968.6072 -10.11497 255 255 255
3416.9011 2120.4873 7.5685239 255 255 255
799.84827 883.70435 1.5577102 255 255 255
8213.0967 11830.022 22.582144 255 255 255
-20161.096 -11601.383 -29.077061 255 255 255
353.62442 530.62695 0.89963186 255 255 255
700.19757 592.83759 1.6176859 255 255 255
3130.4067 1974.4299 7.0346651 255 255 255
3920.2642 7201.2583 16.206455 255 255 255
1271.8309 1572.0483 2.930346 255 255 255
1207.4382 1194.1652 2.5381877 255 255 255
428.67886 472.71329 1.5365201 255 255 255
2582.3403 1361.0723 6.6110883 255 255 255
2093.396 2145.0652 6.638133 255 255 255
5719.8472 7424.9019 14.826015 255 255 255
980.65283 2258.6382 4.3060484 255 255 255
-2132.9849 -3582.7129 -10.611908 255 255 255
-3591.7878 -4041.3066 -11.755441 255 255 255
-10727.246 -5487.7466 -15.368206 255 255 255
820.50366 1090.5143 1.7590078 255 255 255
684.43774 970.61908 2.8630245 255 255 255
-14440.041 -8041.0254 -20.413387 255 255 255
364.57639 241.88701 0.84288132 255 255 255
-657.39136 -764.28314 -2.4230027 255 255 255
-1392.8882 -1525.2159 -5.1058621 255 255 255
1936.6831 1598.4342 4.2362876 255 255 255
-2194.3308 -1651.3398 -6.4636059 255 255 255
3307.4058 3450.2771 7.6963673 255 255 255
3246.5754 4168.7529 10.735071 255 255 255
-7889.8262 -12601.255 -34.827415 255 255 255
-9728.6123 -7993.208 -23.523811 255 255 255
1809.887 1582.9535 3.3952858 255 255 255
316.98077 706.65326 1.0324699 255 255 255
-1982.4856 -1732.2311 -4.877574 255 255 255
-2688.1765 -3527.2078 -10.80767 255 255 255
-1239.8671 -543.37158 -3.4598255 255 255 255
-2053.5383 -2030.3378 -5.1344461 255 255 255
13768.984 11264.248 24.805199 255 255 255
1481.0797 1810.7244 3.2649288 255 255 255
5951.1533 3114.9099 13.19281 255 255 255
595.10083 225.19023 1.6049449 255 255 255
3526.8958 3326.6384 6.16643 255 255 255
336.95706 302.94385 0.93206942 255 255 255
801.88403 839.09509 1.9676261 255 255 255
761.91479 641.59088 1.6792128 255 255 255
1873.7354 2369.4985 4.8412962 255 255 255
-7701.4507 -8937.8525 -25.80315 255 255 255
-2179.9155 -1548.1956 -5.5434532 255 255 255
-1723.3916 -840.95795 -3.8202903 255 255 255
315.918 262.86993 0.82911003 255 255 255
898.18695 736.84039 2.6369498 255 255 255
-2653.7583 -1260.124 -5.888804 255 255 255
-3292.8923 -4687.8906 -11.771857 255 255 255
309.77786 327.25015 0.66450107 255 255 255
0.53380448 0.84560591 0.0018645644 255 255 255
-1581.6188 -1998.1407 -5.3682494 255 255 255
1132.9279 1627.5262 2.7828658 255 255 255
1700.8855 2279.2083 4.2921176 255 255 255
2916.0188 1542.574 7.2221432 255 255 255
-70454.203 -103753.95 -221.97079 255 255 255
-3905.7371 -5600.6104 -10.701432 255 255 255
-4940.3213 -1824.3721 -6.4537907 255 255 255
-3056.4446 -2310.9556 -8.3002396 255 255 255
-356.41068 -341.33759 -1.6129681 255 255 255
311.30997 651.16107 0.96229774 255 255 255
2103.9709 1870.3734 4.507061 255 255 255
-2270.1421 -946.16882 -5.2481656 255 255 255
715.73737 756.72101 1.8230118 255 255 255
405.05933 349.33862 0.87463444 255 255 255
-2962.8696 -2004.3624 -8.0306559 255 255 255
620.40295 601.92627 1.7381783 255 255 255
-1196.9139 -752.38171 -2.6687326 255 255 255
-1221.646 -1176.749 -4.1809101 255 255 255
-10455.192 -10310.78 -29.580206 255 255 255
-480.38849 -263.33133 -2.0505803 255 255 255
235.44415 355.7981 0.7369467 255 255 255
-11314.819 -6032.2158 -26.803255 255 255 255
1308.6918 965.93591 3.291338 255 255 255
-6537.8037 -6257.1836 -18.970215 255 255 255
49043.59 19519.326 106.09256 255 255 255
493.10974 985.49725 1.4669594 255 255 255
2324.2178 2391.8193 4.4080372 255 255 255
-480.29489 -432.75012 -1.595225 255 255 255
1142.6135 1573.6222 2.6728249 255 255 255
-1959.9794 -1013.2576 -4.4029408 255 255 255
-990.24756 -754.77429 -2.5832911 255 255 255
937.17737 1104.1666 2.415448 255 255 255
676.53156 668.12305 1.7900854 255 255 255
604.34851 810.60889 1.5684636 255 255 255
328.48407 283.61188 0.76482719 255 255 255
359.5224 371.27811 0.98336446 255 255 255
248.71368 346.89883 0.92246318 255 255 255
-641.57629 -873.42407 -2.373786 255 255 255
2273.0349 2296.6672 4.4661045 255 255 255
912.02899 1216.9556 3.072067 255 255 255
-3484.6902 -3810.6968 -7.9905477 255 255 255
4475.707 4578.9165 7.5807567 255 255 255
247.9762 314.89401 0.34773374 255 255 255
718.03552 859.23804 1.5628041 255 255 255
-737.90564 -898.4635 -2.4217782 255 255 255
766.27454 1054.3826 2.1533067 255 255 255
-9283.041 -14027.242 -32.480896 255 255 255
-40938.594 -16510.064 -82.015884 255 255 255
1949.7382 2038.2391 3.9857891 255 255 255
-1334.0397 -817.24945 -2.9746501 255 255 255
4239.085 2768.3445 10.821012 255 255 255
-1494.2102 -1423.5198 -3.8105233 255 255 255
380.10678 466.87454 0.80100238 255 255 255
2098.4983 2912.6975 7.5878291 255 255 255
-2468.6074 -4188.0703 -11.029933 255 255 255
516.17731 499.00882 0.99758381 255 255 255
-6441.709 -4944.5049 -16.378054 255 255 255
20176.934 27239.246 61.330963 255 255 255
44675.098 51005.727 128.77812 255 255 255
657.1496 749.81653 1.4004815 255 255 255
1039.5208 961.16998 1.8673724 255 255 255
624.0296 707.61865 1.5942693 255 255 255
-2145.1025 -2696.7607 -7.5475144 255 255 255
-1073896.8 -356327.91 -2174.7444 255 255 255
7722.9282 3147.6201 16.836468 255 255 255
2273.1318 2200.5383 6.3519058 255 255 255
1582.3065 1010.058 3.0127931 255 255 255
1669.0664 1960.1221 3.9626608 255 255 255
1901.4697 2138.4153 4.4977956 255 255 255
-3809.8296 -9655.8506 -17.838726 255 255 255
-2145.481 -2321.4275 -5.4337864 255 255 255
1330.5356 1396.996 2.6845233 255 255 255
350.39478 211.38075 0.661681 255 255 255
1496.6161 1504.9745 3.242171 255 255 255
1096.2731 1117.6277 2.2729645 255 255 255
2042.8545 922.93335 4.349678 255 255 255
369.76556 499.91043 1.1455553 255 255 255
590.79913 516.05524 1.240774 255 255 255
2519.5171 1093.9323 4.9826665 255 255 255
945.21875 1143.8524 2.4371195 255 255 255
-4770.9346 -5190.1597 -13.569325 255 255 255
14508.613 12256.58 29.409843 255 255 255
1910.2389 2806.3818 6.81144 255 255 255
4833.9316 3735.0974 8.760313 255 255 255
-4570.6611 -2640.4363 -6.8606305 255 255 255
1352.2443 1584.3154 3.0832818 255 255 255
-1089.8539 -1409.3524 -3.3555219 255 255 255
743.98596 621.56525 1.8546096 255 255 255
1801.5732 1914.7625 4.0925884 255 255 255
5565.0728 2322.4924 13.792014 255 255 255
9147.9346 11843.908 28.315073 255 255 255
3739.6394 2501.7991 9.4727573 255 255 255
-4025.1335 -4906.4756 -13.383993 255 255 255
2669.4438 2315.5427 6.8910012 255 255 255
-677.19409 -542.98016 -1.8384889 255 255 255
1254.1758 837.47327 2.7256231 255 255 255
1344.5931 1584.6827 3.0667403 255 255 255
2053.4165 1743.7676 4.4328098 255 255 255
-2616.0093 -902.13428 -5.8675327 255 255 255
888.64075 2414.3362 3.9012444 255 255 255
-1381.8871 -1265.0128 -4.4111195 255 255 255
5920.6768 8305.0869 19.372328 255 255 255
1675.2997 1835.8402 3.7360797 255 255 255
736.95782 958.5697 2.1851175 255 255 255
-1461.2642 -4547.3232 -9.2868643 255 255 255
1338.8796 1338.0392 3.2349923 255 255 255
686.6228 2131.9814 4.2294388 255 255 255
414.63876 294.38916 0.86795396 255 255 255
2215.146 2600.9475 5.7792425 255 255 255
-4339.5762 -3156.3206 -10.614355 255 255 255
1468.6973 1367.7019 3.3771706 255 255 255
8114.2495 6118.4629 17.520185 255 255 255
940.77515 640.61249 2.4299955 255 255 255
-1157.9036 -1385.6165 -3.7225597 255 255 255
-55659.027 -63889.156 -121.60165 255 255 255
-646.69824 -1099.9014 -3.0364633 255 255 255
-851.02966 -657.88202 -2.8167796 255 255 255
253.22452 506.93018 0.99219948 255 255 255
-3140.3909 -1860.0955 -6.8702779 255 255 255
673.36218 1076.116 1.9676569 255 255 255
1099.412 1455.8771 2.5959501 255 255 255
-15520.266 -8795.8691 -21.903618 255 255 255
-15311.584 -8667.7578 -21.585268 255 255 255
3124.7388 2593.6121 6.1554656 255 255 255
-4671.3149 -1994.5356 -12.762361 255 255 255
17341.186 13482.205 40.192337 255 255 255
51148.688 36247.574 72.313385 255 255 255
1371.1006 1363.929 4.3384347 255 255 255
-3183.0549 -6909.3735 -12.430079 255 255 255
-2584.3904 -4129.0327 -10.323069 255 255 255
8964.0127 3594.0964 21.362915 255 255 255
-11576.352 -17314.994 -39.56118 255 255 255
320.91684 430.5155 0.8190127 255 255 255
2288.7107 1239.7891 4.5186853 255 255 255
236.2664 440.15146 0.6617828 255 255 255
2594.8843 1824.8516 5.7753177 255 255 255
2057.0654 2948.45 6.9694805 255 255 255
-7157.5527 -5714.1572 -17.268253 255 255 255
755.37213 1022.6492 2.664506 255 255 255
6630.0444 8112.5859 14.782004 255 255 255
26012.203 15515.226 44.367783 255 255 255
1941.011 1783.8665 3.6047659 255 255 255
5423.6138 4225.6782 17.775766 255 255 255
837.81567 960.76581 1.9581989 255 255 255
-2397.981 -1640.0521 -5.3751798 255 255 255
1766.3247 2214.6013 4.429574 255 255 255
9818.0234 13041.427 31.289724 255 255 255
4707.8979 3085.2209 9.510623 255 255 255
3233.5288 2866.5947 7.4414372 255 255 255
1686.6324 1697.7644 5.1245594 255 255 255
881.78571 1016.7261 2.3035045 255 255 255
332.64621 198.03473 0.82880795 255 255 255
-6314.1587 -6392.5898 -13.224134 255 255 255
11300.112 7879.1152 23.827864 255 255 255
393.60291 724.05627 1.7429991 255 255 255
15443.798 6077.7939 34.527081 255 255 255
8566.8271 5244.2163 18.865692 255 255 255
299.52386 501.80704 1.2673895 255 255 255
876.80255 540.83777 1.8031499 255 255 255
2047.9197 1865.0642 5.2457647 255 255 255
2071.1326 2969.4285 7.2683253 255 255 255
826.00159 720.16992 2.4542563 255 255 255
6407.3315 12848.348 32.240517 255 255 255
550.88049 1047.9297 1.5466682 255 255 255
-4420.9448 -3198.2366 -11.016096 255 255 255
-861.60364 -325.61929 -1.9093432 255 255 255
-1675.2426 -1644.7823 -3.8969748 255 255 255
-1550.3533 -1831.793 -4.6738248 255 255 255
-2904.043 -3548.3843 -6.8510547 255 255 255
1956.0765 2347.1431 6.7905855 255 255 255
-1448.1017 -2035.5988 -5.925004 255 255 255
2054.9365 3452.2878 6.6634192 255 255 255
1228.8381 1528.2208 2.8704815 255 255 255
28522.662 16884.607 48.576645 255 255 255
-4129.7642 -2525.5342 -10.18693 255 255 255
699.00702 602.30487 1.5475807 255 255 255
-55023.699 -90899.578 -226.30531 255 255 255
-8281.1162 -3723.6729 -12.287546 255 255 255
1415.4604 2465.8711 4.5593324 255 255 255
-10355.728 -5230.8247 -14.861964 255 255 255
-1295.6561 -2096.7349 -5.2698116 255 255 255
-1438.1572 -857.1181 -3.2455046 255 255 255
-1304.4666 -1339.3083 -4.6463742 255 255 255
-4337.9443 -4316.021 -12.597711 255 255 255
1296.7026 823.0979 3.0370038 255 255 255
1806.4015 877.86249 4.958777 255 255 255
6834.7061 3364.3657 13.204517 255 255 255
14746.971 6782.8638 31.116278 255 255 255
313.71786 293.90579 0.70151925 255 255 255
-1482690.5 -906926.88 -3065.8145 255 255 255
-2458.0898 -2677.0596 -5.8576741 255 255 255
1633.4661 1663.8413 3.5821412 255 255 255
213.07916 389.64053 0.58075017 255 255 255
-1104.9446 -1892.8628 -3.7641566 255 255 255
1327.9891 1665.3499 2.9823313 255 255 255
1100.988 1161.9615 3.2990751 255 255 255
2647.0059 2616.231 5.0132957 255 255 255
705.33337 1211.2708 1.7422457 255 255 255
1288.8771 1367.7313 2.6444592 255 255 255
44321.465 17755.293 96.084175 255 255 255
2015.1346 1959.0234 4.2001686 255 255 255
-2654.3828 -1694.8374 -6.0553541 255 255 255
618.30243 554.18726 1.8525152 255 255 255
991.46765 1484.4368 2.4325287 255 255 255
2589.4766 1996.3057 6.6681108 255 255 255
887.20203 670.52606 1.9672137 255 255 255
-3887.8928 -4198.8149 -8.7126064 255 255 255
2591.9758 4037.2559 9.6009989 255 255 255
375.67892 1027.1659 1.4862964 255 255 255
665.54395 943.32794 2.0640039 255 255 255
-4083.2341 -1485.6959 -10.126909 255 255 255
1326.6173 1662.937 2.9810972 255 255 255
1156.9636 1728.0946 2.6320448 255 255 255
-2632.481 -2051.6318 -7.5917897 255 255 255
7919.2295 6212.7402 19.915316 255 255 255
-9104.8135 -6847.8623 -23.536293 255 255 255
947.32483 1155.4813 3.6343122 255 255 255
-9326.9404 -5531.6587 -23.479155 255 255 255
-1891.7125 -1798.1255 -5.8292499 255 255 255
2029.6067 1748.1289 4.4618797 255 255 255
2673.7183 2698.2346 6.2031822 255 255 255
-1442.8588 -1262.8285 -4.3906956 255 255 255
-75307.18 -33934.664 -163.47485 255 255 255
1806.0845 2617.7251 4.1608915 255 255 255
3537.3132 2814.1953 7.8031168 255 255 255
994.60461 1202.1691 2.5647056 255 255 255
-14196.507 -14760.575 -40.5718 255 255 255
-60159.441 -48235.133 -167.30742 255 255 255
857.91809 1069.2028 2.1548536 255 255 255
297.5535 278.84607 0.62809348 255 255 255
-9391.2412 -9371.165 -26.473558 255 255 255
417.71265 539.78345 0.98737037 255 255 255
3488.0925 3032.2512 7.5088611 255 255 255
1487.5933 1350.6667 4.2286458 255 255 255
-1038.5439 -860.69727 -3.1668856 255 255 255
-46134.766 -51599.375 -118.00632 255 255 255
2052.2437 2780.6953 5.5936832 255 255 255
-3632.6323 -4202.9321 -7.9271731 255 255 255
-993.25342 -972.32013 -3.3127203 255 255 255
-3852.7876 -3539.2864 -10.981817 255 255 255
-931.62109 -800.05359 -2.6373363 255 255 255
12542.508 15872.858 46.327396 255 255 255
-1053.1628 -1245.1816 -3.1481016 255 255 255
-4180.9473 -2415.4111 -11.095274 255 255 255
1673.0992 1696.234 3.5613348 255 255 255
224.92384 1020.5645 1.2938871 255 255 255
-3320.0591 -3478.7896 -7.5148945 255 255 255
380.83548 411.63129 0.72273618 255 255 255
1701.1857 1192.4487 3.6825933 255 255 255
-29659.352 -46998.344 -90.394768 255 255 255
25076.348 26896.58 66.171082 255 255 255
-2116.6135 -3085.3931 -8.0044479 255 255 255
26728.547 15867.073 45.604584 255 255 255
2449.4636 1865.1576 5.8494916 255 255 255
240.62595 401.2247 0.83425051 255 255 255
290.20123 814.48798 1.0039085 255 255 255
15098.962 14974.573 39.036095 255 255 255
792.18842 751.92194 2.0150354 255 255 255
618.31616 713.78198 1.5630846 255 255 255
-4539.8931 -6329.1182 -15.088546 255 255 255
628.85419 552.78235 1.3028873 255 255 255
-4669.6294 -4545.2539 -11.532224 255 255 255
1152.8929 1595.3975 2.681716 255 255 255
3037.1313 2874.8367 8.3916626 255 255 255
4096.3032 4096.0684 6.798142 255 255 255
984.88959 1351.647 2.1443174 255 255 255
353.11429 409.20831 0.87621778 255 255 255
1102.9473 678.27563 2.7366433 255 255 255
675.11676 1346.4177 1.9240921 255 255 255
292.14767 424.80807 0.46493506 255 255 255
-1711.6278 -1485.6183 -3.149194 255 255 255
312.0195 469.17096 0.9239046 255 255 255
1018.7311 1496.7606 2.4764726 255 255 255
-2927.9456 -3504.4031 -6.7228265 255 255 255
-7147.3374 -7565.8438 -16.182064 255 255 255
411.0144 496.03955 1.0039515 255 255 255
23927.406 33088.465 74.409294 255 255 255
-948.25427 -816.9834 -2.635829 255 255 255
35158.516 20647.252 59.567223 255 255 255
353.86508 438.98648 1.1590009 255 255 255
2375.9683 2702.9404 5.3807492 255 255 255
3204.4678 2314.3472 8.5445023 255 255 255
-2457.2976 -1600.9166 -6.2351456 255 255 255
28711.783 15226.776 74.344742 255 255 255
1460.5435 1668.9304 3.2970436 255 255 255
-1242.3131 -1033.0841 -4.5087867 255 255 255
1215.5001 1250.8799 2.551178 255 255 255
1978.0677 1892.7252 4.1788754 255 255 255
5097.6875 3235.7676 10.299708 255 255 255
-2769.7932 -1592.0483 -6.4125733 255 255 255
-12309.175 -6314.9385 -18.171194 255 255 255
-647.65509 -942.11932 -3.1950741 255 255 255
1312.0463 1012.2397 2.5112348 255 255 255
1537.1544 2137.5144 4.702147 255 255 255
-1877.4559 -2883.9414 -6.4403667 255 255 255
-754.45746 -893.6947 -2.6554205 255 255 255
-3830.4028 -2393.115 -10.750114 255 255 255
9652.8008 9237.7246 27.081007 255 255 255
-852.46332 -647.75928 -2.9782608 255 255 255
1528.2543 957.87201 3.8909774 255 255 255
-941.96198 -1089.1925 -3.9528415 255 255 255
999.52985 1317.2689 2.6814492 255 255 255
1333.4481 1942.0765 3.412087 255 255 255
759.89587 508.60452 1.7996083 255 255 255
1275.7834 1609.1567 2.9177907 255 255 255
5693.2061 4087.5886 10.400924 255 255 255
5653.0527 5043.0488 9.7727909 255 255 255
429.42511 547.52667 0.92582917 255 255 255
-21101.402 -34534.984 -50.582882 255 255 255
239.56952 246.98524 0.59999794 255 255 255
-7159.1348 -7133.3384 -29.887001 255 255 255
1281.7686 1429.5281 2.4805524 255 255 255
877.10529 737.02582 1.9437608 255 255 255
1540.3846 996.12042 3.8081944 255 255 255
261.92139 292.89954 0.83052623 255 255 255
1302.6545 1202.4796 2.57019 255 255 255
-978.07684 -1360.324 -3.4485674 255 255 255
-14185.148 -7864.4414 -20.084978 255 255 255
1439.1732 2257.8816 4.4406066 255 255 255
-3703.5979 -3240.1106 -7.7421365 255 255 255
632.34772 539.44824 1.1898525 255 255 255
602.54572 669.41687 1.5510347 255 255 255
596.89221 722.1416 1.4359612 255 255 255
-908.04803 -1073.4115 -2.2027478 255 255 255
591.46539 465.48666 1.2550619 255 255 255
2659.2805 2837.4617 6.7246823 255 255 255
-939.2901 -1102.6747 -2.8905954 255 255 255
-1465.3501 -655.25793 -3.5514421 255 255 255
4119.3364 11985.579 22.511347 255 255 255
8208.959 7097.707 22.076956 255 255 255
1375.5959 2052.5442 3.2619174 255 255 255
-13847.643 -9976.3145 -45.151119 255 255 255
678.10449 1394.4535 1.9218717 255 255 255
-89775.336 -59556.07 -199.37463 255 255 255
-5556.2856 -3457.3611 -12.262463 255 255 255
-1871.2765 -1579.0244 -4.1621003 255 255 255
-1655.3191 -1402.0626 -3.0951054 255 255 255
3600.7195 1841.1825 8.0033512 255 255 255
378.75742 664.43353 1.0990593 255 255 255
1247.1829 1202.4181 2.8069129 255 255 255
-7803.0205 -6698.4209 -20.942905 255 255 255
23938.543 13514.951 57.158249 255 255 255
503.88223 566.83783 1.1965644 255 255 255
1033.0371 1370.5219 2.2573984 255 255 255
14297.324 15393.627 50.087921 255 255 255
-1078.9725 -1514.5807 -3.301764 255 255 255
609.53137 556.09192 0.89622045 255 255 255
-1202.3245 -1804.1228 -4.8142166 255 255 255
1322.7371 1289.4872 3.7392175 255 255 255
1313.7065 1606.316 2.9942803 255 255 255
2263.0979 2367.3887 5.1191049 255 255 255
-900.06152 -919.33453 -3.0176651 255 255 255
638.11932 614.81146 1.2968642 255 255 255
627.82843 579.30432 1.3117636 255 255 255
-2634.2966 -1364.4683 -6.1708822 255 255 255
245.56821 314.97406 0.53337514 255 255 255
872.08484 1296.915 2.1069036 255 255 255
473.1554 626.60608 1.0712786 255 255 255
-1616.8563 -1125.1248 -3.3850923 255 255 255
6242.6304 4105.7485 13.193432 255 255 255
553.93689 478.5098 1.115249 255 255 255
-1641.9708 -1963.512 -4.1344495 255 255 255
9650.8652 8424.7275 22.429525 255 255 255
885.16174 1394.0803 2.2695198 255 255 255
774.30414 725.47546 1.7958843 255 255 255
1336.1443 1515.0104 3.1029639 255 255 255
1243.4801 1801.2244 3.5940409 255 255 255
993.94824 1092.1243 2.0316179 255 255 255
-121514.62 -47076.016 -261.27859 255 255 255
-2346.2173 -2546.6914 -6.8665023 255 255 255
-816.08398 -1363.9811 -3.6381271 255 255 255
77903.625 64048.449 166.93599 255 255 255
-662.05664 -1525.3462 -2.9606323 255 255 255
717.93964 577.71008 1.6305976 255 255 255
14807.151 6811.5991 31.245094 255 255 255
367.14462 446.42117 0.76198661 255 255 255
2452.9404 2152.6084 6.4768972 255 255 255
3238.2495 4087.6995 8.0508451 255 255 255
716.71399 747.47858 2.5048556 255 255 255
234.93094 251.96953 0.4836922 255 255 255
1552.2963 1874.8478 4.6933403 255 255 255
-1368.4912 -766.78448 -3.6001751 255 255 255
1805.8339 1897.1716 3.8045664 255 255 255
1346.8474 1586.9677 3.0709324 255 255 255
532.86816 1049.2744 1.4953926 255 255 255
475.02722 238.28218 0.60791439 255 255 255
269.7355 269.94214 0.66570824 255 255 255
-9844.1992 -3488.9539 -40.3848 255 255 255
4386.189 7778.667 12.417579 255 255 255
-6690.6484 -6029.6562 -15.64747 255 255 255
-11113.92 -5757.5894 -15.883876 255 255 255
25281.168 15080.983 43.111038 255 255 255
-4023.3455 -2433.4065 -6.081306 255 255 255
-1403.49 -1136.6974 -3.3259058 255 255 255
173.44583 291.65469 0.4644618 255 255 255
-11029.686 -10837.714 -34.955605 255 255 255
-2658.7964 -1819.9994 -4.8055034 255 255 255
-15680.361 -18968.258 -47.630306 255 255 255
22601.391 11627.4 43.036068 255 255 255
-2231.2732 -2533.7493 -5.5846987 255 255 255
582.93109 585.6662 1.3473574 255 255 255
2883.3188 3376.4414 9.8604965 255 255 255
3305.8044 2809.8215 7.2450027 255 255 255
45308.141 19087.299 100.21156 255 255 255
-45837.148 -36289.207 -120.72885 255 255 255
30328.588 40846.176 105.28677 255 255 255
-6681.0972 -8015.7163 -14.407904 255 255 255
-20953.059 -8223.2637 -41.194653 255 255 255
1876.3097 830.76349 4.1165261 255 255 255
466.06323 568.34656 1.0350463 255 255 255
1364.89 1499.3414 3.1224229 255 255 255
-2500.3096 -3032.6968 -9.9319735 255 255 255
13473.244 24960.977 48.889957 255 255 255
-5648.3833 -7132.7661 -17.89809 255 255 255
2970.0823 1918.8334 6.6752329 255 255 255
2257.5901 5422.9072 11.361586 255 255 255
9087.4502 8992.208 20.417307 255 255 255
230.92934 706.1394 1.2071322 255 255 255
754.81555 424.93628 1.8920184 255 255 255
682.37024 1377.2191 1.9280307 255 255 255
2439.7319 2842.4475 7.134203 255 255 255
681.85742 1376.2638 1.9246809 255 255 255
728.49176 897.03522 1.7149024 255 255 255
794.31854 1328.5355 2.8949132 255 255 255
768.46362 1443.1812 2.0497499 255 255 255
682.24536 636.89014 1.525133 255 255 255
1103.9076 1208.3719 2.4433963 255 255 255
-1132.9799 -1388.4331 -4.3304992 255 255 255
2033.7733 1801.3336 4.4227481 255 255 255
1216.3324 858.17615 2.1824384 255 255 255
661.93988 799.85699 1.5513092 255 255 255
-8301.6943 -11904.199 -28.10334 255 255 255
1713.2483 2596.9751 4.9341445 255 255 255
762.13074 1528.7673 3.4707456 255 255 255
-2359.4192 -1708.4031 -5.3014355 255 255 255
-712.45068 -535.46802 -2.3343368 255 255 255
52642.676 20940.125 113.89671 255 255 255
-1730.0188 -3991.6956 -7.4962945 255 255 255
396.20544 286.20441 0.79168946 255 255 255
-1478.3774 -1215.2444 -3.8859036 255 255 255
698.78168 1426.6879 1.9715605 255 255 255
-1988.6094 -2720.9878 -5.4477649 255 255 255
824.38916 694.91827 2.2491117 255 255 255
1382.4766 1344.1346 2.9576926 255 255 255
1300.6736 1274.6747 3.8925226 255 255 255
1351.3022 1584.2426 3.0822558 255 255 255
-595.07141 -517.7627 -1.8315358 255 255 255
-14385.184 -8013.3408 -20.354239 255 255 255
2791.1372 3484.6694 4.6875663 255 255 255
2998.8318 2236.0339 6.359179 255 255 255
-1876.0778 -1988.5344 -5.8804374 255 255 255
-1948.0029 -1813.9951 -4.602725 255 255 255
1212.1136 1307.5708 2.8115022 255 255 255
28605.09 16935.594 48.73777 255 255 255
-919.4129 -989.32208 -3.3171597 255 255 255
1242.4227 1175.0066 2.879359 255 255 255
-10739.724 -5492.9194 -15.385071 255 255 255
-652.60736 -731.0199 -2.3061097 255 255 255
-33050.086 -25232.707 -77.710724 255 255 255
26210.016 15553.74 44.715969 255 255 255
1667.8063 1735.0884 3.3637486 255 255 255
292.3161 275.92886 0.75090265 255 255 255
-4917.7588 -5905.0835 -14.497185 255 255 255
294.5643 332.59323 0.63281429 255 255 255
906.62006 1361.6642 2.0953574 255 255 255
854.00696 968.65594 1.8491598 255 255 255
-24248.248 -19542.145 -63.746346 255 255 255
1483.1217 2379.731 4.1279173 255 255 255
386.18921 163.19501 0.80646574 255 255 255
-5374.4814 -3932.9973 -12.801571 255 255 255
676.81317 1392.4448 1.9185817 255 255 255
370.46121 1020.8975 1.3695152 255 255 255
-4013.5422 -4561.707 -12.849853 255 255 255
5377.5801 5425.7056 16.074865 255 255 255
-19183.207 -14002.521 -50.238762 255 255 255
6552.1572 3832.0623 15.030425 255 255 255
-2089.1663 -2185.4629 -6.3110981 255 255 255
-508.49368 -1236.6654 -2.7907155 255 255 255
2610.1868 1838.1805 5.810565 255 255 255
-3102.5596 -4777.335 -11.901994 255 255 255
3291.5925 3528.5234 7.9956808 255 255 255
-1634.5399 -1970.3347 -6.2892971 255 255 255
-1506.2878 -1423.4294 -3.8292124 255 255 255
-2945.2471 -1338.9226 -5.7768693 255 255 255
2419.3572 3515.4785 7.2199445 255 255 255
-13416.056 -7335.5776 -19.034925 255 255 255
1905.928 2027.3799 4.5999923 255 255 255
-1761.4801 -1945.1863 -4.4408789 255 255 255
673.58209 874.82458 1.5738055 255 255 255
5193.4961 3625.999 9.8576994 255 255 255
887.98267 1389.6293 2.2760465 255 255 255
1200.2056 1142.8787 2.9087288 255 255 255
-339259.59 -213885.03 -800.32996 255 255 255
1750.0168 1810.0468 3.50633 255 255 255
-108150.8 -141788.36 -353.54489 255 255 255
59690.434 57248.988 170.65979 255 255 255
2462.6853 1827.3574 5.984879 255 255 255
1703.4332 1693.3164 2.8303707 255 255 255
-1334.63 -2123.7502 -5.4094043 255 255 255
6005.0737 3386.7661 12.572518 255 255 255
-725.90198 -965.04248 -2.4992511 255 255 255
-1561.8492 -1222.9945 -3.8562136 255 255 255
2016.718 2361.2632 4.3402472 255 255 255
2549.2292 2716.103 5.3745532 255 255 255
2262.7417 1731.3644 5.0493231 255 255 255
4143.2891 4129.5801 6.8872013 255 255 255
-5155.1655 -5359.9497 -13.959143 255 255 255
5081.3989 5638.0312 13.581516 255 255 255
2058.5388 1695.6139 4.5865898 255 255 255
1642.3641 1420.2712 3.406724 255 255 255
997.01819 1048.5303 2.2541542 255 255 255
1052.5758 1043.9565 1.7414938 255 255 255
564.35858 908.9118 1.7965384 255 255 255
990.45465 1303.6743 2.1059377 255 255 255
1996.1976 2143.947 4.5082679 255 255 255
-2167.4246 -2251.2085 -5.2841787 255 255 255
1311.7954 1604.527 2.9895909 255 255 255
-10981.495 -7417.6919 -24.427544 255 255 255
286.47925 396.20648 0.88477099 255 255 255
-1019.4059 -1174.1871 -3.1267004 255 255 255
3497.5798 2485.1462 9.4782066 255 255 255
3283.0591 2644.8623 8.4824982 255 255 255
736.87946 1053.7128 2.0966308 255 255 255
-6530.1143 -4183.1665 -12.902399 255 255 255
1248.3535 1637.5585 2.8396754 255 255 255
4256.1172 4415.8096 7.1483936 255 255 255
1370.9727 1661.835 3.0719159 255 255 255
453.64941 380.09222 1.2405472 255 255 255
677.42462 578.81708 1.3926644 255 255 255
-7346.4141 -9128.9697 -28.211397 255 255 255
-760.38556 -1189.2916 -2.761112 255 255 255
1152.0215 1594.1195 2.6794455 255 255 255
-14495.895 -18065.354 -44.346798 255 255 255
2641.9404 2849.5557 5.9474883 255 255 255
562.42126 880.74396 1.3792135 255 255 255
7754.6025 11632.312 28.553562 255 255 255
676.17908 1349.302 1.9228268 255 255 255
504.78122 456.44357 1.1387846 255 255 255
-1096.7244 -929.88696 -2.7592766 255 255 255
710.22559 624.28424 1.4542743 255 255 255
-10142.736 -8303.5791 -25.660545 255 255 255
657.43268 365.97031 1.4361842 255 255 255
10746.199 6139.3569 20.422028 255 255 255
-1299.1781 -1570.6842 -4.9643159 255 255 255
1046.3557 754.78101 2.5502009 255 255 255
670.9613 1407.3197 1.9060626 255 255 255
818.21002 733.2561 2.5478461 255 255 255
724.88733 922.05524 1.5609623 255 255 255
-2356.8745 -2038.3977 -6.8296814 255 255 255
930.92096 477.47125 2.3032346 255 255 255
-2043.3473 -1381.2848 -6.1482167 255 255 255
1808.3999 2205.5332 5.322289 255 255 255
1278.7582 1689.7765 3.0336852 255 255 255
682.1601 859.68317 1.8847227 255 255 255
-838.42725 -1110.3219 -2.8159404 255 255 255
1216.7646 1124.9432 3.0633087 255 255 255
-5367.2407 -10063.401 -14.839969 255 255 255
654.51965 774.36584 1.320855 255 255 255
574.64337 283.19577 1.1352968 255 255 255
2002.9723 1718.3934 4.4645162 255 255 255
1016.9614 1125.1545 3.0149081 255 255 255
637.31281 748.70642 1.3765029 255 255 255
13298.516 10544.071 32.545734 255 255 255
-1257.3589 -728.56006 -2.9176898 255 255 255
43164.637 17289.684 93.558899 255 255 255
4295.0498 3402.5828 9.2089195 255 255 255
2208.6001 1854.3542 4.7739534 255 255 255
3683.6953 3543.0957 9.0435429 255 255 255
-10321.263 -9477.46 -27.749439 255 255 255
-2846.9302 -2420.6243 -8.4950447 255 255 255
874.69592 1437.6801 2.1096869 255 255 255
8428.0645 11211.38 26.239325 255 255 255
1757.564 2398.2046 5.5657067 255 255 255
-2407.0046 -1680.4182 -5.9775319 255 255 255
546.87488 727.40857 1.2022138 255 255 255
706.43341 1441.3374 1.9556439 255 255 255
14462.156 11854.487 39.313377 255 255 255
951.91028 1412.2086 2.1543164 255 255 255
3685.4678 4708.9468 10.017031 255 255 255
22668.125 21546.965 69.773125 255 255 255
-2870.5603 -3870.8088 -10.382917 255 255 255
665.9032 524.20306 1.2910012 255 255 255
-13519.779 -11732.163 -40.293354 255 255 255
1077.5317 1598.0087 2.7407029 255 255 255
1257.962 1689.7833 3.163542 255 255 255
-1141.4982 -1040.5372 -3.3246098 255 255 255
429.62973 917.40472 1.2161717 255 255 255
6395.5005 3735.2473 12.996099 255 255 255
3105.1428 3687.1162 8.5973845 255 255 255
418.3902 295.42441 0.88072455 255 255 255
679.70093 493.8898 1.3184104 255 255 255
3606.7664 2152.6921 8.0514431 255 255 255
541.43109 590.48865 1.1738198 255 255 255
684.66315 825.10913 1.7998931 255 255 255
-3279.425 -3098.1519 -9.836215 255 255 255
-1037.1086 -1210.9032 -3.9103618 255 255 255
-6204.0078 -10452.707 -23.497723 255 255 255
496.72614 568.64886 0.96456617 255 255 255
1077.3414 1163.037 2.7648978 255 255 255
783.71259 800.54272 1.432018 255 255 255
-683.03839 -423.31329 -1.9684868 255 255 255
571.70044 879.22717 1.3086959 255 255 255
35324.18 14295.124 76.446335 255 255 255
1190.7506 1620.7596 3.0215566 255 255 255
-366.03839 -371.81912 -2.0591619 255 255 255
-4095.7886 -3944.677 -9.3690758 255 255 255
990.27069 884.20276 1.8119001 255 255 255
-1441.3082 -1113.7262 -3.2345376 255 255 255
-89982.562 -107757.81 -277.92184 255 255 255
980.04846 1262.7123 2.3186467 255 255 255
1424.2528 1379.8021 3.3973799 255 255 255
1084.657 819.84973 3.1427116 255 255 255
699.59143 609.17645 1.4450388 255 255 255
-41985.125 -14710.105 -91.966713 255 255 255
-843.30505 -1722.1782 -3.5691726 255 255 255
488.76511 396.56805 0.9822222 255 255 255
5815.3398 5154.772 11.674646 255 255 255
-2417.9861 -3160.3159 -8.1464996 255 255 255
-2594.3992 -2788.8022 -6.2396402 255 255 255
347.09512 276.85583 1.0511482 255 255 255
230.46756 1017.5391 1.3017453 255 255 255
1765.3834 1394.1151 3.6683674 255 255 255
374.90189 433.4194 1.1368978 255 255 255
371.22586 1108.5518 1.4880207 255 255 255
-10254.679 -13139.897 -30.675314 255 255 255
1407.2311 895.88373 2.1493571 255 255 255
782.79242 843.94934 1.9913721 255 255 255
-836.9494 -1200.0227 -3.4351883 255 255 255
-794.2113 -385.07465 -1.8986012 255 255 255
1427.6393 2209.1643 4.042603 255 255 255
-2440.7402 -1012.5966 -3.8260806 255 255 255
-37122.039 -12966.519 -81.261086 255 255 255
-14594.428 -14354.115 -37.847076 255 255 255
1233.9608 1531.092 2.8731258 255 255 255
656.67993 462.49417 1.2277131 255 255 255
540.67157 600.06177 1.5086795 255 255 255
15692.485 8126.3979 39.894684 255 255 255
646.78796 1467.4552 2.087271 255 255 255
280.74902 434.24008 1.0328248 255 255 255
506.14621 624.50745 1.0156755 255 255 255
520.91339 309.12006 1.4542137 255 255 255
-1015.7021 -1285.5796 -3.2206743 255 255 255
17159.186 17048.992 41.629128 255 255 255
-1450.9213 -1726.7468 -5.5152102 255 255 255
-1376.1666 -750.06281 -3.0511663 255 255 255
580.47827 504.4726 1.1908098 255 255 255
398.5481 406.74261 0.88427824 255 255 255
335.94934 382.13071 0.66942215 255 255 255
-3015.4136 -3575.2114 -7.2268066 255 255 255
1996.2794 1496.3971 5.9464431 255 255 255
1294.4822 982.20526 2.7975392 255 255 255
18674.893 8311.1133 39.434212 255 255 255
884.93127 711.76624 1.9335574 255 255 255
238.91261 275.61569 0.52292907 255 255 255
1100.2676 1271.4843 2.3066759 255 255 255
-1304.2878 -1575.201 -4.8288064 255 255 255
-1960.1333 -1685.4047 -5.705215 255 255 255
-37343.641 -15170.263 -74.399956 255 255 255
3345.1985 2917.6855 7.8640318 255 255 255
10241.749 8979.2637 31.081062 255 255 255
948.79102 1079.3209 2.231353 255 255 255
3198.1191 3278.3999 7.839891 255 255 255
-2533.8816 -1792.0688 -6.394093 255 255 255
-6332.4102 -6813.375 -18.842667 255 255 255
2053.9556 1808.4513 4.6694608 255 255 255
2287.9529 2098.7375 4.6770124 255 255 255
-2463.2214 -2535.7527 -7.7335095 255 255 255
-798.06836 -1411.3396 -3.2025619 255 255 255
4665.2056 4687.1616 9.3264561 255 255 255
-8356.0771 -3766.2346 -12.402966 255 255 255
14133.312 5207.1108 33.893085 255 255 255
-5544.3135 -5988.8804 -14.825678 255 255 255
-4921.7056 -2966.9834 -10.349733 255 255 255
1654.9343 1435.6879 3.4275348 255 255 255
-2237.1116 -2723.9224 -5.7243018 255 255 255
899.50183 742.61389 1.3055317 255 255 255
-1075.0527 -945.90314 -3.0227718 255 255 255
2085.77 2816.5598 5.672792 255 255 255
2573.6375 3477.416 7.1699033 255 255 255
-4532.5278 -3221.1938 -11.967753 255 255 255
986.61334 694.21851 2.3107002 255 255 255
2404.0903 2775.3381 5.4826574 255 255 255
-626.20862 -1216.2312 -2.8353312 255 255 255
1254.8506 1384.0709 3.0157857 255 255 255
-5011.0361 -4440.5713 -14.386978 255 255 255
-942.74951 -1183.2474 -2.8971074 255 255 255
-6644.439 -7894.4595 -15.726459 255 255 255
2544.3533 2448.46 4.9372945 255 255 255
1373.5244 1657.2561 3.0796671 255 255 255
-3345.208 -5646.3682 -9.8222027 255 255 255
-802.60718 -697.44659 -2.4286151 255 255 255
1939.5325 1914.1649 4.0719895 255 255 255
1933.0562 2600.6245 5.1970816 255 255 255
1075.1815 1267.2759 2.7019701 255 255 255
1583.6472 1829.9111 3.5105402 255 255 255
-1018.5117 -1253.8307 -3.143985 255 255 255
801.89148 1218.9889 2.3877642 255 255 255
879.44403 1450.0088 2.8088999 255 255 255
337.78345 713.08392 1.440217 255 255 255
-2590.2112 -4313.856 -10.113087 255 255 255
5607.8242 2340.6396 13.899752 255 255 255
1812.9794 1797.0088 3.9005883 255 255 255
-924.52924 -885.91449 -3.775815 255 255 255
-1012.144 -1034.4089 -2.8938758 255 255 255
614.32379 468.88535 1.3614064 255 255 255
4338.147 2680.1467 9.8697119 255 255 255
-4189.6621 -2619.1338 -10.058309 255 255 255
1523.7201 2918.958 4.35747 255 255 255
1287.2726 1179.2617 3.7528925 255 255 255
-1070.5009 -930.86487 -2.8711677 255 255 255
