ply
format ascii 1.0
comment PCL generated
element vertex 1067
property float x
property float y
property float z
property uchar red
property uchar green
property uchar blue
element face 0
element camera 0
property float view_px
property float view_py
property float view_pz
property float x_axisx
property float x_axisy
property float x_axisz
property float y_axisx
property float y_axisy
property float y_axisz
property float z_axisx
property float z_axisy
property float z_axisz
property float focal
property float scalex
property float scaley
property float centerx
property float centery
property int viewportx
property int viewporty
property float k1
property float k2
end_header
-37.777512 -66.035355 -1.0840917 255 255 255
-5.729178 -71.043716 -1.1539516 255 255 255
185.07831 -19.11128 -0.81640035 255 255 255
-16.148319 -70.874802 -1.1635458 255 255 255
207.07214 -30.227135 -0.80834281 255 255 255
-3.1297948 -72.759232 -1.2007413 255 255 255
132.68414 -41.145466 -0.8675127 255 255 255
131.9003 -31.539446 -0.78020626 255 255 255
-6.0927553 -66.72448 -1.1036683 255 255 255
158.94281 -24.236902 -0.78258413 255 255 255
129.41196 -31.667637 -0.76764882 255 255 255
-6.585083 -72.590569 -1.2097988 255 255 255
7.1736422 -67.076836 -1.0789288 255 255 255
296.4357 2.8622119 -0.69033921 255 255 255
285.68341 0.92845267 -0.72702444 255 255 255
-32.696014 -65.569366 -1.0769765 255 255 255
176.09529 -25.588671 -0.86039585 255 255 255
7.7389708 -69.283638 -1.1477638 255 255 255
12.154501 -61.86895 -1.0661606 255 255 255
-20.509357 -65.874268 -1.0512741 255 255 255
-9305.5029 -2194.6196 -11.919413 255 255 255
-12.39607 -72.620316 -1.1772445 255 255 255
-22.87005 -77.516922 -1.2447244 255 255 255
15.229068 -69.215515 -1.1603593 255 255 255
-15.835134 -68.123726 -1.1220958 255 255 255
189.83275 -30.70051 -0.8075043 255 255 255
-5.3316188 -65.473465 -1.0824203 255 255 255
193.33614 -30.630718 -0.80838656 255 255 255
141.17665 -28.287434 -0.856942 255 255 255
-1957.8553 -664.40338 -5.3589234 255 255 255
-726.80908 -221.77307 -2.2432702 255 255 255
-35.279156 -65.36409 -1.0575603 255 255 255
36.556816 -64.756798 -1.0937135 255 255 255
-35.259586 -66.395081 -1.0634874 255 255 255
-1135.0851 -351.54715 -2.7079897 255 255 255
-7.2357907 -66.545883 -1.1068388 255 255 255
10.639339 -77.135254 -1.3273164 255 255 255
-5.0657825 -66.417694 -1.1132493 255 255 255
184.58971 -21.331507 -0.81159896 255 255 255
17.901339 -62.93145 -1.0681245 255 255 255
177.51926 -23.178642 -0.84411186 255 255 255
-36.559532 -65.829262 -1.0699998 255 255 255
356.7869 33.578423 -0.38783693 255 255 255
-5.0308642 -71.850815 -1.1920447 255 255 255
14.755876 -65.77803 -1.0969417 255 255 255
405.7338 45.409077 -0.34762642 255 255 255
10.466474 -66.607315 -1.1419877 255 255 255
3.0577538 -64.459877 -1.0892332 255 255 255
-17.15959 -69.713928 -1.1204654 255 255 255
111.43389 -31.947338 -0.75459951 255 255 255
-11.918853 -68.510956 -1.092241 255 255 255
193.0972 -6.6513481 -0.60773271 255 255 255
-6.2499313 -64.883522 -1.079319 255 255 255
104.95992 -42.906719 -0.8959986 255 255 255
5.2825518 -64.411301 -1.075054 255 255 255
6.039741 -65.24543 -1.0795619 255 255 255
13.036129 -72.816193 -1.1818957 255 255 255
193.60318 -29.897795 -0.80544221 255 255 255
-17.454216 -64.913666 -1.1184586 255 255 255
-34.615608 -66.709152 -1.0803339 255 255 255
132.63193 -39.311131 -0.89564842 255 255 255
-166.14604 -94.113503 -1.1938751 255 255 255
177.01955 -8.199317 -0.65611756 255 255 255
329.71375 27.07123 -0.42451674 255 255 255
279.45166 11.113616 -0.52080846 255 255 255
-5.1724634 -70.176773 -1.142907 255 255 255
-7.5580149 -71.489861 -1.1818804 255 255 255
400.12283 34.72118 -0.5516941 255 255 255
-10.870676 -76.78009 -1.3012476 255 255 255
-2304.2441 -631.04022 -4.0132279 255 255 255
-2.8779671 -66.290215 -1.0848376 255 255 255
194.83427 -14.209958 -0.73759741 255 255 255
-40.488548 -67.728195 -1.087435 255 255 255
-23.057449 -65.870514 -1.0494499 255 255 255
408.08621 46.972477 -0.27298585 255 255 255
0.7290926 -70.024811 -1.16519 255 255 255
204.23785 -30.168318 -0.81158346 255 255 255
-255.37329 -151.29657 -1.7312613 255 255 255
205.94678 -28.395452 -0.80074137 255 255 255
131.41212 -31.576178 -0.77982622 255 255 255
17.751114 -67.415634 -1.0788512 255 255 255
1255.605 257.13123 0.94895434 255 255 255
-7699.686 -2446.6777 -17.651451 255 255 255
190.3092 -30.698931 -0.80775124 255 255 255
238.59209 4.379796 -0.54885602 255 255 255
166.8483 -0.16741239 -0.53997844 255 255 255
17.091627 -63.006264 -1.0698299 255 255 255
255.67703 -17.84407 -0.75170714 255 255 255
94.444969 -42.229286 -0.92490107 255 255 255
-5.8537536 -65.847778 -1.1013663 255 255 255
518.16754 48.562778 -0.15885957 255 255 255
-17.411991 -68.856178 -1.1734689 255 255 255
135.00697 -29.684765 -0.7627545 255 255 255
189.65457 -31.065655 -0.81014848 255 255 255
202.90143 -30.958401 -0.84081942 255 255 255
425.51712 40.86636 -0.36144105 255 255 255
-37.452679 -68.685005 -1.0884736 255 255 255
428.05316 39.362701 -0.39489615 255 255 255
-12.491849 -69.354187 -1.1429404 255 255 255
29.386686 -63.421688 -1.1082506 255 255 255
-9.0380945 -65.491798 -1.0862552 255 255 255
-11.687161 -68.437668 -1.0895581 255 255 255
575.95996 61.064068 -0.41815856 255 255 255
-14.090167 -69.698761 -1.1377165 255 255 255
315.03024 18.794336 -0.48264366 255 255 255
94.296135 -31.943937 -0.75451928 255 255 255
13.68973 -63.543159 -1.0674905 255 255 255
-9.9252224 -68.738716 -1.1010481 255 255 255
19.101738 -64.802933 -1.1127476 255 255 255
-32.56303 -69.670143 -1.13788 255 255 255
-806.44543 -279.819 -2.5941486 255 255 255
219.42381 -12.735046 -0.79117548 255 255 255
23.321545 -63.389618 -1.085878 255 255 255
89.817528 -31.754314 -0.73458523 255 255 255
-10.424037 -69.103508 -1.1171687 255 255 255
1057.589 263.19946 1.2029604 255 255 255
-34.657864 -65.777725 -1.0605097 255 255 255
-15.61652 -70.444183 -1.1281022 255 255 255
-20.17544 -69.566978 -1.1293681 255 255 255
11.810614 -68.198593 -1.1610044 255 255 255
342.57883 27.796618 -0.46116623 255 255 255
198.39798 -7.3169322 -0.45108873 255 255 255
-406.98853 -196.88867 -1.9563882 255 255 255
2.392293 -67.524788 -1.1295735 255 255 255
930.55035 180.68576 0.45990407 255 255 255
85.057991 -32.044884 -0.72785288 255 255 255
-0.42842048 -70.958763 -1.1691908 255 255 255
0.061790321 -65.687195 -1.0731959 255 255 255
3.0293493 -74.695679 -1.2200363 255 255 255
-17.060093 -68.371262 -1.0962499 255 255 255
-333.93994 -170.36412 -1.8655366 255 255 255
181.93108 -19.874681 -0.80978703 255 255 255
269.24908 8.3321066 -0.55581921 255 255 255
15.086279 -66.016388 -1.0926675 255 255 255
93.910019 -31.847734 -0.74942183 255 255 255
154.19487 -29.517334 -0.71909571 255 255 255
52228.004 14673.682 86.910599 255 255 255
219.83759 -23.65667 -0.7691505 255 255 255
265.94339 -20.862247 -0.80340916 255 255 255
155.73907 -26.717894 -0.84634572 255 255 255
194.84378 -27.410997 -0.75811946 255 255 255
264.09344 -20.009134 -0.80052167 255 255 255
2.6019542 -64.136368 -1.0750954 255 255 255
-13.520776 -64.942726 -1.0959796 255 255 255
693.70038 124.95543 0.11235508 255 255 255
-25.184063 -66.332741 -1.0664178 255 255 255
-9.8403616 -70.743599 -1.1566325 255 255 255
342.64172 28.45475 -0.436003 255 255 255
4.5844388 -67.316696 -1.0771067 255 255 255
-133.08357 -112.02691 -1.4569772 255 255 255
8.9472084 -67.912201 -1.170553 255 255 255
17.752949 -64.292526 -1.1065722 255 255 255
13.338069 -62.599037 -1.0713326 255 255 255
204.79482 0.12863754 -0.550969 255 255 255
130.89032 -32.027882 -0.77146512 255 255 255
-22.48011 -64.052605 -1.0592663 255 255 255
187.35913 -1.5868917 -0.52177447 255 255 255
-5.7412987 -73.836548 -1.2403371 255 255 255
9.7222157 -69.882301 -1.1880341 255 255 255
2.7248733 -64.111 -1.0767154 255 255 255
104.29637 -25.348537 -0.69416732 255 255 255
15.801772 -62.351173 -1.0713158 255 255 255
-8.1963024 -66.060539 -1.0967404 255 255 255
-34.758675 -70.86216 -1.1504978 255 255 255
299.86777 19.944052 -0.46389559 255 255 255
1.4785844 -66.832489 -1.0973196 255 255 255
-491.9697 -201.20047 -1.8745422 255 255 255
189.95013 -30.708542 -0.8077628 255 255 255
171.20064 -16.953571 -0.7179026 255 255 255
-13.625573 -64.963791 -1.0961465 255 255 255
19.721315 -64.812691 -1.0836847 255 255 255
305.06433 -13.655851 -0.74755973 255 255 255
223.83997 -13.32661 -0.77261329 255 255 255
20.499136 -63.641048 -1.0722523 255 255 255
211.50609 -9.4995012 -0.69971365 255 255 255
206.60478 -30.222763 -0.80805099 255 255 255
205.09856 -9.9796305 -0.73785961 255 255 255
1063.8276 195.22134 1.2035075 255 255 255
-4.0590653 -65.00209 -1.0882257 255 255 255
219.8638 -1.1412901 -0.60210097 255 255 255
-16.147903 -68.357597 -1.1295158 255 255 255
368.42834 18.854099 -0.65378058 255 255 255
185.53999 -12.809446 -0.65891308 255 255 255
14.359534 -69.013474 -1.1842611 255 255 255
-11.615215 -69.105904 -1.1146024 255 255 255
431.61517 55.050125 -0.28699505 255 255 255
12.835226 -62.955727 -1.0674156 255 255 255
-9.9293842 -73.886269 -1.211947 255 255 255
255.33757 1.5171999 -0.4215925 255 255 255
-10.413626 -65.07843 -1.1004218 255 255 255
233.22705 -7.9323783 -0.78483701 255 255 255
-1.3782576 -67.169037 -1.1119591 255 255 255
-18.596941 -65.098038 -1.1598451 255 255 255
-13.507447 -64.533501 -1.0887678 255 255 255
85.651955 -39.178913 -0.8237254 255 255 255
20.793196 -66.209114 -1.1638026 255 255 255
550.15771 90.231842 -0.023733307 255 255 255
190.87579 -31.053438 -0.81059623 255 255 255
0.80788606 -70.890686 -1.184508 255 255 255
6.5748529 -74.454323 -1.1798947 255 255 255
152.15749 -31.360306 -0.79342216 255 255 255
537.60815 90.636444 -0.089208849 255 255 255
16.680529 -62.746273 -1.070357 255 255 255
1200.1901 143.65875 0.088048451 255 255 255
128.54108 -31.634279 -0.7669453 255 255 255
17.872053 -69.231247 -1.1549393 255 255 255
492.37219 93.331161 -0.19948937 255 255 255
5544.8843 1328.4785 5.9038644 255 255 255
264.43494 -0.9162575 -0.73950106 255 255 255
-31.643423 -71.425751 -1.1599371 255 255 255
208.97205 -13.418126 -0.72739387 255 255 255
229.59785 1.1342783 -0.62370974 255 255 255
887.54279 163.52209 0.24918474 255 255 255
19.235439 -74.642822 -1.1942697 255 255 255
137.70955 -17.677204 -0.5142805 255 255 255
-8.8757753 -71.462364 -1.1811547 255 255 255
1.6753151 -73.735283 -1.2208436 255 255 255
196.25015 -4.0682383 -0.56509691 255 255 255
29.465765 -69.324318 -1.2082148 255 255 255
-11.776888 -68.274773 -1.1232431 255 255 255
21.876373 -70.017311 -1.1867623 255 255 255
30.429932 -63.359966 -1.1063429 255 255 255
244.2845 6.3405404 -0.37296134 255 255 255
-2.7086132 -65.120956 -1.1298677 255 255 255
18.292603 -63.657425 -1.0687295 255 255 255
-30.594053 -70.390701 -1.1406748 255 255 255
304.48962 -13.274336 -0.73451692 255 255 255
19.968103 -69.601967 -1.1745195 255 255 255
-9.6996899 -70.792458 -1.1543932 255 255 255
-1.1760721 -68.574402 -1.1411896 255 255 255
527.99994 57.512032 -0.43849292 255 255 255
-29.549776 -64.868347 -1.0528653 255 255 255
-22.326519 -68.578827 -1.1149273 255 255 255
-0.56447589 -63.671574 -1.0834835 255 255 255
-19.316095 -69.349922 -1.183329 255 255 255
395.0946 42.661148 -0.33654398 255 255 255
4.9044828 -67.643608 -1.0825692 255 255 255
2080.3149 666.08014 5.3282709 255 255 255
-25.731876 -62.440483 -1.0691764 255 255 255
-4.4973779 -71.055725 -1.1918126 255 255 255
174.29745 -21.797579 -0.82906151 255 255 255
421.38071 52.519543 -0.26348335 255 255 255
-13.46725 -71.662285 -1.1845404 255 255 255
-109.92009 -102.34995 -1.3722801 255 255 255
378.85764 41.099426 -0.34788454 255 255 255
-3.2509871 -66.439507 -1.1083759 255 255 255
-12.455159 -69.221756 -1.1129858 255 255 255
213.29004 -28.055456 -0.7997241 255 255 255
191.42778 -2.375695 -0.54357183 255 255 255
4545.6123 1314.4519 9.4517708 255 255 255
-11.849567 -68.469772 -1.0911486 255 255 255
-20.232029 -69.492622 -1.1276369 255 255 255
7.7459722 -65.794281 -1.1041152 255 255 255
16.180099 -72.597466 -1.1635844 255 255 255
111.98385 -31.735613 -0.75419182 255 255 255
-27.887192 -65.56971 -1.0517435 255 255 255
19.905121 -72.481552 -1.1678423 255 255 255
11.373254 -67.678452 -1.1193501 255 255 255
21.734379 -63.308384 -1.0865734 255 255 255
-37.683846 -67.553299 -1.0943578 255 255 255
-8.0341139 -66.366203 -1.1044558 255 255 255
-4.0976491 -66.53418 -1.1005691 255 255 255
290.48807 20.326284 -0.45527968 255 255 255
7.9335995 -66.067474 -1.1025985 255 255 255
113.12479 -31.835505 -0.75536358 255 255 255
-17.757854 -73.010811 -1.1938184 255 255 255
160.28683 -13.843207 -0.6907199 255 255 255
-32.138142 -70.356339 -1.1359113 255 255 255
248.12619 0.44556937 -0.45472351 255 255 255
9.8574581 -67.859726 -1.1426948 255 255 255
14.220573 -60.429928 -1.0114989 255 255 255
-9.2098179 -65.480942 -1.1040273 255 255 255
15.419568 -62.249302 -1.0808169 255 255 255
788.65356 64.945229 -0.32315081 255 255 255
101.88181 -39.617519 -0.8114143 255 255 255
117.39527 -31.604008 -0.75934726 255 255 255
-10.556702 -72.661659 -1.1980184 255 255 255
13.169886 -66.077202 -1.1015488 255 255 255
13.860845 -63.219788 -1.0677464 255 255 255
209.25372 -9.8800344 -0.81580079 255 255 255
-1.8294237 -68.169991 -1.08761 255 255 255
17.767557 -62.972935 -1.0676004 255 255 255
131.47304 -31.546402 -0.78007871 255 255 255
-4.5259323 -65.781281 -1.1566023 255 255 255
-8.2048855 -74.510834 -1.2347291 255 255 255
356.31921 12.897167 -0.69992262 255 255 255
138.21164 -30.892372 -0.85335964 255 255 255
-13.154012 -69.828835 -1.1199481 255 255 255
-433.65967 -203.14944 -2.0656242 255 255 255
273.23627 2.9036627 -0.69996774 255 255 255
-37.84325 -65.509384 -1.0628566 255 255 255
9.6240883 -67.550613 -1.1495123 255 255 255
9.388587 -66.923676 -1.1122229 255 255 255
-28.992954 -66.414566 -1.0531397 255 255 255
16.757114 -64.763702 -1.071439 255 255 255
-6.2118411 -69.61515 -1.1029451 255 255 255
-8.4904947 -71.213287 -1.1526707 255 255 255
179.45753 -19.317865 -0.83338916 255 255 255
9.1066637 -67.721939 -1.1462306 255 255 255
211.80945 -16.812702 -0.78181988 255 255 255
353.40768 32.853901 -0.38172346 255 255 255
13.071113 -65.78656 -1.1527979 255 255 255
16.187801 -63.288605 -1.0652635 255 255 255
0.83736479 -72.012665 -1.186859 255 255 255
0.45759314 -66.549171 -1.1231035 255 255 255
382.87384 35.637218 -0.45987594 255 255 255
1753.7437 360.83313 1.4412646 255 255 255
-28.855307 -65.50106 -1.058735 255 255 255
-12.555327 -69.010811 -1.1070379 255 255 255
131.8988 -24.569155 -0.75313681 255 255 255
-13.243459 -65.59816 -1.0939997 255 255 255
90.637276 -31.891319 -0.74710691 255 255 255
81.684021 -31.983286 -0.72312552 255 255 255
9.9937191 -63.653065 -1.1363788 255 255 255
-17.710901 -71.787712 -1.1814216 255 255 255
-627.99872 -220.81506 -1.9662939 255 255 255
-4.6640453 -66.380516 -1.1057484 255 255 255
-21.740604 -65.25293 -1.097423 255 255 255
128.20692 -31.664907 -0.76678854 255 255 255
-31.767321 -66.163651 -1.0628799 255 255 255
14.027358 -66.298782 -1.1589524 255 255 255
22.068243 -70.057533 -1.1735842 255 255 255
-27.95685 -69.588829 -1.1211662 255 255 255
353.08115 13.853072 -0.73762858 255 255 255
-13.048774 -69.563103 -1.1227001 255 255 255
-9.4262781 -69.895233 -1.1363913 255 255 255
1.1099432 -69.895729 -1.1542917 255 255 255
130.8111 -32.80608 -0.75765419 255 255 255
198.66751 2.3704865 -0.44480342 255 255 255
-30.744844 -72.495956 -1.1724446 255 255 255
16.751335 -64.527977 -1.0929579 255 255 255
0.96746266 -70.247963 -1.1583961 255 255 255
20.023764 -67.294342 -1.0851313 255 255 255
-14.54772 -68.374802 -1.1131325 255 255 255
540.12689 62.528774 -0.50620902 255 255 255
-34.625927 -65.146362 -1.0552757 255 255 255
663.93066 118.7362 0.017566597 255 255 255
8.5820417 -62.883923 -1.0709647 255 255 255
207.47192 -4.0948815 -0.6629144 255 255 255
15.861898 -63.383991 -1.0663401 255 255 255
89.310898 -31.888721 -0.74540246 255 255 255
75.633614 -37.926582 -0.81874353 255 255 255
-206.39009 -112.29311 -1.2629051 255 255 255
87.229729 -33.284801 -0.70695496 255 255 255
119.17261 -34.163158 -0.8601504 255 255 255
-1.5898296 -69.960564 -1.1895123 255 255 255
-10.145674 -72.226913 -1.1877066 255 255 255
174.69788 -10.575633 -0.62868971 255 255 255
-9.781251 -70.024841 -1.1393706 255 255 255
-10.527715 -74.001572 -1.2129256 255 255 255
-1953.5629 -546.96912 -3.3425183 255 255 255
1.9940355 -68.199524 -1.1378609 255 255 255
125.78474 -34.357494 -0.87456405 255 255 255
152.35576 -27.392277 -0.857261 255 255 255
194.32605 -30.595547 -0.80862552 255 255 255
-16.087954 -71.205917 -1.1639736 255 255 255
22.652781 -63.111324 -1.0863252 255 255 255
-12.656456 -70.980057 -1.1803581 255 255 255
-5.3566141 -65.412437 -1.0815996 255 255 255
194.22758 -30.607578 -0.80869848 255 255 255
91.091278 -31.898491 -0.7477501 255 255 255
360.68805 29.687542 -0.49649286 255 255 255
-12.7412 -69.437996 -1.1439093 255 255 255
170.31172 -30.950512 -0.7947551 255 255 255
81.723465 -31.924398 -0.7227903 255 255 255
16.793695 -67.934753 -1.0944411 255 255 255
-11.801633 -68.451889 -1.0906368 255 255 255
135.18831 -32.068474 -0.87034768 255 255 255
97.123131 -45.958206 -0.90954429 255 255 255
-30.595659 -70.390091 -1.1406424 255 255 255
-2.7201087 -67.032204 -1.0586905 255 255 255
134.26468 -23.031584 -0.74415648 255 255 255
204.22137 -30.170444 -0.8115924 255 255 255
118.48508 -31.641476 -0.75966954 255 255 255
91.494125 -31.867723 -0.74714375 255 255 255
598.73254 86.650101 -0.066985853 255 255 255
22.622606 -63.750992 -1.08415 255 255 255
263.32547 -6.2206011 -0.78473186 255 255 255
148.84889 -28.969404 -0.86469305 255 255 255
305.58356 -13.621834 -0.74792999 255 255 255
-12.838475 -68.910683 -1.1050519 255 255 255
13.129049 -69.970123 -1.1608121 255 255 255
-8.0427637 -72.140282 -1.1757443 255 255 255
193.50381 -8.4820547 -0.63444906 255 255 255
-9.1244984 -73.156616 -1.2179594 255 255 255
-19.223446 -62.436901 -1.0607257 255 255 255
-24.984982 -67.173332 -1.1375576 255 255 255
139.24718 -39.53994 -0.90232152 255 255 255
11.106097 -73.37986 -1.1864336 255 255 255
127.58628 -33.570324 -0.76849949 255 255 255
-26.625084 -65.499435 -1.057695 255 255 255
-1207.5117 -350.28 -2.6275222 255 255 255
389.02371 41.538322 -0.34896317 255 255 255
131.24585 -31.561447 -0.77981281 255 255 255
-17.830885 -71.742577 -1.1809658 255 255 255
5.926929 -68.00032 -1.1335449 255 255 255
3.6717422 -65.409256 -1.0995059 255 255 255
366.74789 37.060261 -0.35877445 255 255 255
411.75168 15.051239 -0.45316193 255 255 255
-23.260756 -67.093941 -1.1246431 255 255 255
-12.367956 -73.183662 -1.217908 255 255 255
211.77649 -15.757631 -0.7848857 255 255 255
-12.986212 -69.37162 -1.1171968 255 255 255
97.283356 -31.923166 -0.75753593 255 255 255
-12.572193 -69.436798 -1.11948 255 255 255
32.414303 -65.307152 -1.1049294 255 255 255
320.87537 34.699451 -0.32176638 255 255 255
22.252655 -70.565674 -1.2037386 255 255 255
-1.781549 -64.621521 -1.094685 255 255 255
11.506105 -62.501884 -1.066226 255 255 255
20.238205 -63.405479 -1.1089833 255 255 255
-12.643373 -69.379082 -1.1176573 255 255 255
231.01422 -18.06683 -0.71024323 255 255 255
151.46194 -29.803095 -0.85333741 255 255 255
-1.4247743 -69.297577 -1.1399325 255 255 255
-11.157261 -68.564247 -1.1093674 255 255 255
1318.8724 398.4791 1.3371774 255 255 255
17.730474 -63.973373 -1.1207814 255 255 255
115.93893 -35.433384 -0.80358291 255 255 255
221.70686 -13.214698 -0.60307568 255 255 255
373.1795 43.834675 -0.31018901 255 255 255
205.19568 -15.649613 -0.80439055 255 255 255
132.08636 -4.0362444 -0.28914201 255 255 255
149.73347 -26.747854 -0.84011263 255 255 255
-224.56796 -140.04327 -1.5962018 255 255 255
121.86458 -32.18829 -0.76538271 255 255 255
-308.0329 -166.35371 -1.7497975 255 255 255
20.709818 -60.569286 -1.0672253 255 255 255
-400.41391 -155.9117 -1.467261 255 255 255
-342.53677 -174.43558 -1.9205682 255 255 255
91.530975 -31.892878 -0.74793357 255 255 255
184.25491 -14.296156 -0.70704621 255 255 255
26.855732 -62.638706 -1.0837585 255 255 255
131.45583 -31.573465 -0.77982235 255 255 255
14.045367 -71.993095 -1.1696228 255 255 255
3.9296126 -73.965034 -1.1633906 255 255 255
359.31631 18.901924 -0.64283627 255 255 255
542.94299 78.146194 -0.056192197 255 255 255
-11.950937 -67.198578 -1.1213707 255 255 255
-19.303963 -70.398453 -1.146378 255 255 255
-8.9138842 -67.682602 -1.1304964 255 255 255
12.003279 -65.83847 -1.1027429 255 255 255
171.43056 -18.184187 -0.83442259 255 255 255
5.527267 -69.825699 -1.175238 255 255 255
202.58658 -9.9946909 -0.7214278 255 255 255
207.12144 -30.221848 -0.80833632 255 255 255
-2.8444149 -65.444077 -1.0819237 255 255 255
272.29959 8.6058006 -0.54700643 255 255 255
-22.864271 -69.36245 -1.1399119 255 255 255
813.63483 123.6469 0.41663501 255 255 255
866.82043 131.44217 -0.25596336 255 255 255
406.48502 32.353241 -0.59470284 255 255 255
-15.439448 -71.102669 -1.1600257 255 255 255
4745.1147 1190.9545 7.3991652 255 255 255
-5.0088906 -65.793137 -1.101965 255 255 255
-11.870913 -68.488663 -1.0915821 255 255 255
-41.811203 -67.569115 -1.0943627 255 255 255
1274.1766 307.21707 1.7407572 255 255 255
-2623.9756 -682.91534 -4.5743771 255 255 255
155.91551 -19.436609 -0.73362148 255 255 255
-9.4882097 -74.559235 -1.2513433 255 255 255
136.44281 -26.24651 -0.83111757 255 255 255
233.55109 -9.7527523 -0.78457224 255 255 255
-20.40527 -69.735428 -1.1268151 255 255 255
-6.0310369 -72.066185 -1.1888553 255 255 255
-14.767535 -68.281631 -1.115315 255 255 255
210.12764 10.661861 -0.38381153 255 255 255
210.80232 -22.175854 -0.81047988 255 255 255
-4.1029153 -65.55555 -1.0813173 255 255 255
521.67285 86.645432 -0.0060090283 255 255 255
253.4904 12.486288 -0.46806124 255 255 255
-4.2462778 -70.989059 -1.1587359 255 255 255
23.705322 -64.871033 -1.1074376 255 255 255
7.2147994 -69.402687 -1.1450061 255 255 255
112.24449 -31.786518 -0.75436276 255 255 255
22.28945 -65.239716 -1.1021937 255 255 255
12.848261 -62.033646 -1.0866601 255 255 255
-7.3448238 -68.677414 -1.1598178 255 255 255
-10.015222 -66.139259 -1.0827395 255 255 255
-12.523171 -69.00531 -1.1068543 255 255 255
-30.27252 -65.215027 -1.0575435 255 255 255
19.311632 -63.095951 -1.0891695 255 255 255
-13.720845 -66.85527 -1.1345925 255 255 255
-25.509584 -65.865395 -1.061039 255 255 255
-23.083576 -64.689247 -1.0486721 255 255 255
-24.721645 -70.089867 -1.1343285 255 255 255
30.963169 -66.311821 -1.0881282 255 255 255
123.97301 -32.078033 -0.76626396 255 255 255
168.85094 -23.316446 -0.8318572 255 255 255
84.40464 -32.138737 -0.7519635 255 255 255
18.818279 -66.502945 -1.0721151 255 255 255
-19.370714 -69.762909 -1.1357679 255 255 255
339.41299 29.190748 -0.4144415 255 255 255
666.99609 93.727028 0.27090311 255 255 255
7.9556694 -68.238174 -1.0819745 255 255 255
-481.83575 -181.27498 -1.6099244 255 255 255
88.089729 -27.638437 -0.67384291 255 255 255
-312.95053 -178.66331 -1.8918253 255 255 255
545.68323 89.123764 0.01850483 255 255 255
-10.401042 -68.893936 -1.1152948 255 255 255
11.462001 -68.686241 -1.1497655 255 255 255
-145.01711 -115.97585 -1.4821669 255 255 255
-14.984244 -69.4366 -1.1269585 255 255 255
-10.905389 -79.205986 -1.2535702 255 255 255
144.91254 -30.402229 -0.75733423 255 255 255
0.86227286 -60.968262 -1.0890024 255 255 255
-5.5442123 -65.020676 -1.0927274 255 255 255
-12.371428 -69.661278 -1.125994 255 255 255
-1329.8563 -383.34814 -3.6426003 255 255 255
-13.375579 -71.781914 -1.1829655 255 255 255
334.25757 42.3974 -0.20118257 255 255 255
-7.3530278 -65.158195 -1.0843639 255 255 255
15.591886 -63.803444 -1.0683485 255 255 255
-8.9022093 -69.239601 -1.1212009 255 255 255
621.14563 74.850685 0.060788371 255 255 255
-13.958867 -67.882805 -1.093815 255 255 255
-7.0413337 -72.596001 -1.1790036 255 255 255
537.17072 142.16141 0.85165429 255 255 255
-36.276901 -67.513412 -1.0818468 255 255 255
-2.9991038 -68.028954 -1.1144173 255 255 255
-5.3509288 -70.460464 -1.1448923 255 255 255
117.81953 -31.817341 -0.75991738 255 255 255
456.9711 67.017639 -0.16294335 255 255 255
-5.0769939 -70.303444 -1.1064411 255 255 255
89.909027 -31.737425 -0.73450172 255 255 255
-6.6465607 -65.638336 -1.0889446 255 255 255
89.67485 -31.745092 -0.73412722 255 255 255
180.61972 -19.72596 -0.65670025 255 255 255
20.422846 -69.4589 -1.1614797 255 255 255
94.676445 -47.162663 -0.91867524 255 255 255
-8.6180639 -73.192238 -1.219171 255 255 255
4.4223542 -64.039879 -1.0847772 255 255 255
520.77313 80.744766 -0.18854466 255 255 255
1974.1781 360.20444 0.86714554 255 255 255
-4.7513714 -65.01207 -1.1573461 255 255 255
330.70764 40.375397 0.0039706812 255 255 255
18.786366 -69.386223 -1.1528152 255 255 255
-15.419959 -69.358757 -1.1254704 255 255 255
-200.9057 -113.80476 -1.2350098 255 255 255
-17.141891 -70.923615 -1.1708096 255 255 255
-20.42337 -65.961411 -1.0633106 255 255 255
311.00925 20.763653 -0.49801469 255 255 255
-2.1008048 -67.874268 -1.1269428 255 255 255
246.41222 7.8881335 -0.51800537 255 255 255
99.323387 -35.182758 -0.78290379 255 255 255
191.63387 -30.666262 -0.80795622 255 255 255
52.273975 -50.302906 -0.92037922 255 255 255
-43.469921 -67.252228 -1.088609 255 255 255
333.81711 8.6921625 -0.46391693 255 255 255
120.75738 -31.920996 -0.76257974 255 255 255
411.18359 51.790581 -0.28251436 255 255 255
18.641369 -64.104118 -1.0739218 255 255 255
-31.586527 -71.285576 -1.1587862 255 255 255
4.4604611 -73.433907 -1.2126099 255 255 255
-12.516152 -69.10096 -1.1096275 255 255 255
350.92111 31.211817 -0.39225674 255 255 255
15.32672 -63.135086 -1.0683011 255 255 255
-2.7068865 -66.635529 -1.0860562 255 255 255
130.94955 -32.012016 -0.7713201 255 255 255
110.47568 -31.954643 -0.75377411 255 255 255
231.35069 -9.5948725 -0.5413149 255 255 255
359.30188 -4.2070904 -0.7050724 255 255 255
313.78989 12.466237 -0.67316884 255 255 255
311.70935 3.6292157 -0.73109901 255 255 255
-35.931713 -67.265602 -1.0779055 255 255 255
201.53087 -30.24202 -0.81089365 255 255 255
31.057066 -62.684914 -1.094475 255 255 255
91.831947 -31.7805 -0.7436437 255 255 255
-17.475365 -68.894913 -1.1148086 255 255 255
1.8199276 -64.019882 -1.1065812 255 255 255
111.46719 -31.753357 -0.75358593 255 255 255
93.043907 -31.831751 -0.74764651 255 255 255
885.75244 123.95106 -0.18996713 255 255 255
22.831976 -62.919411 -1.0776103 255 255 255
227.40025 -16.097921 -0.78354383 255 255 255
-10.277396 -70.646927 -1.1537415 255 255 255
-26.909349 -64.482361 -1.0518787 255 255 255
19.019629 -82.469887 -1.3557827 255 255 255
191.97311 -31.059711 -0.81133622 255 255 255
183.07578 -30.700619 -0.80245036 255 255 255
386.59586 33.103695 -0.45697954 255 255 255
-8.3894567 -73.268913 -1.2213206 255 255 255
-10.391339 -74.415359 -1.2476829 255 255 255
188.24089 -30.743696 -0.80723947 255 255 255
-15.944775 -63.610592 -1.1077797 255 255 255
-9.4986277 -74.608521 -1.2523472 255 255 255
-31.497074 -54.075981 -1.0772507 255 255 255
-10.090777 -75.786171 -1.2489126 255 255 255
-158.57762 -104.63777 -1.2072983 255 255 255
24.854902 -63.74543 -1.1030293 255 255 255
167.15408 -13.871491 -0.7106334 255 255 255
1606.6073 375.40494 1.7020332 255 255 255
-115.22558 -92.936752 -1.1787744 255 255 255
237.37291 3.6274951 -0.5732466 255 255 255
114.38496 -31.865456 -0.75671393 255 255 255
19.33708 -64.393456 -1.0951688 255 255 255
-7.1334796 -71.704353 -1.1948287 255 255 255
116.61369 -31.628519 -0.7583558 255 255 255
5.0688915 -69.440071 -1.1713511 255 255 255
148.95728 -35.159622 -0.87536746 255 255 255
-5.2833424 -63.289398 -1.0887215 255 255 255
-483.97296 -239.1678 -2.5423188 255 255 255
137.26468 -31.660942 -0.86238688 255 255 255
6.6553979 -63.807304 -1.0737169 255 255 255
-87773.648 -26117.74 -180.24022 255 255 255
8.9981813 -68.408592 -1.1659269 255 255 255
-24.685766 -65.427109 -1.0507929 255 255 255
142.18678 -34.096603 -0.89234811 255 255 255
187.68822 -30.761616 -0.80746919 255 255 255
336.55371 -6.1693292 -0.69843775 255 255 255
-4.9346271 -71.124092 -1.1751269 255 255 255
-12.745502 -69.492592 -1.1208211 255 255 255
14.412356 -64.57505 -1.0684705 255 255 255
331.31522 -10.410985 -0.75447065 255 255 255
-5.0284252 -62.992592 -1.0709569 255 255 255
-31.840431 -64.966827 -1.0585433 255 255 255
-573.96722 -247.31166 -2.4537649 255 255 255
195.3392 -30.580212 -0.80898148 255 255 255
-20.606581 -78.514267 -1.21292 255 255 255
-12.24109 -69.261497 -1.114511 255 255 255
-17.493097 -73.416588 -1.2182659 255 255 255
207.38333 -30.207079 -0.80829394 255 255 255
117.37411 -31.602917 -0.75930536 255 255 255
-1119.674 -347.32217 -3.2779202 255 255 255
-16.238295 -64.657913 -1.1077456 255 255 255
-5.1791258 -70.154053 -1.1443808 255 255 255
-6.2943139 -70.123642 -1.1470678 255 255 255
193.96733 -30.613663 -0.80859578 255 255 255
131.48907 -31.553305 -0.77995151 255 255 255
204.88326 -5.0482473 -0.58023685 255 255 255
-0.5472452 -71.518768 -1.166849 255 255 255
-31.769611 -65.894562 -1.0580531 255 255 255
-3.1573455 -65.412895 -1.0801164 255 255 255
-356.39313 -152.08884 -1.459672 255 255 255
-8.4335794 -72.980194 -1.2147138 255 255 255
-1.6967238 -71.929237 -1.1769508 255 255 255
3956.5859 755.14935 4.5909004 255 255 255
9.3486748 -64.630333 -1.0890357 255 255 255
154.71675 -15.496872 -0.65385669 255 255 255
-1193.1162 -353.40103 -2.8216758 255 255 255
-3.8540516 -67.323837 -1.088551 255 255 255
124.40131 -25.688576 -0.78945738 255 255 255
7.3126793 -63.816471 -1.0740637 255 255 255
214.56816 -15.811475 -0.80602807 255 255 255
36.199791 -64.171249 -1.0960976 255 255 255
193.26575 -8.2081375 -0.70884109 255 255 255
-10.292076 -70.377205 -1.1480747 255 255 255
-18.290091 -68.805031 -1.1187254 255 255 255
74.931908 -45.446976 -0.93314171 255 255 255
635.18555 126.67924 0.35050946 255 255 255
-25.121616 -62.24942 -1.0512917 255 255 255
-7.3329268 -77.33255 -1.233158 255 255 255
3.0744987 -69.433548 -1.1745294 255 255 255
133.83958 -38.472996 -0.88307285 255 255 255
220.49521 13.54031 -0.33623961 255 255 255
152.60246 -29.170359 -0.85210884 255 255 255
125.26131 -34.493969 -0.87953949 255 255 255
512.84442 46.81723 -0.13430381 255 255 255
117.86628 -31.808453 -0.75995857 255 255 255
140.87643 -31.447701 -0.86422378 255 255 255
20.187166 -65.05439 -1.0837933 255 255 255
135.52968 -32.000843 -0.77478921 255 255 255
0.90057409 -66.92173 -1.1338723 255 255 255
-19.339178 -68.727997 -1.1243461 255 255 255
-22.285269 -64.692986 -1.0512537 255 255 255
203.0192 -30.189121 -0.81138182 255 255 255
-7.0611072 -65.589027 -1.1065834 255 255 255
18.162287 -63.759571 -1.0684555 255 255 255
5.2240076 -66.175575 -1.1283731 255 255 255
120.83424 -33.598164 -0.77950031 255 255 255
164.12468 -26.753622 -0.86551535 255 255 255
178.98804 -18.435331 -0.81873912 255 255 255
13.867436 -72.893082 -1.1631383 255 255 255
534.51434 94.804604 0.21617548 255 255 255
95.877464 -46.627853 -0.91442376 255 255 255
-9.872138 -68.680206 -1.101685 255 255 255
197.68541 -15.134129 -0.74447137 255 255 255
-4.3534932 -67.101677 -1.1363952 255 255 255
-2.1847477 -69.634064 -1.1049575 255 255 255
2.7225051 -59.99733 -1.0704261 255 255 255
344.00092 56.728409 -0.38052267 255 255 255
218.84575 -2.2228384 -0.7546472 255 255 255
363.29257 37.401024 -0.34060335 255 255 255
0.38261726 -71.818542 -1.1812247 255 255 255
-14.067222 -69.692932 -1.1376342 255 255 255
184.03694 -30.821026 -0.80797589 255 255 255
111.47131 -32.028145 -0.77752423 255 255 255
1129.569 219.37149 0.55981696 255 255 255
654.28229 72.445976 -0.0058040856 255 255 255
-16.740585 -71.410934 -1.1678712 255 255 255
622.98792 70.2117 -0.3888973 255 255 255
-35.663578 -66.041328 -1.0568403 255 255 255
-9.9950838 -71.12384 -1.1639864 255 255 255
-118.79379 -91.219498 -1.2131598 255 255 255
-7.997118 -73.58358 -1.2291644 255 255 255
21.547337 -64.251625 -1.1434418 255 255 255
193.42503 -30.614998 -0.80831254 255 255 255
-161.66861 -109.46353 -1.2578927 255 255 255
207.58649 -17.908747 -0.79432535 255 255 255
-1.0691377 -65.237061 -1.0940154 255 255 255
-23.616056 -65.933937 -1.061357 255 255 255
141.56398 -27.698986 -0.87366658 255 255 255
-5.596489 -70.994972 -1.170845 255 255 255
-28.372683 -73.24279 -1.1837498 255 255 255
-290.92334 -164.28864 -1.8500566 255 255 255
-7.3514934 -73.218338 -1.2221498 255 255 255
-7.2028718 -66.560783 -1.0816545 255 255 255
1.3875829 -65.795135 -1.0919073 255 255 255
19.040075 -68.324005 -1.0991119 255 255 255
-14.213744 -64.120567 -1.0516384 255 255 255
85.576401 -31.875717 -0.72759265 255 255 255
96.094734 -37.072388 -0.92470664 255 255 255
270.14606 -7.2817879 -0.5658344 255 255 255
-7.7368999 -72.235641 -1.1855483 255 255 255
10.70321 -62.336197 -1.0710071 255 255 255
11.003547 -66.303223 -1.074088 255 255 255
204.34206 -18.078812 -0.81346697 255 255 255
4.2647991 -63.911118 -1.089682 255 255 255
102.53249 -36.82605 -0.77874196 255 255 255
-6.3255157 -70.18483 -1.1487859 255 255 255
-0.45099846 -61.628036 -1.0206982 255 255 255
197.95154 10.369835 -0.38172871 255 255 255
-11.022871 -70.074402 -1.153457 255 255 255
-24.08588 -68.461029 -1.1337528 255 255 255
35.133915 -54.652317 -0.98584324 255 255 255
-18.488325 -73.874489 -1.2281799 255 255 255
-17.298986 -67.143234 -1.1063271 255 255 255
179.48895 -30.963528 -0.80705714 255 255 255
115.57302 -31.651262 -0.75766098 255 255 255
-25.493921 -65.487305 -1.0565536 255 255 255
-27.9303 -65.303169 -1.0510123 255 255 255
1.7455572 -76.74897 -1.2218665 255 255 255
83.385384 -42.222454 -0.84900755 255 255 255
-16.046335 -72.568794 -1.2002289 255 255 255
-27.308626 -68.782806 -1.1314005 255 255 255
-9.7071495 -68.180801 -1.1095186 255 255 255
9.1113291 -66.006165 -1.1084508 255 255 255
-18.99872 -65.752258 -1.0512873 255 255 255
-20.17296 -67.678474 -1.1289988 255 255 255
-2608.9558 -772.9837 -5.5832009 255 255 255
-11.761192 -64.500229 -1.1226488 255 255 255
346.13943 9.6680651 -0.69965988 255 255 255
1.8756325 -65.98513 -1.0788817 255 255 255
7.6188049 -70.282074 -1.1751961 255 255 255
-25.659008 -69.505997 -1.1333863 255 255 255
-3255.7065 -1168.7178 -10.314415 255 255 255
256.15179 -0.29076737 -0.72672898 255 255 255
-12.234899 -69.237221 -1.1137033 255 255 255
119.65686 -42.335056 -0.89899325 255 255 255
6.7208624 -67.218872 -1.1402807 255 255 255
-1944.606 -542.62689 -3.5575967 255 255 255
163.79698 -32.983528 -0.87275684 255 255 255
93.437119 -48.08931 -0.94062954 255 255 255
91.284241 -31.926481 -0.749075 255 255 255
96.915596 -31.947901 -0.75773263 255 255 255
228.54897 8.2395382 -0.48735052 255 255 255
-308.09756 -138.28337 -1.3901848 255 255 255
335.08582 29.926514 -0.41371378 255 255 255
5.328918 -64.816521 -1.0738841 255 255 255
-10.014129 -70.10157 -1.1410278 255 255 255
25.80452 -62.961746 -1.0830661 255 255 255
129.45071 -18.270069 -0.67487001 255 255 255
131.95581 -31.546139 -0.78009379 255 255 255
-2176.0769 -613.30585 -5.6499004 255 255 255
100.15849 -32.083241 -0.76710033 255 255 255
19.15494 -59.713631 -1.0084002 255 255 255
-19.842464 -68.833473 -1.1270292 255 255 255
0.52429372 -69.74984 -1.1508743 255 255 255
-6.3366246 -68.51992 -1.1141486 255 255 255
131.52864 -31.553455 -0.77964008 255 255 255
171.30675 -5.1089306 -0.54813933 255 255 255
-4.1928554 -65.040611 -1.0830863 255 255 255
18.862423 -63.303913 -1.0962139 255 255 255
-16.470142 -67.811081 -1.1334081 255 255 255
27.469246 -64.834351 -1.1263617 255 255 255
235.00134 6.9705038 -0.48198709 255 255 255
240.52765 -10.388381 -0.7791509 255 255 255
81.443398 -35.407372 -0.77753109 255 255 255
2277.6367 540.84412 2.979604 255 255 255
135.39238 -31.994478 -0.77461511 255 255 255
1.4440682 -65.750763 -1.0787104 255 255 255
6.7001729 -64.795204 -1.080196 255 255 255
963.17621 169.59818 0.19279902 255 255 255
193.88857 -30.615208 -0.80849832 255 255 255
68.851501 133.90997 2.4503124 255 255 255
-2.3847563 -71.449814 -1.1813867 255 255 255
97.58876 -32.079556 -0.76435447 255 255 255
-15.031471 -71.413071 -1.1626709 255 255 255
-5.2650919 -72.011642 -1.1717304 255 255 255
180.62617 -30.746069 -0.8014946 255 255 255
205.21255 -12.288913 -0.7110936 255 255 255
525.78638 71.446587 -0.23077902 255 255 255
715.42688 127.26347 -0.017291518 255 255 255
239.94791 -19.899366 -0.75542301 255 255 255
629.73383 84.034966 -0.39922893 255 255 255
81.395775 -31.913548 -0.72237802 255 255 255
0.20012465 -66.190735 -1.0929681 255 255 255
-1.8746105 -70.823494 -1.1579529 255 255 255
944.30469 221.58368 1.0967797 255 255 255
10.203127 -66.631775 -1.1173186 255 255 255
-19.934782 -69.270546 -1.1241068 255 255 255
25.113691 -63.528107 -1.1132846 255 255 255
1527.7223 297.69476 0.66738117 255 255 255
5.5163174 -66.762177 -1.1062649 255 255 255
-12.408193 -68.694115 -1.0998198 255 255 255
-5382.416 -1604.0026 -10.797566 255 255 255
-15.302917 -70.435196 -1.146823 255 255 255
-29.39673 -65.681389 -1.0566921 255 255 255
-13.886746 -69.344345 -1.1148571 255 255 255
5.086822 -63.376381 -1.0964817 255 255 255
1558.1104 197.82578 0.29007539 255 255 255
21.28051 -68.290512 -1.0995344 255 255 255
191.03545 -15.08917 -0.75778073 255 255 255
130.1795 -32.216206 -0.77270252 255 255 255
130.87566 -31.98909 -0.77106982 255 255 255
-3.9547565 -67.109306 -1.1074219 255 255 255
3.4201236 -63.716999 -1.1242383 255 255 255
133.15392 25.903687 0.037922319 255 255 255
-904.59491 -302.09686 -2.2577195 255 255 255
-27.543827 -69.6577 -1.1362431 255 255 255
7.5362339 -62.570202 -1.0733923 255 255 255
-13.281336 -78.433235 -1.2920568 255 255 255
126.26711 -31.003374 -0.77059168 255 255 255
-4.4554262 -71.250046 -1.1596195 255 255 255
88.521904 -46.008175 -0.90698636 255 255 255
487.78296 59.667942 -0.25531486 255 255 255
29.3598 -63.649368 -1.1106086 255 255 255
200.54869 -30.221224 -0.81118578 255 255 255
85.61898 -31.887556 -0.72783411 255 255 255
9.11901 -71.384911 -1.1492836 255 255 255
130.37997 -34.641129 -0.89326626 255 255 255
188.7825 -30.735025 -0.80787826 255 255 255
294.99283 6.8943949 -0.74350345 255 255 255
27.333384 -66.46833 -1.1504143 255 255 255
-26.352526 -70.034935 -1.140045 255 255 255
15.5474 -63.050144 -1.0656998 255 255 255
117.77216 -31.812229 -0.75975603 255 255 255
-15.393667 -70.603088 -1.1753511 255 255 255
-39.04081 -65.196426 -1.0571945 255 255 255
-2.0273426 -66.013817 -1.0945983 255 255 255
181.25505 -19.965025 -0.81907898 255 255 255
-12.591069 -69.438431 -1.1195015 255 255 255
354.70267 34.750381 -0.39675489 255 255 255
-9.033885 -68.217651 -1.1290106 255 255 255
619.4043 103.11273 0.0074356277 255 255 255
594.25848 72.265327 0.12669878 255 255 255
-12.520186 -69.004669 -1.1068619 255 255 255
-7.0200453 -65.501266 -1.1004567 255 255 255
7.0690975 -75.712662 -1.2428784 255 255 255
112.23858 -41.784985 -0.89261293 255 255 255
-3.9140329 -69.599907 -1.1416216 255 255 255
-9.1199551 -70.99469 -1.153325 255 255 255
-7.9780021 -65.154778 -1.0845053 255 255 255
-3.6892245 -65.630798 -1.0798833 255 255 255
1.8967245 -72.352737 -1.1900218 255 255 255
24.46946 -64.983391 -1.1258341 255 255 255
144.08305 -38.78075 -0.9013502 255 255 255
231.69414 -25.865601 -0.79858488 255 255 255
-717.19818 -254.90797 -2.6021738 255 255 255
-28.265652 -68.872604 -1.1402115 255 255 255
289.00153 15.899986 -0.48573971 255 255 255
8.0027285 -65.669174 -1.1016201 255 255 255
1.1441277 -70.083038 -1.1163129 255 255 255
22.517309 -68.461227 -1.1573032 255 255 255
187.58907 -30.562651 -0.80898374 255 255 255
148.64059 -34.120262 -0.80940449 255 255 255
101.38892 -19.508425 -0.61582625 255 255 255
1.9333562 -71.222366 -1.185334 255 255 255
386.48016 17.67301 -0.36321208 255 255 255
-12.177055 -69.663963 -1.1260508 255 255 255
-8.279171 -74.464355 -1.2494131 255 255 255
-19.933241 -68.249985 -1.1349269 255 255 255
682.23846 87.532082 0.13849379 255 255 255
194.29832 -30.602743 -0.80873698 255 255 255
-8.3508453 -68.003174 -1.1060281 255 255 255
29.859903 -62.460842 -1.0992018 255 255 255
-11.889104 -69.377693 -1.1214024 255 255 255
-457.86313 -198.86011 -2.0686569 255 255 255
-115.48824 -92.914635 -1.1802764 255 255 255
180.84363 -7.74649 -0.61437309 255 255 255
-19.842669 -61.954189 -1.0485531 255 255 255
-13.169123 -61.374615 -1.1302471 255 255 255
181.93198 -20.306208 -0.82483339 255 255 255
-10.249653 -67.91394 -1.1556754 255 255 255
149.39619 -15.093481 -0.61244202 255 255 255
-1306.028 -379.3555 -2.7362335 255 255 255
131.21597 -31.574518 -0.77990502 255 255 255
-14.641253 -69.832855 -1.1302741 255 255 255
-3.2023861 -65.935402 -1.1637131 255 255 255
10.081012 -70.315247 -1.1211923 255 255 255
-8.4172239 -72.942772 -1.2137982 255 255 255
178.71213 -30.977427 -0.8071965 255 255 255
413.52457 44.607273 -0.33702573 255 255 255
144.13206 -31.005741 -0.85669911 255 255 255
-0.93691832 -68.972313 -1.1427454 255 255 255
4.0482235 -71.122459 -1.173774 255 255 255
422.91483 21.437777 -0.64698404 255 255 255
10.195758 -69.057373 -1.1497995 255 255 255
21.286495 -64.562706 -1.0915867 255 255 255
-31.186794 -67.269226 -1.0785229 255 255 255
85.117661 -32.04541 -0.72805226 255 255 255
-9.9798298 -67.441887 -1.1105609 255 255 255
5.3132296 -66.881882 -1.1202368 255 255 255
-21.628294 -67.938988 -1.1201223 255 255 255
510.59021 75.651985 -0.09374816 255 255 255
132.27226 -32.048439 -0.77265352 255 255 255
179.52493 -32.152657 -0.8172031 255 255 255
111.42561 -31.76557 -0.75366229 255 255 255
-6.8113575 -71.524765 -1.1765971 255 255 255
181.8761 -17.829329 -0.81338269 255 255 255
202.50987 -30.228598 -0.81103188 255 255 255
585.78259 89.822525 -0.052430782 255 255 255
179.80434 -20.190161 -0.85706437 255 255 255
-12.028715 -80.959488 -1.3876498 255 255 255
200.01907 -6.4593954 -0.80343485 255 255 255
879.70209 144.78252 -0.13658811 255 255 255
-27.119658 -68.231178 -1.0896962 255 255 255
466.68869 39.112854 -0.23759684 255 255 255
59.159843 -40.784916 -0.83700204 255 255 255
118.47231 -31.768578 -0.76019186 255 255 255
-14.308053 -68.626572 -1.1413029 255 255 255
7.8120623 -64.586784 -1.0786861 255 255 255
133.7326 -20.126566 -0.65862739 255 255 255
787.76636 214.09633 0.5901866 255 255 255
-17.478926 -71.564575 -1.1768222 255 255 255
178.94905 -31.103613 -0.80839515 255 255 255
-6.1736121 -65.160255 -1.0500718 255 255 255
-5.3984261 -66.183502 -1.1130583 255 255 255
101.4136 -38.590755 -0.79931551 255 255 255
288.37253 27.744711 -0.36016688 255 255 255
-1229.1886 -384.25711 -2.9467251 255 255 255
12.290265 -65.606346 -1.0726178 255 255 255
185.72662 -16.977999 -0.75149345 255 255 255
99.761925 -19.788244 -0.83220577 255 255 255
194.56108 -30.598026 -0.80880219 255 255 255
89.611115 -31.72653 -0.73391455 255 255 255
174.4265 -26.416283 -0.88012272 255 255 255
124.23037 -32.008053 -0.76585096 255 255 255
117.21487 -31.637667 -0.75877851 255 255 255
-13.090501 -69.50592 -1.1211666 255 255 255
9.3874207 -68.338371 -1.154519 255 255 255
177.5546 -31.293638 -0.80989683 255 255 255
132.5899 -33.413269 -0.76951164 255 255 255
106.66485 -26.80027 -0.62047839 255 255 255
-5.5901394 -70.98777 -1.1707723 255 255 255
-9.4045305 -67.909004 -1.1015284 255 255 255
-11.285051 -69.314896 -1.1171091 255 255 255
187.04366 -30.596825 -0.80905282 255 255 255
-222.9543 -136.59641 -1.6232262 255 255 255
135.38799 -32.027683 -0.77492642 255 255 255
8.7043962 -71.021332 -1.1524132 255 255 255
101.28815 -38.796173 -0.83012116 255 255 255
-12.239632 -69.262115 -1.1145254 255 255 255
-8.8002844 -68.184685 -1.1057135 255 255 255
-0.79923093 -65.327461 -1.1324313 255 255 255
-504.20651 -230.36111 -2.1910524 255 255 255
509.25632 72.025536 -0.21787709 255 255 255
90.687881 -31.877537 -0.74702644 255 255 255
-11.534239 -68.71331 -1.1094282 255 255 255
-12.899452 -66.267288 -1.0629841 255 255 255
4300.7998 971.49194 7.5722046 255 255 255
124.74684 -31.374769 -0.84014857 255 255 255
86.866508 -43.63916 -0.93739402 255 255 255
3.6202447 -65.786682 -1.0943615 255 255 255
347.40323 8.6533127 -0.72024745 255 255 255
-37.957157 -67.942596 -1.0997143 255 255 255
-11.811613 -68.45385 -1.0906799 255 255 255
6.5814629 -71.38942 -1.1432812 255 255 255
-25.143515 -71.467712 -1.170236 255 255 255
13.216177 -70.542725 -1.1747806 255 255 255
-314.07907 -150.49257 -1.7990743 255 255 255
424.44415 50.082954 -0.34329212 255 255 255
81.461494 -31.89263 -0.72236586 255 255 255
1104.0732 172.95312 0.74780887 255 255 255
125.82239 -32.034084 -0.76735497 255 255 255
116.40034 -29.454538 -0.81388247 255 255 255
-13.009631 -69.42939 -1.1188134 255 255 255
333.64896 -2.700171 -0.66219658 255 255 255
248.32097 -8.3683252 -0.78910583 255 255 255
110.47066 -31.943911 -0.753609 255 255 255
-6.1987214 -66.566933 -1.0987107 255 255 255
-9.4044476 -64.316254 -1.0995121 255 255 255
-15.33206 -66.4646 -1.114045 255 255 255
176.92078 -25.902411 -0.73219258 255 255 255
214.68765 2.5007441 -0.54573107 255 255 255
-9.5629721 -70.902512 -1.1615186 255 255 255
-495.39642 -202.62578 -1.9180593 255 255 255
277.18182 15.086248 -0.51832175 255 255 255
-785.44977 -316.09836 -2.8913944 255 255 255
177.89011 -31.064581 -0.8081786 255 255 255
15.554301 -69.581749 -1.167408 255 255 255
116.23917 -31.621813 -0.75847942 255 255 255
-2.737632 -68.861725 -1.1380514 255 255 255
-16.345577 -71.590759 -1.1737989 255 255 255
170.8754 -30.951599 -0.7945137 255 255 255
-2.309901 -65.513802 -1.0834159 255 255 255
54.364029 -51.097969 -0.92294604 255 255 255
-1730.507 -515.39746 -4.7993908 255 255 255
-21.644556 -65.872169 -1.0646181 255 255 255
119.61619 -34.483089 -0.78640527 255 255 255
-18.812634 -72.83847 -1.1903148 255 255 255
-29.551294 -72.791176 -1.172717 255 255 255
235.83421 -0.2538105 -0.59048051 255 255 255
119.51484 -38.962639 -0.88746524 255 255 255
321.18954 26.229017 -0.40475971 255 255 255
212.85107 -0.7850306 -0.58289278 255 255 255
173.66096 -18.76335 -0.76933068 255 255 255
-8.0504274 -71.955658 -1.1806782 255 255 255
201.57617 -30.236645 -0.81085074 255 255 255
184.0981 -30.807169 -0.80788124 255 255 255
247.82108 -9.6181917 -0.72733474 255 255 255
100.22932 -34.855862 -0.77950042 255 255 255
1.8372278 -67.504059 -1.1337258 255 255 255
261.21796 -3.8195324 -0.78128475 255 255 255
197.76712 3.397886 -0.48399538 255 255 255
0.66705292 -65.309021 -1.0818888 255 255 255
153.53397 -35.27475 -0.85466242 255 255 255
690.06287 148.34021 0.51030016 255 255 255
160.23615 -31.096327 -0.79158622 255 255 255
6.0169797 -63.598061 -1.0768305 255 255 255
-1.9053929 -62.578854 -1.0685343 255 255 255
120.06211 -31.606308 -0.769903 255 255 255
9.7941751 -66.818588 -1.0758032 255 255 255
214.12486 -9.3518772 -0.66700029 255 255 255
5.9386759 -70.376862 -1.1783433 255 255 255
15.080009 -64.437706 -1.0896943 255 255 255
-20.411322 -64.566505 -1.0404497 255 255 255
-8.0848103 -67.928871 -1.1271584 255 255 255
161.71497 -31.188108 -0.79817343 255 255 255
-1.3388681 -61.57494 -1.0730886 255 255 255
126.94951 -32.796856 -0.87245256 255 255 255
106.0962 -33.47456 -0.72892112 255 255 255
5.6701007 -71.255959 -1.1995384 255 255 255
-3.4437747 -69.554604 -1.1546798 255 255 255
-21.871237 -77.004257 -1.1909459 255 255 255
-805.80695 -229.11925 -2.0644679 255 255 255
305.22958 24.128372 -0.48716837 255 255 255
191.12471 -3.9371777 -0.61522293 255 255 255
-14.03797 -69.680061 -1.1374925 255 255 255
122.95818 -32.503319 -0.76948518 255 255 255
107.96704 -32.635876 -0.7584095 255 255 255
19.18195 -64.075356 -1.0949519 255 255 255
231.08272 -25.085239 -0.79373479 255 255 255
30.225163 -63.290417 -1.1088139 255 255 255
188.27415 -30.738138 -0.80720037 255 255 255
12.512503 -74.268539 -1.1989245 255 255 255
200.59224 -2.6370208 -0.57223713 255 255 255
81.702682 -31.9266 -0.72280091 255 255 255
-11.778372 -69.406883 -1.1158795 255 255 255
113.07561 -31.845722 -0.75532562 255 255 255
-18.046095 -72.338371 -1.1933086 255 255 255
215.77582 1.7741333 -0.56245279 255 255 255
-8.6347952 -73.189445 -1.2192512 255 255 255
-5.3092384 -71.28054 -1.1609591 255 255 255
141.09782 -10.644308 -0.42456746 255 255 255
91.034012 -45.098209 -0.87974513 255 255 255
-10.795314 -68.807007 -1.1374373 255 255 255
2.912853 -66.323578 -1.1062189 255 255 255
5.6482186 -66.608513 -1.1120399 255 255 255
-628.15875 -256.91129 -2.4577141 255 255 255
7.2622709 -62.290588 -1.0734761 255 255 255
-22.293755 -71.257431 -1.1579453 255 255 255
-2.5464094 -69.519516 -1.1381242 255 255 255
81.734833 -31.998642 -0.74460077 255 255 255
-13.121462 -69.810524 -1.1293503 255 255 255
11.567729 -66.862534 -1.1188678 255 255 255
675.01898 148.96812 0.46538469 255 255 255
