ply
format ascii 1.0
comment PCL generated
element vertex 1100
property float x
property float y
property float z
property uchar red
property uchar green
property uchar blue
element face 0
element camera 0
property float view_px
property float view_py
property float view_pz
property float x_axisx
property float x_axisy
property float x_axisz
property float y_axisx
property float y_axisy
property float y_axisz
property float z_axisx
property float z_axisy
property float z_axisz
property float focal
property float scalex
property float scaley
property float centerx
property float centery
property int viewportx
property int viewporty
property float k1
property float k2
end_header
-475.23175 -611.51801 -2.2228873 255 255 255
-1884.1788 -11210.445 -20.821339 255 255 255
434.7005 576.73236 1.4623343 255 255 255
-1865.9238 -1355.4337 -3.3526192 255 255 255
-356.12918 -723.15668 -2.4374785 255 255 255
-378.89789 -249.0157 -1.462402 255 255 255
-378.41714 -709.98224 -2.1982398 255 255 255
-760.60876 -2294.7458 -4.7957335 255 255 255
-639.22845 -561.93915 -2.2402122 255 255 255
3178.0322 8462.499 13.238779 255 255 255
-203.05521 -270.27655 -1.4208012 255 255 255
130.46072 96.422043 0.36338329 255 255 255
-625.44257 -359.25653 -1.7386479 255 255 255
-4355.2759 -2213.5798 -5.4414296 255 255 255
9210.0293 5445.959 12.875913 255 255 255
-378.32764 -449.28598 -2.0006077 255 255 255
2731.0254 1432.5834 6.5623069 255 255 255
-1713.2267 -5049.187 -9.6976357 255 255 255
553.93005 751.28333 1.7573531 255 255 255
700.44019 562.76416 1.0234026 255 255 255
2517.7693 3220.9495 10.080133 255 255 255
-757.19147 -1185.0184 -4.0739512 255 255 255
-255.82919 -835.27112 -2.3643956 255 255 255
-455.36972 -855.60638 -2.7596166 255 255 255
-3047.6375 -2430.821 -5.7742772 255 255 255
-1338.8872 -613.96198 -2.8592188 255 255 255
-241.91322 -512.31171 -1.9564532 255 255 255
882.48798 1244.766 1.6528137 255 255 255
-585.14508 -1014.8157 -2.9304819 255 255 255
604.29938 1321.4231 2.2953367 255 255 255
-500.07968 -553.95526 -1.7539002 255 255 255
539.77325 411.80521 0.77814859 255 255 255
1441.0129 1532.2151 1.9488574 255 255 255
-323.25882 -221.74292 -1.4011004 255 255 255
765.67554 887.9585 2.1308119 255 255 255
400.5672 1076.7449 1.9160624 255 255 255
-1018.5881 -1217.4471 -5.4046583 255 255 255
20207.324 9774.7656 25.190355 255 255 255
1244.4136 1089.8052 1.6568044 255 255 255
16625.715 18550.875 55.704628 255 255 255
-967.81647 -2311.5237 -5.738647 255 255 255
-224.92326 -205.83624 -1.3348902 255 255 255
-5352.4453 -5733.3569 -12.59474 255 255 255
-10221.253 -29038.551 -56.904247 255 255 255
898.12866 984.69391 2.3537338 255 255 255
20282.271 10810.035 24.894367 255 255 255
9983.9902 5299.9634 13.961171 255 255 255
-1708.8533 -3479.0544 -8.5308981 255 255 255
-493.62622 -964.43542 -2.8638628 255 255 255
-1307.0641 -1572.2505 -3.3712575 255 255 255
2529.9238 3818.9106 6.6375732 255 255 255
-621.37048 -1129.3174 -3.2338605 255 255 255
1360.2037 1333.3339 4.4587083 255 255 255
741.55945 1093.3358 2.2320721 255 255 255
1544.7106 1759.0795 2.650434 255 255 255
-5665.8628 -1446.4968 -12.989398 255 255 255
1478.0374 1624.0106 2.1950226 255 255 255
-334.62753 -357.2381 -2.0497208 255 255 255
2374.6235 2214.2429 8.4048681 255 255 255
-334.40579 -1078.9409 -3.0780416 255 255 255
-4412.8735 -1454.5452 -10.141664 255 255 255
4102.937 6894.3428 13.302238 255 255 255
14581.811 8573.2939 18.61949 255 255 255
101.0308 91.387589 0.31517652 255 255 255
359.3107 796.78394 1.5904664 255 255 255
2706.009 3736.3047 8.2790298 255 255 255
102.46946 187.4442 0.49777737 255 255 255
145.07103 277.64355 0.74795854 255 255 255
-1716.3699 -3251.05 -9.4242401 255 255 255
-640.26843 -1519.6562 -3.9029183 255 255 255
1942.7568 981.50452 4.7995143 255 255 255
-794.31085 -1410.5177 -4.4559393 255 255 255
-5861.9136 -3708.6372 -19.358191 255 255 255
329.50323 978.09906 1.7643424 255 255 255
-213.9183 -572.86475 -1.9438969 255 255 255
-951.60498 -905.88324 -3.240963 255 255 255
967.13684 1243.5724 2.5814295 255 255 255
3502.6318 2029.1295 6.2515326 255 255 255
-1887.514 -1879.9651 -5.0014124 255 255 255
-517.38605 -1024.6122 -2.7780435 255 255 255
-273.09171 -417.85266 -1.7101091 255 255 255
3045.4001 2714.0376 4.3527865 255 255 255
4914.7783 4860.5928 13.997176 255 255 255
94791.922 28754.898 114.25152 255 255 255
-575.06299 -588.68921 -1.8391856 255 255 255
322.21625 1073.1583 1.8651488 255 255 255
-1518.8215 -1772.3761 -3.2661228 255 255 255
2287.4409 2752.4141 3.7330446 255 255 255
6311.5005 20838.824 32.795597 255 255 255
-1579.1356 -5416.9512 -10.306877 255 255 255
-250.48198 -478.62863 -1.9711809 255 255 255
1389.1803 1570.976 2.0018241 255 255 255
-9668.4004 -13175.208 -24.127977 255 255 255
-2215.2546 -2025.7299 -3.7764411 255 255 255
2646.8904 3105.8916 4.2625918 255 255 255
-3321.7288 -14456.89 -24.031733 255 255 255
879.27863 2126.5349 3.5541427 255 255 255
-334.34949 -845.7533 -2.6448028 255 255 255
-634.22668 -302.20377 -2.0129786 255 255 255
-623.49127 -2052.019 -4.2661157 255 255 255
-2394.0308 -2182.9712 -9.673624 255 255 255
2225.6016 1864.3729 2.9198589 255 255 255
-480.97739 -528.60944 -1.7028624 255 255 255
561.64685 2996.3547 5.0157714 255 255 255
1984.2544 2383.1455 3.0935743 255 255 255
832.78717 417.68338 0.98556894 255 255 255
-1097.6603 -1725.8906 -5.0863423 255 255 255
553.30798 268.79999 0.65385485 255 255 255
9129.9912 5412.0703 12.792747 255 255 255
-1193.65 -1130.9755 -4.3610916 255 255 255
811.96204 1304.6923 2.4565885 255 255 255
-1378.8198 -727.56635 -2.7234039 255 255 255
-522.07953 -644.06982 -2.3221445 255 255 255
-550.67316 -224.40634 -1.6142567 255 255 255
-2147.4307 -1522.8296 -3.7883706 255 255 255
-1061.5247 -282.39462 -2.4031408 255 255 255
1795.2128 2117.6709 2.6126828 255 255 255
335.81439 269.51129 1.0781065 255 255 255
967.71252 1301.3652 2.6143165 255 255 255
364.63925 301.5625 1.1538897 255 255 255
-1704.0824 -2512.8516 -6.3544888 255 255 255
-5432.6836 -3329.2708 -7.4025688 255 255 255
401.42255 874.52142 1.7069668 255 255 255
-374.06738 -591.87579 -1.9191588 255 255 255
257.89819 283.17728 0.92716068 255 255 255
-404.12112 -815.90643 -2.4416533 255 255 255
7967.0146 13693.104 32.476322 255 255 255
150.27208 199.49348 0.64388812 255 255 255
657.56989 968.19507 1.1503505 255 255 255
-1175.8914 -2207.6023 -5.2614913 255 255 255
512.56049 697.54559 1.1960558 255 255 255
784.00317 762.60864 2.0926352 255 255 255
927.65491 1217.4324 2.5202293 255 255 255
931.61469 1396.0315 2.4252553 255 255 255
-816.29114 -271.90329 -1.8823776 255 255 255
-87119.164 -42747.602 -123.88299 255 255 255
-729.1463 -1119.033 -3.1834512 255 255 255
-645.53357 -3693.5325 -11.058515 255 255 255
1305.9384 1089.7916 1.7387784 255 255 255
753.08624 781.36829 2.055644 255 255 255
-793.10516 -1391.3452 -3.6745856 255 255 255
1250.5964 1478.2305 3.7785189 255 255 255
-466.88852 -363.77557 -1.6406803 255 255 255
-601.32709 -1048.538 -2.974442 255 255 255
-444.86389 -487.12268 -1.6291047 255 255 255
966.08356 1913.4089 3.0502853 255 255 255
344.93536 272.12997 1.0998734 255 255 255
2397.7483 1066.0248 3.1341915 255 255 255
213.69797 301.9566 0.77270067 255 255 255
1091.3495 1197.4232 1.5718381 255 255 255
-7602.9512 -9637.75 -28.809866 255 255 255
-314.68427 -538.59052 -1.9332844 255 255 255
-3138.458 -1151.5568 -5.9059448 255 255 255
760.9397 409.35715 2.0492902 255 255 255
-3539.4639 -6984.3262 -13.05371 255 255 255
2255.7737 3040.6812 4.1778522 255 255 255
749.2915 501.9617 1.990508 255 255 255
68.660698 135.90512 0.47448495 255 255 255
814.93939 826.54022 1.3594943 255 255 255
771.30933 1043.7487 2.2309072 255 255 255
-433.46213 -441.70905 -1.8770758 255 255 255
134.96065 120.87419 0.50055104 255 255 255
567.54926 800.57526 1.0048711 255 255 255
755.02472 1332.5168 2.4220269 255 255 255
974.74915 1322.7263 2.6356702 255 255 255
18582.168 23203.074 68.539871 255 255 255
-11327.771 -5918.0771 -15.126135 255 255 255
303.62051 718.18451 1.4575746 255 255 255
759.09595 814.80701 2.0791092 255 255 255
-44.133129 -73.848915 -1.1149828 255 255 255
-3015.9407 -3468.8984 -7.2785678 255 255 255
-2378.3884 -1552.4646 -9.7062044 255 255 255
58799.238 17370.168 76.187767 255 255 255
1077.2518 936.09222 1.6568992 255 255 255
-345.0835 -623.20599 -2.0261269 255 255 255
-677.84473 -1137.5927 -3.1598897 255 255 255
268.05573 225.79929 0.90367228 255 255 255
-1694.6525 -2023.8368 -6.8233185 255 255 255
415.61536 510.72659 1.381961 255 255 255
-1245.7561 -4301.1455 -8.1297522 255 255 255
127603.5 52569.043 139.05106 255 255 255
-3075.5972 -4717.957 -9.5392466 255 255 255
2582.7317 1487.4286 5.0148201 255 255 255
613.96857 759.65796 0.92793447 255 255 255
354.66742 468.96777 1.2568519 255 255 255
-518.151 -1013.4108 -2.953655 255 255 255
4241.9155 2931.6567 7.051424 255 255 255
1935.922 2832.8186 3.7618999 255 255 255
764.09418 1450.8634 2.5279577 255 255 255
-1446.9513 -790.58441 -2.7977712 255 255 255
1180.8531 1194.5051 2.8302195 255 255 255
1289.9238 3230.9946 5.7660937 255 255 255
10105.568 5352.2461 14.101833 255 255 255
963.21582 1174.4468 2.3973796 255 255 255
18551.344 6579.417 25.783657 255 255 255
670.95709 1149.722 2.2017035 255 255 255
-73035.633 -21264.334 -81.469315 255 255 255
-1027.9305 -1972.4634 -4.6414814 255 255 255
1226.5597 1208.7277 4.2992978 255 255 255
36420.5 10208.792 50.599815 255 255 255
-3065.7207 -3402.9141 -7.5506916 255 255 255
36197.348 10166.757 50.399773 255 255 255
1276.571 1598.8778 3.7362542 255 255 255
488.50494 263.888 0.66643906 255 255 255
-535.59973 -394.64331 -2.153224 255 255 255
1378.1272 1654.6851 2.0090487 255 255 255
719.45416 745.67603 1.1887904 255 255 255
1229.0129 1098.2872 1.6736382 255 255 255
1244.5544 1670.5164 2.0717673 255 255 255
-518.05029 -926.99854 -2.9786174 255 255 255
535.61255 266.84033 0.63484341 255 255 255
840.38708 713.75586 2.1692512 255 255 255
-494.4855 -953.17896 -2.9022949 255 255 255
302.39667 303.22418 1.0288686 255 255 255
4317.7451 2796.2178 7.1749821 255 255 255
736.4035 530.20813 1.9612782 255 255 255
635.88544 708.67975 1.8418458 255 255 255
-3411.4248 -2019.0939 -4.746501 255 255 255
1314.3738 1000.7443 1.7261528 255 255 255
10058.103 5878.7637 13.789172 255 255 255
1772.7252 3961.4226 7.1745381 255 255 255
3058.2749 6789.9038 11.459357 255 255 255
-10305.517 -5401.8628 -13.899895 255 255 255
-291.00671 -755.55707 -2.1944087 255 255 255
-1151.2241 -1637.2601 -5.7321486 255 255 255
725.7157 811.83636 1.0589545 255 255 255
-674.06982 -1695.9617 -4.1538382 255 255 255
9801.3809 13899.383 42.918308 255 255 255
-378.50168 -356.02084 -1.6163826 255 255 255
-2055.7002 -538.03326 -3.0455472 255 255 255
-1353.4351 -823.16217 -3.0058005 255 255 255
301.30417 1083.8224 1.8653578 255 255 255
-625.70679 -1121.8333 -4.0934811 255 255 255
1154.3506 1373.2565 2.0244861 255 255 255
-1872.9872 -3913.2659 -8.714777 255 255 255
-4274.9961 -1344.4602 -9.7973299 255 255 255
6713.4419 2970.1382 10.693633 255 255 255
1690.3574 2113.002 2.5596266 255 255 255
1361.7223 1645.5547 2.3950276 255 255 255
-333.25989 -351.23779 -1.4708209 255 255 255
-9031.5986 -5715.3779 -12.903343 255 255 255
413.41974 425.69989 1.3147912 255 255 255
-4928.8462 -3312.3403 -7.0002656 255 255 255
-311.63998 -1217.7668 -2.9428008 255 255 255
-3111.9014 -3501.6128 -7.3382349 255 255 255
1986.9683 2500.5349 3.5373173 255 255 255
2054.0999 1961.3075 3.3446596 255 255 255
12084.78 6101.895 16.156042 255 255 255
153.31807 294.19821 0.78276306 255 255 255
409.29086 548.94122 1.4033425 255 255 255
27160.338 9707.7578 35.528015 255 255 255
-403.11938 -1172.5743 -3.1627703 255 255 255
804.03674 603.59448 2.1437249 255 255 255
782.87109 571.28308 2.0487928 255 255 255
-12339.391 -6804.502 -15.199272 255 255 255
2559.3423 1511.0502 4.9696231 255 255 255
-280.414 -527.75494 -2.1424854 255 255 255
-322.75043 -675.258 -2.3825274 255 255 255
363.94901 286.33377 1.1462653 255 255 255
-51981.949 -29464.398 -63.377693 255 255 255
-2103.0144 -1246.7736 -3.603493 255 255 255
-234.85735 -269.66272 -1.5318586 255 255 255
173.05382 1117.5369 1.8537079 255 255 255
984.64618 1027.6764 1.3492279 255 255 255
437.7872 356.08539 1.1913661 255 255 255
1220.3269 1359.2545 1.7405193 255 255 255
-415.11502 -1002.8785 -3.1840584 255 255 255
754.5722 697.44128 2.0243173 255 255 255
14576.186 9768.542 18.490923 255 255 255
-391.00027 -837.36212 -2.4352868 255 255 255
4288.8267 3137.0059 7.0726418 255 255 255
1357.082 1290.0726 1.8694283 255 255 255
-307.43979 -864.70874 -2.2874675 255 255 255
3414.1348 4394.5464 13.532004 255 255 255
2049.7988 2334.3647 6.7783651 255 255 255
1418.5996 1899.8807 5.1256089 255 255 255
12592.548 7972.98 14.760499 255 255 255
-520.21899 -477.02377 -1.841802 255 255 255
690.95844 402.98117 0.84232926 255 255 255
84.572372 77.934349 0.11572481 255 255 255
349.27307 145.84712 0.40025407 255 255 255
-662.87781 -1093.0743 -2.8871186 255 255 255
-93.250916 -137.89351 -1.2482073 255 255 255
-688.39886 -1055.7294 -2.9228926 255 255 255
-357.16632 -284.24051 -1.5057586 255 255 255
507.13715 374.94107 0.60848492 255 255 255
-449.57053 -658.0061 -2.7495649 255 255 255
-28492.014 -71852.352 -153.52753 255 255 255
648.01294 1022.2217 2.0764556 255 255 255
-1507.1638 -3226.834 -5.91149 255 255 255
-250.12535 -253.99762 -1.3500311 255 255 255
3321.262 3907.3162 5.5745764 255 255 255
4262.8452 4170.5098 6.3061457 255 255 255
6523.0464 5353.9263 9.7284184 255 255 255
165.82529 214.20728 0.68940151 255 255 255
1787.0248 1707.86 2.5959942 255 255 255
2190.8186 2842.6201 4.2390518 255 255 255
-379.48364 -520.55945 -2.0478024 255 255 255
5758.9663 1980.7891 10.311625 255 255 255
-479.11838 -882.32648 -2.894614 255 255 255
430.58582 1004.3934 1.8629339 255 255 255
1811.3147 337.97601 1.9852254 255 255 255
679.33295 452.02313 0.87369555 255 255 255
-476.18423 -424.24277 -1.6480035 255 255 255
-569.48505 -912.12183 -2.7544377 255 255 255
-2073.2988 -2815.1846 -10.88083 255 255 255
2711.314 1326.9572 3.7970984 255 255 255
-1256.4313 -1614.1222 -4.5308681 255 255 255
354.34885 466.97412 1.2543906 255 255 255
691.48694 1739.8859 2.9545267 255 255 255
-1350.5967 -2567.5791 -7.4346442 255 255 255
-367.56921 -866.21588 -2.4492233 255 255 255
9175.8926 5438.3242 12.85629 255 255 255
-1520.8019 -2146.5754 -6.4067636 255 255 255
374.53247 1109.8444 1.9325039 255 255 255
-798.86414 -480.19067 -1.9919767 255 255 255
-339.18463 -622.44482 -2.1856766 255 255 255
-625.50098 -540.27795 -1.870276 255 255 255
-539.55841 -1088.2466 -2.8867581 255 255 255
826.31555 1082.068 2.3217282 255 255 255
-274.68988 -691.01398 -2.1172583 255 255 255
-755.19611 -1443.431 -3.8461626 255 255 255
486.63113 1287.6 2.1840529 255 255 255
764.90735 586.47699 2.0162323 255 255 255
-644.30939 -975.26221 -3.2482243 255 255 255
805.65131 1578.1283 2.6678736 255 255 255
-4151.6016 -10926.866 -24.089491 255 255 255
644.23694 992.24695 1.8556403 255 255 255
4746.6909 12161.481 29.918386 255 255 255
1784.7871 6048.2866 9.5238428 255 255 255
418.69696 1659.7263 3.6141369 255 255 255
20251.559 10791.599 24.853037 255 255 255
33062.539 54886.5 101.60583 255 255 255
534.61932 553.21619 2.1958258 255 255 255
640.51172 953.34302 2.0181155 255 255 255
327.06485 998.15546 1.7850006 255 255 255
729.92987 396.01825 1.9878192 255 255 255
893.4068 1422.4669 2.6184444 255 255 255
-176.43977 -747.0451 -2.2128856 255 255 255
-117.61156 -711.7182 -2.2696776 255 255 255
967.74854 1243.8228 2.5828798 255 255 255
3230.0017 2310.1555 5.7645245 255 255 255
-301.05609 -476.80139 -1.5379884 255 255 255
4154.8711 2999.7476 6.9208012 255 255 255
891.97089 1109.3612 2.4148104 255 255 255
-705.37036 -704.2854 -2.5464964 255 255 255
2281.7966 2507.894 8.2633486 255 255 255
-1230.3918 -1849.3607 -6.3726659 255 255 255
-408.56552 -1111.8271 -2.9043798 255 255 255
-580.18365 -1115.3723 -2.9826167 255 255 255
165.03896 79.37252 0.19467859 255 255 255
1684.3492 1785.801 2.6664221 255 255 255
760.03986 741.66742 1.1670874 255 255 255
3867.7485 9091.3652 15.135968 255 255 255
823.30194 1038.625 2.2907252 255 255 255
-884.21802 -495.18619 -2.1052709 255 255 255
-726.38629 -359.88962 -1.785763 255 255 255
6859.2036 4392.1167 10.174039 255 255 255
709.09692 363.62653 1.9642718 255 255 255
1181.089 2130.5454 3.3721094 255 255 255
765.84662 1254.2491 2.3750219 255 255 255
113.97682 110.12072 0.43996522 255 255 255
-579.01306 -1395.9214 -3.3942356 255 255 255
435.38043 1127.9227 1.7915716 255 255 255
-1639.6959 -5586.1357 -10.380721 255 255 255
-458.60159 -181.54372 -1.5662366 255 255 255
-2010.0859 -6398.9561 -11.431454 255 255 255
821.67462 1425.1664 2.5562384 255 255 255
14660.507 9230.5264 18.548769 255 255 255
501.24362 1564.3884 2.4611771 255 255 255
2167.5151 7893.9409 12.283707 255 255 255
-1384.6785 -802.29254 -2.7429056 255 255 255
-6535.0415 -2836.9849 -8.0336123 255 255 255
1976.4916 2028.428 2.8433557 255 255 255
626.06165 1021.9714 2.0528238 255 255 255
564.85254 726.49365 1.7527845 255 255 255
-471.33051 -1032.4653 -2.7028904 255 255 255
-238.04233 -516.66827 -1.9072498 255 255 255
-1739.4584 -4473.6567 -8.7897549 255 255 255
-290.64017 -663.35352 -2.1343839 255 255 255
2388.199 845.64484 5.5112839 255 255 255
1036.4191 1471.8163 2.7938046 255 255 255
-190.58647 -549.05377 -1.8763722 255 255 255
-788.98846 -1310.8246 -3.3227181 255 255 255
-548.83484 -1011.8394 -2.8742001 255 255 255
825.32037 1259.4788 2.435092 255 255 255
-8395.2715 -3517.6707 -10.615983 255 255 255
-1264.8242 -2343.6057 -5.7927451 255 255 255
69.979019 289.94449 0.70068383 255 255 255
-199.89844 -563.08258 -2.0244508 255 255 255
793.12775 1778.2942 2.8281062 255 255 255
279.95181 1012.9067 1.7762039 255 255 255
3309.9197 3411.1545 5.9874473 255 255 255
-694.72589 -728.34637 -2.4263632 255 255 255
11665.738 35427.246 61.708424 255 255 255
321.9863 1071.9973 1.8633907 255 255 255
354.01517 1534.7743 2.3669577 255 255 255
-837.44727 -293.43036 -1.931744 255 255 255
399.39163 1549.0962 2.3975725 255 255 255
4161.7793 3011.0537 6.9355774 255 255 255
3153.0303 2540.3928 5.6548953 255 255 255
3176.3599 2552.3132 5.6833448 255 255 255
-5555.665 -2849.0796 -7.4768701 255 255 255
4288.2168 2770.5396 7.1293135 255 255 255
-55788.629 -121614.31 -264.41943 255 255 255
-634.29901 -1403.1877 -3.4107432 255 255 255
658.51721 915.86963 2.0085196 255 255 255
-35.705128 -216.99515 -1.3012847 255 255 255
-552.85303 -2003.3419 -4.0842595 255 255 255
805.43372 1702.2054 2.7692513 255 255 255
-475.41544 -897.8017 -2.8264766 255 255 255
-684.33051 -563.13202 -1.9521995 255 255 255
6569.0557 3813.0173 7.2492976 255 255 255
-7302.9189 -19467.256 -35.44352 255 255 255
-362.17819 -728.91699 -2.3703384 255 255 255
-191.50398 -526.41632 -1.836127 255 255 255
-415.98352 -220.25485 -1.4902968 255 255 255
-906.52637 -1408.7722 -2.5466895 255 255 255
561.24292 719.97388 1.7432857 255 255 255
-1016.9196 -1359.8673 -2.4605055 255 255 255
-390.23758 -1374.6301 -3.7539556 255 255 255
328.60855 729.67725 1.491888 255 255 255
778.46942 1793.3352 2.8310416 255 255 255
-210.54904 -324.41113 -1.5556023 255 255 255
-189.12747 -320.05899 -1.6369338 255 255 255
-1252.7578 -1032.7599 -4.228888 255 255 255
-393.33939 -859.69238 -2.4517994 255 255 255
1735.5654 3811.2998 6.1919603 255 255 255
5584.5039 6922.2319 20.832912 255 255 255
-314.57016 -150.44023 -1.3749365 255 255 255
3331.9309 3424.5542 6.0125656 255 255 255
-381.33221 -928.17126 -2.5483851 255 255 255
-15541.484 -49983.879 -86.597206 255 255 255
-1527.8417 -1811.5061 -3.241636 255 255 255
-508253.22 -168045.7 -557.44568 255 255 255
568.43323 562.63123 0.78803056 255 255 255
6567.4873 5378.7285 9.7755232 255 255 255
1023.0106 1002.2142 1.4971805 255 255 255
-1430.803 -1649.6265 -2.9023945 255 255 255
-466.05389 -1424.1248 -3.0531011 255 255 255
-432.83862 -571.89014 -2.1209743 255 255 255
398.94934 1074.6116 1.9117287 255 255 255
1516.1779 1676.785 2.2818432 255 255 255
-1701.0996 -1752.0852 -3.3608389 255 255 255
1391.4091 1188.5228 5.1240864 255 255 255
-1789.25 -1424.509 -4.1995592 255 255 255
924.35413 1481.6486 1.9947536 255 255 255
-371.10873 -492.85886 -1.5892605 255 255 255
940.49786 886.54102 1.4924076 255 255 255
-1428.4181 -3662.481 -7.0194449 255 255 255
-504.23355 -845.28094 -2.4985909 255 255 255
-95.839211 -249.23679 -1.5333523 255 255 255
-708.83392 -1267.9014 -3.8595319 255 255 255
-525.00861 -394.23929 -1.734512 255 255 255
799.01862 1676.9695 2.7420747 255 255 255
3534.5935 2041.3118 6.292521 255 255 255
655.75531 1193.0001 2.2225878 255 255 255
853.03589 1534.6021 2.6667509 255 255 255
567.10254 1056.3934 1.9038107 255 255 255
-1150.5728 -1623.6624 -4.4610705 255 255 255
736.97394 1550.5815 2.5945516 255 255 255
-362.49774 -555.19965 -1.963333 255 255 255
2721.4236 2503.1697 3.8781438 255 255 255
-203.1981 -719.95099 -2.2376201 255 255 255
-484.57404 -833.72235 -3.0510011 255 255 255
1322.9521 1723.8937 2.3213739 255 255 255
473.95056 170.22813 0.56980872 255 255 255
93.781792 292.31152 0.72121871 255 255 255
5061.0718 11821.781 31.319305 255 255 255
4041.0608 1934.9189 7.1942821 255 255 255
8661.2715 6482.0156 10.279488 255 255 255
573.90057 1371.1958 2.3181727 255 255 255
1495.6198 1931.8888 2.3320806 255 255 255
-443.57236 -224.2146 -2.3796382 255 255 255
-1509.5072 -4102.6548 -9.0090094 255 255 255
-1683.5699 -1895.986 -6.7568121 255 255 255
-850.64777 -1102.9155 -2.4007869 255 255 255
-1440.788 -2262.2168 -7.9068332 255 255 255
-2089.7485 -5182.9883 -17.059402 255 255 255
195.54364 198.81111 0.76047796 255 255 255
-91.001488 -249.15794 -1.4293987 255 255 255
-685.98816 -381.00479 -1.8491391 255 255 255
-1702.49 -2714.2437 -8.3200645 255 255 255
112.85802 111.10033 0.43927163 255 255 255
-414.20114 -515.08099 -2.5005054 255 255 255
-3080.1245 -3413.8616 -7.5312028 255 255 255
-580.18195 -559.55701 -2.1911268 255 255 255
424.82291 275.26459 1.2878059 255 255 255
-6520.3086 -2233.562 -8.1284571 255 255 255
567.28168 1166.5712 2.1236172 255 255 255
701.01001 595.95428 1.0682099 255 255 255
-538.87476 -486.1481 -1.7626985 255 255 255
14119.455 57683.57 87.539864 255 255 255
2165.5779 1757.2004 2.7237687 255 255 255
-178.77255 -1096.7982 -3.2508528 255 255 255
609.3432 907.79327 1.0211819 255 255 255
330.03769 981.74127 1.7706128 255 255 255
398.40219 213.22777 0.52205586 255 255 255
392.98727 403.58087 0.91207445 255 255 255
-3452.1992 -2718.127 -5.3532825 255 255 255
372.92453 1434.045 2.2688839 255 255 255
-379.06226 -484.4624 -1.8391818 255 255 255
-323.19534 -749.94135 -2.0785785 255 255 255
507.44803 183.98634 0.70350122 255 255 255
2071.4768 4024.1016 7.0652189 255 255 255
607.52942 562.85919 0.87282968 255 255 255
3354.4104 2538.4604 5.5050268 255 255 255
933.52423 1180.3395 2.505271 255 255 255
103.0211 121.14595 0.16616385 255 255 255
-2766.3542 -3432.1873 -9.7926798 255 255 255
5113.6152 3011.7219 7.3009567 255 255 255
310.12753 1062.0736 1.8476002 255 255 255
776.31488 1071.3169 2.2558751 255 255 255
-6523.2549 -13890.998 -29.180454 255 255 255
-1496.4502 -2703.2007 -7.1946697 255 255 255
-808.34857 -435.33817 -2.5749993 255 255 255
-379.5484 -830.55579 -2.5622604 255 255 255
-3833.5015 -2605.1814 -6.1773796 255 255 255
9655.4717 8002.0801 29.480284 255 255 255
-993.70374 -3617.6724 -8.5866098 255 255 255
2656.0337 2465.345 4.0780063 255 255 255
-1628.0299 -4779.5645 -9.1980572 255 255 255
214.36975 227.8291 0.51830643 255 255 255
1258.0686 1517.752 2.0215042 255 255 255
2457.7998 1911.348 3.631273 255 255 255
445.68793 340.8382 0.59739345 255 255 255
1033.4595 1518.715 1.8277967 255 255 255
871.6405 1339.5488 3.0325077 255 255 255
9400.2354 13117.433 23.246101 255 255 255
-184.40108 -661.52985 -2.082747 255 255 255
155752.95 282013.28 978.57141 255 255 255
-705.78503 -1599.7527 -4.6338668 255 255 255
-9210.8809 -5787.5332 -22.863098 255 255 255
798.84595 759.23834 1.0868464 255 255 255
-255.34598 -519.09985 -1.8203317 255 255 255
2795.1555 1203.9189 3.8041923 255 255 255
771.18811 1255.2966 1.3145949 255 255 255
-126.30509 -681.63928 -2.0453336 255 255 255
-2310.1399 -6487.7852 -12.936092 255 255 255
2268.855 2501.0508 3.300935 255 255 255
-4629.4595 -7174.6396 -13.597288 255 255 255
-1303.478 -1004.4444 -2.5751648 255 255 255
-34804.414 -13839.362 -39.744072 255 255 255
-16201.744 -4875.8062 -18.127722 255 255 255
356.23071 333.73239 1.1527011 255 255 255
-241.99614 -817.72565 -2.3522754 255 255 255
-2835.3809 -2195.6331 -6.6380892 255 255 255
9968.7539 5287.918 13.93721 255 255 255
-1989.952 -1174.373 -3.3993549 255 255 255
-712.90778 -840.29095 -3.1494212 255 255 255
10128.157 5366.231 14.139929 255 255 255
-427.27142 -564.62305 -1.6813732 255 255 255
-723.61981 -1245.6062 -3.5458694 255 255 255
-282.52966 -645.75128 -2.2070315 255 255 255
-18658.553 -7509.6821 -21.821974 255 255 255
-310.12442 -446.12524 -1.5371704 255 255 255
-571.77332 -1194.2145 -3.2144928 255 255 255
-5390.9937 -1851.9432 -7.4820085 255 255 255
20677.273 11740.125 25.066715 255 255 255
18769.621 6669.0596 26.112583 255 255 255
807.33191 659.61072 1.2434061 255 255 255
821.61957 538.18365 2.1347086 255 255 255
144.60315 154.84845 0.60489905 255 255 255
354.71127 78.967293 0.38588849 255 255 255
2914.3386 3822.2083 5.3954597 255 255 255
884.22272 1631.7603 2.7676492 255 255 255
1287.8622 1203.8475 1.7904712 255 255 255
4021.9841 1927.9207 7.1605515 255 255 255
783.55872 740.64392 2.083683 255 255 255
1180.0137 1194.8916 2.8292384 255 255 255
-334.08948 -538.73969 -2.1563411 255 255 255
5469.561 3127.7073 6.2294803 255 255 255
-474.54742 -875.76691 -2.6793859 255 255 255
631.63074 923.01428 1.983608 255 255 255
-3019.4817 -3451.342 -7.2881007 255 255 255
792.61267 795.63342 1.1326258 255 255 255
-2322.5667 -1718.109 -4.2751579 255 255 255
-3106.9739 -3445.0007 -7.5933528 255 255 255
-3769.8928 -2573.8589 -7.3748136 255 255 255
580.54938 1730.5049 2.663301 255 255 255
1964.514 4935.6768 7.6406384 255 255 255
972.00385 1319.7341 2.6289468 255 255 255
-41142.688 -9596.9512 -46.011703 255 255 255
-1757.7092 -1648.6243 -6.6418047 255 255 255
6460.2354 4905.9165 9.6224194 255 255 255
-972.29407 -412.02408 -2.3223975 255 255 255
302.8591 658.91547 1.4146281 255 255 255
-281.27408 -404.77246 -1.724803 255 255 255
11551.024 5387.1533 16.121496 255 255 255
-366.05267 -466.5376 -1.7104053 255 255 255
1605.1958 600.74463 1.7655035 255 255 255
2078.4001 1796.2725 2.8169742 255 255 255
11196.162 3100.4431 12.790584 255 255 255
-647.80042 -1101.9326 -3.623261 255 255 255
111.23924 103.02978 0.42152509 255 255 255
942.6994 491.76883 1.15 255 255 255
-867.20667 -167.97873 -1.9338773 255 255 255
1246.7241 1235.869 3.095681 255 255 255
647.65259 772.43854 1.8957937 255 255 255
1068.6101 984.4776 1.4740841 255 255 255
-5703.811 -4529.3838 -8.7911425 255 255 255
-14185.142 -5075.4248 -16.238941 255 255 255
927.98328 1224.5243 2.5225492 255 255 255
783.47778 761.78479 2.0921907 255 255 255
1069.2432 2744.467 4.3923159 255 255 255
2423.6372 2616.0215 3.8488641 255 255 255
2029.0372 821.84106 2.564116 255 255 255
1157.5535 2704.3918 4.2501841 255 255 255
103.08688 31.672068 0.12582752 255 255 255
832.45239 432.875 2.2097981 255 255 255
403.35547 932.39594 1.7681066 255 255 255
-225.54721 -280.01865 -1.3077219 255 255 255
-385.13211 -660.95557 -2.1192005 255 255 255
4952.437 7689.1865 17.080908 255 255 255
1634.7834 2077.3398 4.9010072 255 255 255
42724.879 16350.407 50.837334 255 255 255
833.75018 810.4129 1.2186565 255 255 255
10134.917 5925.1733 13.89644 255 255 255
947.31262 512.78967 2.4189253 255 255 255
-352.72076 -565.776 -2.1808486 255 255 255
3381.2358 3289.5254 5.5978546 255 255 255
507.3956 296.3743 0.69391674 255 255 255
-595.36853 -759.94727 -2.2341034 255 255 255
-124840.27 -268415.81 -485.27856 255 255 255
-1033.2878 -1953.3253 -4.3713517 255 255 255
-721.0484 -1262.8622 -3.3306353 255 255 255
31980.381 8091.4736 47.338223 255 255 255
-1824.5372 -1497.5497 -4.881319 255 255 255
-480.95892 -504.55695 -1.6825916 255 255 255
-22072.41 -52016.637 -84.634384 255 255 255
1640.7627 1021.2238 1.9405483 255 255 255
415.12375 510.59415 1.3805439 255 255 255
634.76416 707.70636 1.8396972 255 255 255
20307.625 10822.079 24.922255 255 255 255
-477.88269 -376.26703 -1.6108688 255 255 255
3536.2407 2044.4556 6.3024955 255 255 255
969.02985 1612.4139 2.8263094 255 255 255
1772.7036 2560.6824 3.3495069 255 255 255
-3651710.5 -1662205.1 -5349.168 255 255 255
1882.66 2253.8169 3.3422987 255 255 255
239.64653 393.30402 1.0200381 255 255 255
-609.69763 -515.80811 -1.7803237 255 255 255
752.59778 797.93005 2.0601583 255 255 255
-478.34531 -483.43344 -2.0628762 255 255 255
987.90979 1372.9125 3.1077058 255 255 255
638.78131 534.49518 0.98010594 255 255 255
-4647.1807 -1749.5065 -10.717522 255 255 255
5020.4111 17020.664 29.414448 255 255 255
1715.4147 1019.6281 2.1552622 255 255 255
12985.08 8047.3848 18.21575 255 255 255
-300.17386 -282.1875 -1.4357257 255 255 255
-745.38013 -392.965 -1.9190176 255 255 255
718.09412 1768.2916 2.7721624 255 255 255
-380.7623 -309.54037 -1.4952748 255 255 255
1214.0388 1464.6208 1.8404652 255 255 255
-6795.3608 -4506.0933 -9.7669239 255 255 255
-4525.3008 -1844.9606 -10.818223 255 255 255
701.31372 908.93512 1.1088837 255 255 255
758.57166 713.10944 2.0312705 255 255 255
-620.25519 -1031.4268 -3.0540371 255 255 255
648.01758 941.30768 2.0121336 255 255 255
-8513.3965 -4154.0249 -10.135122 255 255 255
1572.548 1924.1298 2.5039356 255 255 255
-4497.9761 -1717.7784 -10.549868 255 255 255
-5697.228 -4533.4902 -8.7414255 255 255 255
1038.6997 426.76816 1.2249727 255 255 255
2303.9834 2509.1719 3.4174767 255 255 255
1770.7523 2130.1541 2.9580224 255 255 255
695.52844 1531.5712 2.5474496 255 255 255
440.82635 432.92288 1.3688474 255 255 255
851.15497 957.17072 1.2982969 255 255 255
1388.9421 1369.1772 1.9597859 255 255 255
-409.25409 -278.53784 -1.5023624 255 255 255
58567.973 17283.535 75.880775 255 255 255
1612.5455 1692.2089 3.5641787 255 255 255
-587.1604 -1097.3706 -3.0283625 255 255 255
282.33783 292.9787 0.98192477 255 255 255
-13049.389 -10078.124 -16.974464 255 255 255
384.53384 1379.5701 2.218559 255 255 255
20560.035 11705.374 24.947741 255 255 255
-176.67015 -144.29132 -1.5071769 255 255 255
415.26007 272.73819 1.2645277 255 255 255
1403.8657 1941.1626 2.8109012 255 255 255
400.83566 874.29907 1.7058085 255 255 255
-311.95001 -560.0119 -1.9807178 255 255 255
-597.76379 -360.29364 -1.6911745 255 255 255
-260.77206 -996.77258 -2.6128969 255 255 255
831.81934 1172.636 1.4260175 255 255 255
938.05463 1235.1152 1.5298833 255 255 255
-949.32458 -714.05939 -2.2688491 255 255 255
2055734.1 1765709.9 3185.6804 255 255 255
405.74637 201.44125 0.46382472 255 255 255
2560.2283 2431.2507 3.6724551 255 255 255
-246.35643 -582.05786 -2.1093972 255 255 255
924.16846 1003.5651 1.3608054 255 255 255
67.055321 120.44079 0.47606158 255 255 255
-27364.57 -10358.677 -31.475746 255 255 255
538.52502 1049.1635 1.9935336 255 255 255
-767.55188 -1355.6615 -3.6177425 255 255 255
686.08667 1368.6329 3.1966708 255 255 255
86553.703 23698.477 113.20695 255 255 255
425.60208 1171.379 2.0278096 255 255 255
36183.383 10168.718 50.391979 255 255 255
149.85938 202.9222 0.64918697 255 255 255
-413.77982 -939.34229 -2.8043416 255 255 255
815.77454 736.3988 1.2930255 255 255 255
1382.0365 1790.5955 2.282099 255 255 255
926.37457 1215.7827 2.5161152 255 255 255
1684.3295 1736.0649 2.3786476 255 255 255
4388.6787 4384.5737 7.3531795 255 255 255
1172.1383 1025.5042 1.6420695 255 255 255
6481.9609 3848.9221 7.2051187 255 255 255
456.04214 586.19965 1.2611316 255 255 255
630.37048 486.97522 0.7933684 255 255 255
882.35986 1466.0098 2.6380424 255 255 255
821.4751 1424.9415 2.5551317 255 255 255
-1645.2509 -2091.5591 -3.6051702 255 255 255
-349.61536 -638.74207 -2.1095238 255 255 255
676.6723 958.43652 2.060112 255 255 255
-1847.0017 -3859.0991 -8.5957985 255 255 255
741.98596 500.84351 1.9749949 255 255 255
1241.4053 1728.353 2.1083965 255 255 255
777.42395 1792.5752 2.8273852 255 255 255
-1240.0624 -1047.0846 -3.4683402 255 255 255
6703.5576 2965.9915 10.676554 255 255 255
414.16516 242.34848 0.48186502 255 255 255
636.09082 946.68988 2.0035164 255 255 255
9225.3701 5459.7124 12.903258 255 255 255
1154.0887 1466.988 1.8641146 255 255 255
-2381.6172 -2039.6038 -3.8764849 255 255 255
1706.0302 1517.7404 2.3229983 255 255 255
884.69727 1832.0521 2.9290814 255 255 255
415.32693 273.72876 0.5002054 255 255 255
961.90289 1236.7975 2.5675635 255 255 255
461.45868 208.60988 0.58289462 255 255 255
-1721.1162 -6036.5059 -10.773393 255 255 255
912.17358 836.38354 1.534004 255 255 255
-1511.2504 -3307.3564 -9.4030247 255 255 255
303.57135 718.98639 1.4591272 255 255 255
539.46912 1212.5789 2.1447494 255 255 255
284.0603 291.14908 0.98377925 255 255 255
170.24704 191.6003 0.60584313 255 255 255
777.8681 755.24664 2.0796731 255 255 255
-490.89096 -218.24203 -1.5419188 255 255 255
1048.7274 439.13943 1.3368311 255 255 255
-10924.686 -2144.3313 -14.343732 255 255 255
-574.24963 -638.07037 -2.2174313 255 255 255
4312.1919 2795.7981 7.1711679 255 255 255
845.31042 588.39001 2.1729362 255 255 255
-407.47043 -417.32623 -2.426532 255 255 255
794.01807 765.07971 2.1095481 255 255 255
-3024.5671 -3478.804 -7.2972403 255 255 255
17682.504 29601.438 53.452431 255 255 255
578.72791 932.26855 1.931769 255 255 255
750.4563 1694.8927 2.7250853 255 255 255
2203.8445 2432.8499 3.6000419 255 255 255
-294.80002 -597.34625 -2.1081963 255 255 255
719.47687 1371.0751 2.4259605 255 255 255
900.2345 988.3147 2.3612363 255 255 255
-212.09583 -329.93506 -1.5758877 255 255 255
-381.53183 -433.51099 -1.5565885 255 255 255
-204.48781 -366.23672 -1.7411819 255 255 255
331.94403 986.74457 1.7748861 255 255 255
531.95697 1076.7168 2.0152528 255 255 255
594.17438 578.86267 2.1818109 255 255 255
-868.45038 -3436.1497 -7.2671537 255 255 255
533.9881 1148.7898 2.081342 255 255 255
-922.34357 -513.90106 -2.1526585 255 255 255
-190.52475 -850.03546 -2.3878112 255 255 255
1484.4716 1996.0833 2.636018 255 255 255
-1311.8423 -2143.4321 -6.9469414 255 255 255
-1010.2454 -304.7103 -3.0907779 255 255 255
5898.5801 16516.908 27.876453 255 255 255
2681.011 2077.0366 3.6943955 255 255 255
674.00397 1624.8221 2.6169305 255 255 255
-5461.8135 -9689.5127 -19.877855 255 255 255
3177.1338 2553.8345 5.6857238 255 255 255
3141.2422 2530.8965 5.633182 255 255 255
-62342.637 -33557.609 -74.278358 255 255 255
260.57693 268.73276 0.90439212 255 255 255
-76.20697 -129.28772 -1.490213 255 255 255
-627.39191 -846.6026 -3.1403158 255 255 255
881.6908 1010.4014 2.3437154 255 255 255
2713.8301 2699.6326 3.8599026 255 255 255
-636.19562 -1078.7942 -3.577497 255 255 255
-241.22591 -619.57593 -2.0403311 255 255 255
305.85428 1450.2733 2.2616782 255 255 255
964.22894 1911.7317 3.0475011 255 255 255
744.59766 1603.1812 2.6446004 255 255 255
-218.07539 -380.68747 -1.6690286 255 255 255
7474.9194 5665.0225 9.7048941 255 255 255
749.14056 1174.5599 2.2980187 255 255 255
-60787.988 -119094.84 -256.18332 255 255 255
624.64111 1021.9521 2.0504682 255 255 255
-376.66681 -721.64526 -2.1332982 255 255 255
-1039.813 -1084.0818 -2.3395655 255 255 255
-460.52106 -821.7124 -3.268023 255 255 255
712.33618 1319.5188 2.3753724 255 255 255
942.3891 546.34576 3.6781251 255 255 255
377.76688 884.65607 1.7000782 255 255 255
819.91083 505.40591 1.1235449 255 255 255
-4767.0649 -2916.9707 -6.6671748 255 255 255
-1171.3932 -3230.75 -6.5854135 255 255 255
-695.50073 -1204.2401 -3.4048841 255 255 255
831.09973 1015.886 2.2847619 255 255 255
843.04944 450.53979 1.4250872 255 255 255
-419.09189 -507.1575 -2.1065605 255 255 255
-120691.69 -266847.47 -511.63733 255 255 255
776.12189 722.3465 2.0640342 255 255 255
-94.997185 -114.71097 -1.1415318 255 255 255
1006.5134 765.80469 1.2778319 255 255 255
-344.87787 -691.72284 -2.3010464 255 255 255
-793.74335 -1002.6705 -2.2124748 255 255 255
-317.6568 -536.57898 -2.1298046 255 255 255
6518.2388 5346.998 9.720664 255 255 255
-1156.265 -1495.4363 -2.6775739 255 255 255
33.934456 136.26292 0.38278225 255 255 255
30784.99 7808.3936 45.650127 255 255 255
6544.0244 5360.5186 9.7443991 255 255 255
-39.548 -231.7318 -1.3728974 255 255 255
-11475.876 -16851.588 -38.736782 255 255 255
987.50775 3455.2439 5.5682225 255 255 255
442.96579 1448.0612 2.3185418 255 255 255
-826.21381 -281.39972 -1.9029263 255 255 255
587.13574 1217.1478 2.1859617 255 255 255
734.03821 398.43823 2.0004761 255 255 255
-479.38379 -1222.5164 -3.3895383 255 255 255
-23696.646 -6479.0361 -26.876148 255 255 255
-346.66522 -685.84363 -2.2082739 255 255 255
648.57672 1024.1829 2.0800791 255 255 255
894.83459 1206.6674 2.4734144 255 255 255
795.99701 1518.6531 2.6087928 255 255 255
719.16211 558.86737 0.90162802 255 255 255
21607.514 10847.351 24.158348 255 255 255
-1527.203 -8211.6289 -12.703944 255 255 255
-426.70105 -311.72571 -1.5193818 255 255 255
3989.8462 1918.3239 7.122057 255 255 255
-2986.3916 -5865.5464 -11.468541 255 255 255
-6901.3413 -6203.6416 -27.353628 255 255 255
2046.2402 2469.3706 3.6016507 255 255 255
-584.83588 -785.11798 -3.4926713 255 255 255
-1245.6249 -700.40375 -2.7163315 255 255 255
9160.8496 5431.3794 12.833886 255 255 255
-414.17047 -430.37253 -1.5981193 255 255 255
1111.1617 2337.9131 4.1719551 255 255 255
3207.9102 3027.7551 5.7817326 255 255 255
129530.02 53399.598 141.17235 255 255 255
631.42474 549.04108 0.7922411 255 255 255
-18462.592 -41721.738 -74.814445 255 255 255
1156.9875 719.78387 3.3938911 255 255 255
1244.5531 2393.593 3.888936 255 255 255
-5051.3521 -2175.5322 -6.412519 255 255 255
-443.20724 -476.53027 -1.5744556 255 255 255
665.72931 1607.7512 2.5956829 255 255 255
464.79034 191.56044 0.53502697 255 255 255
3322.6724 3416.6316 5.9972734 255 255 255
-148.28531 -379.63937 -1.6175467 255 255 255
-191.7886 -293.89523 -1.8406516 255 255 255
856.85059 709.69824 1.292274 255 255 255
-1067.3729 -1515.5188 -4.1948128 255 255 255
-931.40436 -3335.3472 -5.9196553 255 255 255
-890.41064 -2556.1248 -5.1973543 255 255 255
-380.42981 -314.31747 -1.4571854 255 255 255
1786.2981 1688.7241 2.5032604 255 255 255
597.35956 1166.5106 2.1511543 255 255 255
375.51926 763.77765 1.5714164 255 255 255
-5819.4209 -1485.0669 -13.343394 255 255 255
-545.77954 -555.22803 -2.3845389 255 255 255
-296.44995 -521.59241 -1.9824554 255 255 255
-1876.3251 -5422.7812 -12.097824 255 255 255
2226.7605 3040.7375 8.6620092 255 255 255
-488.50723 -728.0188 -2.367533 255 255 255
-27631.061 -14048.021 -33.284264 255 255 255
-995.64862 -2066.3257 -4.7755313 255 255 255
-103.42748 -648.31531 -2.0675728 255 255 255
623.54388 1052.2416 1.1402166 255 255 255
-569.08746 -630.36389 -1.858835 255 255 255
403.08865 500.99115 1.3565438 255 255 255
1466.1635 1613.5061 2.1886818 255 255 255
-547.53821 -813.45178 -3.4995711 255 255 255
14748.88 9288.248 18.669455 255 255 255
1881.5696 1468.5131 2.6175094 255 255 255
-231.83636 -199.24866 -1.2978524 255 255 255
577.68622 628.23541 1.0242323 255 255 255
696.83887 424.42798 1.3117357 255 255 255
786.28809 1421.7181 2.520123 255 255 255
-665.38013 -576.49231 -1.8734456 255 255 255
-585.19202 -1410.4247 -3.3440371 255 255 255
790.8064 774.8927 2.8925741 255 255 255
48.912834 212.25862 0.54696727 255 255 255
517.612 1172.4235 1.8747063 255 255 255
891.41772 553.30182 2.2737751 255 255 255
-454.66766 -607.73206 -1.7024105 255 255 255
-3286.3997 -3247.4504 -12.727195 255 255 255
-19657.734 -8412.3252 -22.716759 255 255 255
857.44592 713.12073 1.1390523 255 255 255
3195.1401 2292.9189 5.7168436 255 255 255
809.36896 776.76648 2.1405604 255 255 255
2482.4253 2739.3179 3.8608077 255 255 255
-632.53485 -477.021 -3.3546851 255 255 255
939.18518 1483.4884 2.7038336 255 255 255
-708.81915 -935.78772 -3.0396323 255 255 255
1463.3689 1488.6979 2.1302745 255 255 255
859.74335 1485.9125 2.6358914 255 255 255
-2736.0911 -6423.7832 -11.614182 255 255 255
827.9281 1073.2854 2.3177431 255 255 255
-955.98553 -1773.701 -3.7909145 255 255 255
710.99182 1280.5243 2.3428254 255 255 255
-512.37762 -860.04242 -2.4990449 255 255 255
-493.69318 -361.73273 -2.0008569 255 255 255
-787.24103 -923.42749 -3.5926692 255 255 255
-252.60497 -478.01108 -1.7718405 255 255 255
2124.2017 1524.6012 3.9796929 255 255 255
-10201.665 -15102.998 -28.689699 255 255 255
943.58826 528.6004 1.2962586 255 255 255
629.02356 379.00983 0.78607476 255 255 255
2167.7715 1586.6698 4.1428223 255 255 255
4871.2085 4653.1948 7.9941564 255 255 255
1917.2102 1451.0703 3.7308433 255 255 255
1082.6965 1562.2773 1.911097 255 255 255
-4659.668 -1754.3979 -10.747869 255 255 255
593.18402 603.62732 0.87010825 255 255 255
2326.4558 1505.4849 3.1788545 255 255 255
902.78552 1411.8733 1.5188644 255 255 255
11735.312 5462.5146 16.345516 255 255 255
771.88904 1044.361 2.2312088 255 255 255
-926.35962 -909.78351 -2.5894825 255 255 255
-233.15273 -169.85188 -1.3090062 255 255 255
-469.1427 -918.19696 -2.9333782 255 255 255
351.61743 93.616714 0.39982951 255 255 255
791.42419 763.52551 2.104151 255 255 255
-434.67294 -245.25311 -1.517805 255 255 255
764.80896 573.81683 1.0286316 255 255 255
-324.38342 -661.10059 -2.0591698 255 255 255
3749.0576 7973.6934 14.308638 255 255 255
777.49768 774.57422 2.0890231 255 255 255
901.70276 577.82117 1.2492745 255 255 255
1482.1434 1457.0514 2.5653226 255 255 255
1578.1326 2202.7903 2.772058 255 255 255
569.25983 1654.9414 2.5851212 255 255 255
790.48718 769.37286 2.1034503 255 255 255
-26426.297 -10750.908 -33.295429 255 255 255
444.28366 245.694 0.82959241 255 255 255
724.00897 1095.0137 2.3191128 255 255 255
4386.0234 4380.2217 7.3463421 255 255 255
1853.4338 1121.5795 2.3376107 255 255 255
1596.7874 1768.9592 2.7554543 255 255 255
594.19666 1670.5341 2.608784 255 255 255
-2223.3389 -3000.082 -9.9977503 255 255 255
27186.678 9704.0547 35.55545 255 255 255
-15953.474 -41271.617 -71.365334 255 255 255
-475.26331 -312.29111 -1.5515574 255 255 255
772.12042 723.08118 2.06112 255 255 255
-737.64728 -401.3389 -2.8606119 255 255 255
426.38681 1096.3066 1.95276 255 255 255
-3095.5911 -3432.9136 -7.5668702 255 255 255
1407.8726 1523.1691 2.476161 255 255 255
-218.57257 -476.35123 -1.8637289 255 255 255
3400.8494 1996.0977 8.5877113 255 255 255
-3409.292 -7255.7246 -13.359449 255 255 255
938.33319 1235.0177 1.5304515 255 255 255
2012.1504 1463.3304 3.8412862 255 255 255
3220.8491 2304.4155 5.7494936 255 255 255
3273.1045 3802.7695 5.7509346 255 255 255
-1057.2593 -697.06281 -2.7406676 255 255 255
-761.67572 -727.05853 -2.7859581 255 255 255
-1782.425 -5537.7329 -11.610378 255 255 255
582.39417 471.41003 0.87491816 255 255 255
839.1449 584.16315 2.1565263 255 255 255
913.00244 518.27771 1.1421802 255 255 255
37084.992 10403.258 51.551819 255 255 255
560.96454 530.05035 0.7810216 255 255 255
36114.609 10156.003 50.282703 255 255 255
-1404.9524 -1488.7314 -3.2066102 255 255 255
2157.686 1576.1342 4.2924814 255 255 255
1067.5463 1715.5511 2.1017354 255 255 255
1540.6143 1436.3756 2.0863969 255 255 255
2967.3005 2921.717 5.5074191 255 255 255
-290.98044 -571.34814 -1.8986568 255 255 255
1542.2648 1425.6835 2.4516337 255 255 255
-6654.0327 -11831.181 -33.866657 255 255 255
6125.1729 4589.5825 16.222702 255 255 255
24850.197 12416.915 29.994528 255 255 255
-668.2337 -911.49512 -3.0335076 255 255 255
-359.94919 -704.03912 -2.331579 255 255 255
-419.90738 -388.60413 -1.7762176 255 255 255
-795.9397 -426.06357 -2.0071661 255 255 255
482.69827 1597.452 2.4817708 255 255 255
-589.55994 -938.61621 -3.4829288 255 255 255
807.81561 1705.7632 2.7748835 255 255 255
-4378.5161 -1790.0028 -10.35703 255 255 255
539.49158 465.70285 0.78259271 255 255 255
1970.0525 1439.84 3.7863398 255 255 255
2437.4419 3608.3904 4.7587972 255 255 255
2363.1628 3513.9763 8.1825895 255 255 255
460.09085 869.8587 2.0760198 255 255 255
2791.7844 1201.9414 3.7991431 255 255 255
20232.227 11507.694 24.535738 255 255 255
782.64777 739.67444 2.0817132 255 255 255
6498.5776 5331.2896 9.6911755 255 255 255
85.21817 83.622299 0.11891011 255 255 255
-240.63913 -82.01268 -1.6686367 255 255 255
5841.0679 2000.8971 10.43818 255 255 255
427.94876 1000.8386 1.8560408 255 255 255
1186.1869 1696.2415 1.9458575 255 255 255
-1156.2472 -1050.3495 -2.4054222 255 255 255
-1098.4752 -1138.9431 -2.9860427 255 255 255
634.86407 707 1.8377275 255 255 255
27126.344 11585.771 33.389141 255 255 255
-1649.0696 -3820.543 -7.6991448 255 255 255
1209.4049 1503.9507 1.8605033 255 255 255
893.02454 984.08179 1.3445313 255 255 255
300.0083 1080.6747 1.8603981 255 255 255
303.26285 303.95996 1.0317823 255 255 255
-2452.9783 -3318.1545 -10.375739 255 255 255
2138.0088 2847.9495 4.0026855 255 255 255
877.9176 658.6106 2.2944348 255 255 255
-1825.8235 -4850.1592 -10.248184 255 255 255
-1588.6395 -1271.3947 -3.3793409 255 255 255
-480.08084 -503.58792 -1.7077547 255 255 255
1181.438 1195.3367 2.831764 255 255 255
451.52194 847.32281 1.7266629 255 255 255
-259.45602 -860.95685 -2.3304794 255 255 255
424.08099 562.28351 1.4347329 255 255 255
4307.1553 2806.4729 7.1547728 255 255 255
3323.7053 3779.4509 7.5017867 255 255 255
-604.9621 -391.9183 -1.9657035 255 255 255
565.02142 367.79718 0.78839195 255 255 255
906.70404 1194.6956 2.4754329 255 255 255
-630.71277 -1078.7716 -3.2582619 255 255 255
634.39569 944.32556 1.9994293 255 255 255
407.79416 548.06677 1.4003685 255 255 255
-521.08008 -643.7533 -2.321094 255 255 255
-100.63229 -301.2688 -1.4967854 255 255 255
12105.431 7980.5508 17.253916 255 255 255
1001.4982 1111.1443 1.4570444 255 255 255
-1002.2637 -1742.5881 -5.2496195 255 255 255
3824.6042 2429.7053 4.7961249 255 255 255
293.25098 358.79419 0.46930152 255 255 255
5800.0586 1986.7441 10.39052 255 255 255
893.43829 912.07269 1.2010359 255 255 255
6783.3652 4351.7695 10.079597 255 255 255
963.85748 361.02048 2.2018144 255 255 255
3218.5623 3029.7671 5.7899346 255 255 255
997.26025 2281.761 4.0286741 255 255 255
645.76733 1702.5032 2.678005 255 255 255
562.78986 1701.1071 2.7998402 255 255 255
1641.1929 1504.5697 2.2602553 255 255 255
-786.31256 -629.18616 -2.2682803 255 255 255
-805.31018 -485.44794 -2.0005388 255 255 255
-480.98248 -505.01266 -1.682642 255 255 255
1418.4204 1284.5958 2.2420604 255 255 255
-980.88025 -1200.285 -3.4508033 255 255 255
-674.80908 -460.72 -1.7877102 255 255 255
-360.81088 -976.94128 -2.5473516 255 255 255
-1052.2527 -701.25732 -2.6480677 255 255 255
18391.979 6535.9468 25.602816 255 255 255
5133.666 3743.5066 8.0998068 255 255 255
-481.13571 -324.29407 -1.6053801 255 255 255
-3803.2932 -2234.6567 -6.5604858 255 255 255
-8722.1836 -3203.2161 -10.036608 255 255 255
1688.208 1611.1702 2.3604646 255 255 255
60214.055 17771.672 78.041588 255 255 255
-190.46317 -855.35889 -2.3872583 255 255 255
6503.5933 4925.9722 9.6744413 255 255 255
718.01251 363.76971 0.97480482 255 255 255
832.87372 949.32367 1.295849 255 255 255
1889.9377 2076.4534 3.0366311 255 255 255
734.67828 354.23953 1.7671503 255 255 255
92.275719 240.33087 0.42271981 255 255 255
879.61053 1469.8027 2.6378229 255 255 255
-5173.1826 -2046.9624 -6.8055663 255 255 255
4249.7236 12648.136 19.891331 255 255 255
-541.09619 -365.71564 -1.6496733 255 255 255
-241.31091 -395.71484 -1.8557431 255 255 255
613.16718 599.38483 0.93999159 255 255 255
1317.991 1227.7206 1.9794221 255 255 255
-432.82703 -829.68622 -2.1037014 255 255 255
-333.73642 -429.26218 -1.5843077 255 255 255
-503.60638 -1073.5074 -2.9948635 255 255 255
1050.978 1389.3606 3.9258246 255 255 255
-93.509247 -639.4317 -2.0352864 255 255 255
42509.648 21996.24 47.643501 255 255 255
-393.24268 -565.64008 -2.345192 255 255 255
720.58008 1373.1243 2.4291577 255 255 255
74.716339 85.208923 0.12662429 255 255 255
1338.9738 1636.0688 2.2631903 255 255 255
401.88876 642.35901 1.7083288 255 255 255
425.95898 1170.0167 2.0264611 255 255 255
2437.2654 2105.0364 3.4845035 255 255 255
9038.0977 4073.0396 13.393097 255 255 255
9789.0791 21237.713 38.581604 255 255 255
450.4144 363.88855 0.57282138 255 255 255
-2258.022 -1236.651 -3.8375771 255 255 255
-964.07678 -2409.5068 -5.189661 255 255 255
11767.428 4433.7905 17.399105 255 255 255
832.92487 1025.4489 2.2961094 255 255 255
-844.69727 -1695.2487 -5.064568 255 255 255
717.47113 1767.0546 2.7721021 255 255 255
-250.12408 -388.0296 -1.996361 255 255 255
