ply
format ascii 1.0
comment PCL generated
element vertex 1110
property float x
property float y
property float z
property uchar red
property uchar green
property uchar blue
element face 0
element camera 0
property float view_px
property float view_py
property float view_pz
property float x_axisx
property float x_axisy
property float x_axisz
property float y_axisx
property float y_axisy
property float y_axisz
property float z_axisx
property float z_axisy
property float z_axisz
property float focal
property float scalex
property float scaley
property float centerx
property float centery
property int viewportx
property int viewporty
property float k1
property float k2
end_header
952.23932 1072.7629 2.4075456 255 255 255
171.93097 492.75577 0.76672769 255 255 255
1012.1746 963.64447 1.8793212 255 255 255
13939.228 18824.346 50.47216 255 255 255
3564.3105 9812.1523 15.085074 255 255 255
-395.69461 -496.71429 -2.1509953 255 255 255
-449.94766 -274.01654 -1.576238 255 255 255
-133.02106 -100.27262 -1.3437053 255 255 255
4784.6382 13304.3 38.802174 255 255 255
4297.9702 9825.5098 15.397547 255 255 255
271.75101 527.16071 0.87966067 255 255 255
-1752.8975 -866.27802 -6.9594402 255 255 255
311.21521 527.74396 1.2290678 255 255 255
2928.4446 1963.0096 7.6941276 255 255 255
205.94664 1239.5012 1.909964 255 255 255
-8312.0498 -6514.9175 -28.152702 255 255 255
1968.4484 4055.5718 7.781076 255 255 255
-7093.9087 -32277.086 -54.191265 255 255 255
354.64285 1820.5304 2.7593875 255 255 255
169.38037 727.5578 1.1868858 255 255 255
-257.06845 -150.8605 -1.3219476 255 255 255
291.25735 789.25989 1.4284714 255 255 255
-1601.5165 -3722.4636 -8.9602022 255 255 255
460.50577 506.45694 0.88771641 255 255 255
-372.63028 -241.57434 -1.4224982 255 255 255
-147.69284 -161.15242 -1.3825461 255 255 255
1185.588 528.56775 2.4691226 255 255 255
5928.3037 1450.6447 6.4048319 255 255 255
-2296.0679 -3714.9099 -7.6741929 255 255 255
630.27539 654.42377 1.4527463 255 255 255
111.19976 497.55481 0.71866119 255 255 255
-650.91211 -1509.1675 -3.8416595 255 255 255
275.69409 337.93683 0.34421059 255 255 255
6154.5244 1397.2798 6.8164496 255 255 255
424.01031 352.10574 1.1160086 255 255 255
1620.5925 2192.7146 4.7563934 255 255 255
541.11963 1781.5065 2.8035412 255 255 255
-816.1861 -598.53522 -3.4595189 255 255 255
2887.1416 2409.5242 6.0843759 255 255 255
2548.4175 12374.28 27.850552 255 255 255
483.11047 346.87857 1.2386897 255 255 255
847.58289 616.65808 1.785603 255 255 255
1394.4176 822.77271 2.4909265 255 255 255
1415.0389 9407.7568 13.501958 255 255 255
963.12268 458.05267 2.1221027 255 255 255
466.98474 1073.2947 1.4910902 255 255 255
1245.6063 597.50098 2.4882379 255 255 255
1989.6273 2866.4075 5.9084125 255 255 255
503.58054 1048.5884 2.4919772 255 255 255
-5954.0815 -3252.9709 -13.860443 255 255 255
816.56812 1750.2683 2.9459896 255 255 255
596.61243 654.30884 1.4096361 255 255 255
155.32417 489.89282 0.79679698 255 255 255
639.20355 875.30426 1.4669712 255 255 255
-457.47626 -714.45093 -2.3873389 255 255 255
221.81146 507.72897 1.0772909 255 255 255
751.03046 402.51501 1.7510486 255 255 255
336.7265 628.67438 1.0701141 255 255 255
420.73746 588.31323 0.85174817 255 255 255
561.09589 1143.507 1.5998234 255 255 255
-339.52094 -783.60138 -2.2710366 255 255 255
613.94666 856.85468 1.5381516 255 255 255
310.75052 393.97543 0.93608177 255 255 255
3919.1357 1915.9221 3.9322469 255 255 255
910.78033 4097.6807 5.3889027 255 255 255
395.97644 688.22717 1.1354525 255 255 255
391.92142 789.76813 1.2619929 255 255 255
3290.1243 2770.3691 9.4757919 255 255 255
778.13855 2180.832 3.0444386 255 255 255
643.08417 559.54102 1.4770832 255 255 255
289.12775 1690.4431 2.1771576 255 255 255
-998.98688 -1783.8975 -3.7902627 255 255 255
167.01541 502.08127 0.67635399 255 255 255
370.70645 725.72278 1.1666276 255 255 255
178169.75 397983.31 814.74207 255 255 255
-593.17645 -482.052 -2.8746684 255 255 255
677.74536 547.86182 1.5348539 255 255 255
463.46341 284.9267 1.2287678 255 255 255
248.07195 478.698 0.90542269 255 255 255
5288.4678 5386.4717 15.151902 255 255 255
170.47385 548.15186 1.0411134 255 255 255
598.39819 578.05994 1.1483383 255 255 255
422.49762 625.09253 1.9062648 255 255 255
993.35004 1376.785 2.9304419 255 255 255
-5335.373 -8689.8379 -20.355881 255 255 255
990.61249 4496.6504 6.850554 255 255 255
466.68723 991.20801 1.352114 255 255 255
599.21826 2324.8552 3.7691305 255 255 255
680.01324 574.53394 1.5324116 255 255 255
-1054.0127 -1613.174 -3.585278 255 255 255
967.83978 541.37909 2.1603367 255 255 255
-540.20856 -1293.6149 -3.0013454 255 255 255
304.72113 389.78845 0.9260999 255 255 255
814.88202 557.9472 1.7606632 255 255 255
350.90106 268.55078 0.70147389 255 255 255
25698.439 49092.512 113.1573 255 255 255
-2180.3076 -8507.7871 -14.551839 255 255 255
2846.8684 10170.874 15.783523 255 255 255
221.74242 545.39142 0.93101138 255 255 255
927.32782 1198.9613 2.8051512 255 255 255
1372.4098 3307.7285 7.34477 255 255 255
386.88208 1769.0168 2.8337581 255 255 255
820.8819 1308.5569 2.1499918 255 255 255
-642.93805 -703.22583 -1.8902647 255 255 255
1732.2003 1475.384 4.4761152 255 255 255
-2491.7336 -5499.5562 -9.2695961 255 255 255
-21762.082 -14832.199 -47.286087 255 255 255
792.77356 800.71735 1.8238662 255 255 255
-8698.3926 -20757.113 -46.033463 255 255 255
841.34772 927.07623 1.7103113 255 255 255
809.52521 549.50659 1.7554628 255 255 255
-2167.9109 -3002.7473 -7.3540463 255 255 255
392.72217 1845.8075 2.8634517 255 255 255
1082.9536 2923.7434 4.7538357 255 255 255
-1080.1926 -1773.0945 -4.737617 255 255 255
-1085.1436 -960.10748 -2.4090052 255 255 255
28390.988 114735.08 186.23656 255 255 255
-2765.3796 -2881.3857 -9.0772305 255 255 255
-642.22717 -238.38486 -2.8224256 255 255 255
1046.4697 1139.0508 2.6520905 255 255 255
-964.54785 -545.12994 -3.5202193 255 255 255
305.96707 980.5235 1.4878793 255 255 255
526.05414 773.49286 1.1393993 255 255 255
642.11066 1052.851 1.6847192 255 255 255
-112.35172 -121.96654 -1.3207525 255 255 255
14990.25 8604.6221 16.266842 255 255 255
651.01794 584.9386 1.4859213 255 255 255
432.42484 676.45984 1.1732637 255 255 255
348.88638 1711.7224 2.7170002 255 255 255
-184.01283 -128.04634 -1.6102417 255 255 255
299.00885 304.11627 0.36444455 255 255 255
448.34433 430.93304 1.4505049 255 255 255
-1257.5629 -2405.2512 -6.2376862 255 255 255
4296.2007 4549.9463 12.783601 255 255 255
829.77856 184.16832 1.7824001 255 255 255
2027.6888 4125.3911 8.7571678 255 255 255
2751.3579 1073.9486 2.5650511 255 255 255
376.25662 702.15424 1.2550244 255 255 255
742.99683 1853.996 3.1708703 255 255 255
228.24892 936.57483 1.4940885 255 255 255
-655.1062 -1083.0144 -3.4845409 255 255 255
791.49902 732.39172 1.6658982 255 255 255
751.39832 381.14099 1.7758665 255 255 255
819.38818 2172.2561 3.0285792 255 255 255
1264.3844 5568.707 8.7622385 255 255 255
1167.459 2100.4512 3.3705335 255 255 255
985.50354 1299.4047 3.4555457 255 255 255
371.86661 88.070267 0.42721415 255 255 255
520.59009 1235.6107 1.8629867 255 255 255
1336.5101 1073.6101 2.2579963 255 255 255
911.5921 1141.271 2.3387728 255 255 255
207.4926 437.16779 0.62291229 255 255 255
2696.1182 2795.4014 6.8917632 255 255 255
1283.7443 2132.8262 4.0808806 255 255 255
1173.8401 2428.1501 4.0502486 255 255 255
804.59442 625.60553 1.7122214 255 255 255
249.28461 474.92004 0.80032843 255 255 255
-837.94391 -1120.6659 -2.3320374 255 255 255
1339.6677 6821.564 11.202802 255 255 255
614.78082 662.62195 1.4336319 255 255 255
1702.416 792.98102 2.996213 255 255 255
-8511.0977 -9287.9326 -27.704088 255 255 255
977.75433 1675.1362 3.0315876 255 255 255
590.43567 1121.8219 1.4956421 255 255 255
-3401.5037 -5930.3452 -11.097654 255 255 255
-97.126099 -44.449162 -1.2202233 255 255 255
-773.72931 -1181.3988 -3.1680174 255 255 255
752.40717 709.59894 1.606683 255 255 255
234.92325 477.616 0.75353718 255 255 255
960.57312 952.8656 1.823923 255 255 255
-584.0108 -389.69006 -2.6981409 255 255 255
931.04236 1189.777 2.4246666 255 255 255
349.3512 291.43207 0.97719485 255 255 255
757.31903 1408.0338 2.3944252 255 255 255
-327.4541 -119.48702 -1.4177616 255 255 255
203.42329 466.63361 0.69660246 255 255 255
-1699.6562 -5420.7646 -11.301766 255 255 255
1201.2916 1922.7173 3.6589923 255 255 255
173.11911 689.38208 1.1944344 255 255 255
647.11926 525.36078 1.5312662 255 255 255
425.08521 1226.5742 2.2208035 255 255 255
1413.3417 3547.5679 6.052917 255 255 255
160.80917 587.60913 0.96163976 255 255 255
-2423.4502 -2279.981 -8.1888018 255 255 255
296.53934 524.21124 0.98820978 255 255 255
5890.5405 1418.8522 6.4978571 255 255 255
371.86548 313.90945 1.0190729 255 255 255
483.32053 596.31647 1.6246833 255 255 255
288.13461 497.00403 0.82608277 255 255 255
1929.4197 1607.9393 4.393549 255 255 255
2236.9175 2641.3154 6.7842555 255 255 255
556.36273 1992.0431 3.5334408 255 255 255
202.22429 566.62262 1.0787491 255 255 255
1356.9822 6028.5366 9.4827461 255 255 255
-1108.286 -682.89771 -2.4112694 255 255 255
419.15515 969.79016 1.9066435 255 255 255
-474.26889 -540.21857 -2.260083 255 255 255
227.23663 514.63245 0.80780202 255 255 255
-1096.4307 -1782.6699 -3.8390632 255 255 255
390.70538 1901.374 2.9309537 255 255 255
200.70941 887.0993 1.6128051 255 255 255
3737.678 7107.3652 13.40092 255 255 255
-159.68462 -313.07141 -1.4946349 255 255 255
-459.08374 -612.17725 -3.7781892 255 255 255
-625.10529 -394.56235 -2.6200705 255 255 255
576.64172 512.0965 0.63904274 255 255 255
886.09509 3042.0522 6.6028533 255 255 255
1338.8705 2483.356 4.0518227 255 255 255
724.20868 699.83545 2.1669669 255 255 255
-249.37558 -475.03311 -2.1030891 255 255 255
616.20227 595.78961 1.4341651 255 255 255
-216.24306 -294.63235 -1.5282642 255 255 255
622.58075 617.90771 1.2724843 255 255 255
1176.072 789.41052 2.1903088 255 255 255
-634.42444 -826.72455 -3.055182 255 255 255
952.88763 8166.5107 13.195357 255 255 255
706.85089 614.82227 0.85465831 255 255 255
2332.3682 769.76825 6.0068183 255 255 255
-675 -896.48865 -2.4048028 255 255 255
3938.2195 4418.2075 10.27339 255 255 255
-2003.7305 -3572.3042 -12.070939 255 255 255
1044.474 1286.9601 2.6667185 255 255 255
498.28738 726.94092 1.2905837 255 255 255
44663.777 41904.613 122.91086 255 255 255
-2694.231 -8462.9395 -19.170593 255 255 255
444.25928 798.18665 2.0812035 255 255 255
146.60214 627.37012 1.0987946 255 255 255
1090.1509 620.82684 2.1885686 255 255 255
747.5722 650.00934 1.6188862 255 255 255
512.52991 641.26666 1.2894931 255 255 255
146.22617 477.79355 0.66642421 255 255 255
216.44066 450.08667 0.85355079 255 255 255
234.72961 454.9877 0.8712042 255 255 255
484.88782 1277.8256 2.3480895 255 255 255
421.99377 1087.3705 1.9205076 255 255 255
-403.75754 -490.44208 -2.1554441 255 255 255
1075.1776 702.73895 2.0941784 255 255 255
-2442.2485 -6732.854 -14.05024 255 255 255
431.40143 702.74469 1.2120718 255 255 255
-1351.9264 -1376.2421 -3.4957993 255 255 255
1229.7384 2097.2429 3.9567058 255 255 255
4681.1377 1958.0865 4.4006958 255 255 255
1669.1143 4293.9106 8.2305889 255 255 255
595.33783 804.59137 1.4156783 255 255 255
204.25485 495.52505 0.90562433 255 255 255
638.73877 1120.9783 1.762866 255 255 255
-2228.4758 -9835.6807 -17.225319 255 255 255
585.46985 557.68579 1.3891677 255 255 255
598.61487 659.91846 1.7897162 255 255 255
447.00336 1085.8883 1.941094 255 255 255
627.99469 663.01215 1.4507209 255 255 255
-2652.7451 -2746.9026 -6.1542025 255 255 255
6217.9106 11332.162 26.923172 255 255 255
172.30417 514.23291 0.89597034 255 255 255
-3082.8313 -7939.8022 -14.191816 255 255 255
3620.3042 1733.5823 3.9309747 255 255 255
446.62439 556.03772 1.0669143 255 255 255
552.14099 3502.2241 5.531507 255 255 255
2632.7983 6050.2285 11.474176 255 255 255
-391.32339 -575.62854 -2.2181647 255 255 255
1170.3794 1565.9883 1.7056406 255 255 255
235.44637 452.83978 0.87472463 255 255 255
632.92993 561.14111 1.4609104 255 255 255
-5224.5674 -22622.225 -36.993011 255 255 255
2357.8862 3032.729 5.6580391 255 255 255
1643.567 1833.1122 5.1426377 255 255 255
240.29733 453.88629 0.88058031 255 255 255
772.40424 1134.1831 2.0376756 255 255 255
224.35304 443.31238 0.85736525 255 255 255
458.38879 300.87262 0.48349723 255 255 255
884.85114 816.77972 1.6938505 255 255 255
443.4845 2023.8838 3.541153 255 255 255
1170.5216 1680.1434 3.0216587 255 255 255
-2619.8906 -3316.1541 -6.103035 255 255 255
1052.8688 1552.4991 2.7414467 255 255 255
845.41357 852.23914 1.7049917 255 255 255
1399.4963 4386.3706 8.2561283 255 255 255
786.10175 671.43585 1.3820018 255 255 255
1294.3306 1755.8665 3.756351 255 255 255
869.56653 1202.8014 2.253793 255 255 255
667.59723 1158.6609 1.971426 255 255 255
541.85736 426.89929 1.3364387 255 255 255
787.28937 611.94177 1.6900554 255 255 255
1863.0432 1969.8967 4.5146933 255 255 255
358.85611 1213.4126 1.8244712 255 255 255
697.2337 568.30975 1.5606852 255 255 255
926.56769 2166.7114 2.8533752 255 255 255
18171.201 34634.258 79.872612 255 255 255
221.91777 383.1424 0.54684502 255 255 255
339.65616 609.39069 1.077801 255 255 255
551.3465 821.76764 0.83097893 255 255 255
-2600.5959 -5349.5259 -9.8935013 255 255 255
1418.4965 5139.3301 6.9415684 255 255 255
1116.152 1263.3213 1.499083 255 255 255
-1301.2316 -2006.0049 -5.5447416 255 255 255
485.9671 863.22467 2.0749404 255 255 255
1271.4436 1439.5839 1.5668664 255 255 255
1100.9307 1689.3451 2.9990478 255 255 255
938.72784 1971.8268 4.4347372 255 255 255
-449.02515 -263.19543 -1.5068129 255 255 255
-1723.2874 -2821.1919 -7.8835616 255 255 255
776.10138 724.19318 1.6462297 255 255 255
630.51392 1490.5417 2.2849083 255 255 255
238.58487 533.4856 0.88968045 255 255 255
1527.8983 2751.4592 6.5896997 255 255 255
866.35895 766.98187 1.7595758 255 255 255
-28872.738 -15875.671 -30.694136 255 255 255
315.31979 554.37079 0.81437671 255 255 255
3623.7532 6676.251 9.7694082 255 255 255
8244.9834 2029.9686 9.1355925 255 255 255
130.98087 424.64825 0.54593772 255 255 255
-541.9458 -311.87015 -2.4544649 255 255 255
4184.5664 1893.2137 4.1597481 255 255 255
1465.6422 2625.8779 4.8066082 255 255 255
175.3192 288.51898 0.4487865 255 255 255
231.99632 357.49872 0.84926409 255 255 255
1583.3799 4170.3345 6.5125842 255 255 255
371.16708 726.25482 1.1676893 255 255 255
-6204.2505 -3424.5708 -8.9333792 255 255 255
1943.6827 3028.8801 6.0038018 255 255 255
639.88269 1099.6161 1.8120277 255 255 255
-5558.1318 -11239.918 -28.263987 255 255 255
242.80502 451.78043 0.83879173 255 255 255
-4365.2695 -5078.2891 -11.172529 255 255 255
3937.8103 2089.2551 3.7624016 255 255 255
-1265.191 -803.66949 -2.959672 255 255 255
-5183.2134 -5449.5225 -11.522984 255 255 255
-2982.1948 -3863.2031 -10.024286 255 255 255
900.14062 1106.8533 2.0099123 255 255 255
705.06409 2237.7419 3.954118 255 255 255
-2263.8728 -2729.1511 -8.3921909 255 255 255
699.95209 668.69489 2.1616855 255 255 255
-432.52954 -752.79413 -2.471082 255 255 255
-707.14258 -189.10899 -1.8581485 255 255 255
831.02252 515.77368 1.8165125 255 255 255
-34535.82 -23136.84 -43.146297 255 255 255
625.71338 1197.5798 1.7382967 255 255 255
1028.457 1367.1624 2.4427428 255 255 255
-355.14285 -555.8139 -1.9337405 255 255 255
1090.3151 3361.8865 5.1020226 255 255 255
1095.0516 2390.438 4.795085 255 255 255
867.87073 1172.6235 3.1710491 255 255 255
4809.1606 2270.4797 12.204407 255 255 255
1681.7546 2613.9768 6.4390516 255 255 255
6142.709 1395.4011 6.8019705 255 255 255
3624.9788 1735.3872 3.9371569 255 255 255
684.60754 890.82037 1.5210711 255 255 255
354.86655 691.75629 1.1773614 255 255 255
628.70966 616.07178 1.4514996 255 255 255
792.99365 755.48438 1.6642761 255 255 255
868.28925 2161.0386 3.3042555 255 255 255
47510.961 165270.06 257.4682 255 255 255
282.79913 509.51465 0.85591751 255 255 255
299.31927 583.79852 1.0745244 255 255 255
1975.788 1477.6981 2.7058475 255 255 255
227.35287 518.71997 0.91575962 255 255 255
584.77673 1628.1533 2.625596 255 255 255
622.06049 1043.7195 2.1385534 255 255 255
812.81152 1186.1436 2.1120691 255 255 255
-203.00876 -147.45731 -1.2445818 255 255 255
1723.1262 1875.7817 3.7355704 255 255 255
-1146.7416 -4178.625 -7.5129747 255 255 255
9151.3281 9385.9277 16.030029 255 255 255
224.33725 442.70129 0.85672963 255 255 255
725.84607 1122.0593 1.7382568 255 255 255
665.54602 553.5752 1.5138718 255 255 255
355.77817 737.92438 1.1785656 255 255 255
516.09906 379.50723 1.2925476 255 255 255
379.81671 616.93536 0.99254763 255 255 255
370.46643 828.99915 1.2886144 255 255 255
542.08344 3698.1257 5.5428467 255 255 255
314.28928 2289.0139 3.3693976 255 255 255
462.62299 773.17151 1.2786226 255 255 255
182.47118 406.14081 1.2467233 255 255 255
1005.4212 1921.6086 6.3966317 255 255 255
-950.74213 -1037.2719 -2.3844001 255 255 255
-445.68362 -2194.3755 -4.2822604 255 255 255
126.22482 204.83647 0.38736942 255 255 255
149.59723 459.11862 0.72586107 255 255 255
116.53442 534.15979 0.85368282 255 255 255
3863.344 8213.6641 16.27268 255 255 255
1492.9871 7356.2646 10.952488 255 255 255
744.24841 2800.1531 4.9814386 255 255 255
924.4527 658.61334 2.2552178 255 255 255
933.34155 1579.5317 2.7147892 255 255 255
-259.36633 -401.8613 -1.8896188 255 255 255
-45.785755 -145.52019 -1.4686434 255 255 255
-419.94507 -400.22733 -2.2823842 255 255 255
594.96582 804.98346 1.4153464 255 255 255
458.79062 1300.6898 2.0123205 255 255 255
-160.95743 -106.34264 -1.6769876 255 255 255
270.43774 424.80637 0.69725144 255 255 255
5685.0513 9730.4541 16.125099 255 255 255
511.17386 839.80902 1.433079 255 255 255
770.40387 953.40729 3.0288897 255 255 255
374.90668 657.05164 1.1384832 255 255 255
2961.6577 5748.5088 11.05681 255 255 255
159.75934 168.62151 0.45465237 255 255 255
234.42319 465.89093 0.85629845 255 255 255
310.06635 393.21616 0.93437088 255 255 255
-540.22888 -1252.2982 -3.0981026 255 255 255
4160.6934 1887.7795 4.1429195 255 255 255
388.97501 940.04095 2.2617097 255 255 255
-16106.555 -69832.5 -112.99011 255 255 255
484.30844 347.52023 1.2411777 255 255 255
1739.5425 1179.4106 2.6561184 255 255 255
391.39191 362.7562 0.49492621 255 255 255
248.75761 211.42674 0.74918246 255 255 255
747.26898 649.17987 1.6181674 255 255 255
1517.9436 883.38043 2.6263421 255 255 255
1244.4108 2116.2256 3.4251964 255 255 255
-16582.566 -91261.422 -143.2061 255 255 255
-887.29224 -512.23108 -3.4047322 255 255 255
-810.72406 -567.92981 -2.1430595 255 255 255
576.05737 1035.2509 2.695178 255 255 255
3954.7981 8941.3721 16.060934 255 255 255
248.50368 210.96358 0.74777544 255 255 255
1236.0702 541.51636 2.6846895 255 255 255
1858.2548 5745.3628 7.7797298 255 255 255
2046.7358 10426.826 18.245876 255 255 255
1557.5364 1499.0721 4.7100463 255 255 255
1589.1246 2666.2053 5.2810373 255 255 255
964.8963 458.48615 2.126384 255 255 255
857.81427 1420.7157 2.4181712 255 255 255
1370.327 4873.5068 6.4998822 255 255 255
3528.2175 2126.2793 3.4490921 255 255 255
138.9734 466.3378 0.80486292 255 255 255
1093.3887 643.92719 2.1715107 255 255 255
297.08432 329.27429 0.85345721 255 255 255
-9192.1318 -8489.3516 -26.026344 255 255 255
-539.56879 -979.99811 -2.6864088 255 255 255
2605.7358 1805.2557 5.7254829 255 255 255
-682.72241 -611.77246 -1.9717543 255 255 255
-549.11646 -717.9856 -2.3273935 255 255 255
76.473282 138.28444 0.34064263 255 255 255
767.60022 1001.0516 2.6518824 255 255 255
-8351.834 -20581.773 -39.679176 255 255 255
-2733.2583 -2888.8284 -7.9432001 255 255 255
1765.8055 2010.8204 5.0439143 255 255 255
138.16302 237.21065 0.57820719 255 255 255
567.32129 700.19812 1.8700603 255 255 255
481.42188 820.33466 2.2062659 255 255 255
-178.55876 -280.9371 -1.4481704 255 255 255
1493.323 3335.406 5.9589305 255 255 255
750.16125 380.71048 1.77356 255 255 255
169.7027 375.50705 0.53501904 255 255 255
236.3102 462.29681 0.88259369 255 255 255
289.19434 1357.8414 2.1068215 255 255 255
494.03046 956.04541 1.3586591 255 255 255
2254.8638 2539.9299 3.1692502 255 255 255
-4382.6724 -4134.3594 -11.847898 255 255 255
53304.867 32105.67 121.72338 255 255 255
216.92883 450.84021 0.85539824 255 255 255
153.60663 549.99384 0.98303211 255 255 255
103.10387 739.55646 1.1441119 255 255 255
466.95511 991.49078 1.3540239 255 255 255
455.08585 983.85541 1.3406068 255 255 255
734.6673 375.02762 1.7466837 255 255 255
313.40729 651.28302 1.2757223 255 255 255
-2868.8047 -2190.2917 -9.1852474 255 255 255
589.24408 689.74316 1.2265381 255 255 255
-1759.1251 -13391.332 -21.6973 255 255 255
-5592.8994 -20674.326 -32.880615 255 255 255
656.44061 585.23041 1.4943494 255 255 255
762.99561 1239.1517 2.0713758 255 255 255
1555.0066 2330.8081 7.0023823 255 255 255
-4834.0796 -2678.2573 -11.165568 255 255 255
310.58344 389.0451 0.9333753 255 255 255
1872.2236 5257.8838 7.4937968 255 255 255
965.34753 957.79547 1.8288391 255 255 255
-1039.7296 -3561.7446 -6.7143388 255 255 255
-2263.3022 -4292.7178 -8.9894714 255 255 255
266.45935 564.6662 0.9848575 255 255 255
-1888.6506 -2322.627 -4.13205 255 255 255
-219.10033 -186.89381 -1.471043 255 255 255
-999.10492 -4989.0938 -8.5733442 255 255 255
637.84979 876.01782 1.4678482 255 255 255
4692.0449 1957.6042 4.4110365 255 255 255
248.52568 478.83643 0.90598631 255 255 255
2137.1765 2881.1924 8.5455294 255 255 255
1101.563 3363.5466 6.0433307 255 255 255
-1471.7563 -2216.3269 -5.7663422 255 255 255
1312.4459 4164.666 8.9200201 255 255 255
391.08795 328.60464 1.0535116 255 255 255
4681.4819 1956.3647 4.3989487 255 255 255
-2713.6782 -14539.436 -22.596241 255 255 255
370.95514 335.51422 0.90699935 255 255 255
3952.97 1944.3922 3.9265606 255 255 255
-334.15195 -1667.7671 -3.3721428 255 255 255
305.82245 576.87292 1.1695012 255 255 255
694.85626 612.46533 1.5470736 255 255 255
688.91705 1325.1749 3.1066012 255 255 255
954.83655 959.29871 1.8245363 255 255 255
-159.60423 -313.02942 -1.4946393 255 255 255
277.29227 535.06146 0.89591944 255 255 255
995.42834 1095.696 2.1095533 255 255 255
251.43567 200.61369 0.75095296 255 255 255
-655.90222 -2104.364 -4.6154718 255 255 255
5782.5605 9636.6562 22.61721 255 255 255
-590.29736 -578.60101 -1.7893502 255 255 255
-2141.8079 -9421.1016 -16.504831 255 255 255
-358.67169 -125.67357 -2.0503838 255 255 255
696.63336 549.45233 1.5653141 255 255 255
-835.62335 -574.87897 -3.2746174 255 255 255
-381.84717 -1393.4225 -3.1034131 255 255 255
404.8797 378.69821 0.57910663 255 255 255
-16248.969 -14529.865 -46.29044 255 255 255
497.509 988.44684 2.1675406 255 255 255
586.25378 709.95868 1.3720384 255 255 255
-820.14734 -362.99719 -2.9528167 255 255 255
809.91174 3112.9707 4.652113 255 255 255
383.04922 671.83624 1.1543154 255 255 255
3567.5615 5893.1982 12.325689 255 255 255
750.90778 412.28806 1.7391703 255 255 255
337.25668 1641.89 2.371372 255 255 255
479.0929 700.78296 1.845389 255 255 255
-1414.8121 -6074.5908 -10.165809 255 255 255
798.78351 1112.1597 1.6584063 255 255 255
-3290.49 -12310.568 -20.325087 255 255 255
-1179.0543 -518.22748 -2.4988835 255 255 255
198.64107 483.16946 0.86260092 255 255 255
-2949.6191 -2899.3398 -5.0630922 255 255 255
850.16321 2687.1243 4.5101972 255 255 255
284.69882 563.78809 1.0021003 255 255 255
-2219.6262 -3717.5432 -6.7092791 255 255 255
-626.53455 -1399.9954 -3.2595348 255 255 255
1703.1714 793.16577 2.9984255 255 255 255
856.18109 650.78656 1.7808053 255 255 255
722.12067 627.87592 1.5867168 255 255 255
1875.5461 828.04742 4.415029 255 255 255
312.99631 739.06964 1.6747875 255 255 255
894.75232 399.89185 1.0200626 255 255 255
-1439.53 -1809.9705 -7.4183645 255 255 255
-817.3576 -1044.7477 -3.8383698 255 255 255
409.3317 1988.4144 3.1863041 255 255 255
243.02986 600.96997 1.0809261 255 255 255
848.69342 928.51715 1.7177407 255 255 255
1213.959 1654.3383 3.8685982 255 255 255
1013.0635 973.74207 1.8865578 255 255 255
1861.8828 3314.9492 6.882174 255 255 255
-277.26013 -445.53873 -2.000668 255 255 255
1234.526 590.52747 2.4757516 255 255 255
214.72012 546.99994 0.97109962 255 255 255
-10721.516 -8973.5762 -30.853352 255 255 255
5955.918 1448.6184 6.5725899 255 255 255
285.53589 830.1806 1.1588092 255 255 255
-319.13626 -326.92401 -1.8832682 255 255 255
27630.906 20051.574 71.422501 255 255 255
-337.65689 -1482.8812 -3.3817251 255 255 255
721.89557 1540.6243 3.4060988 255 255 255
787.68811 1501.7914 2.9392493 255 255 255
-469.96628 -273.37317 -2.0483413 255 255 255
480.26859 727.59332 1.2715552 255 255 255
27332.234 87345.852 135.23761 255 255 255
-1526.0183 -2832.8699 -6.2773933 255 255 255
807.9754 549.17163 1.7528603 255 255 255
639.94952 940.74847 1.6716051 255 255 255
1797.1682 2486.874 6.4287996 255 255 255
990.28906 1117.3331 2.8169806 255 255 255
-3362.697 -4273.9141 -12.452005 255 255 255
215.70753 370.56445 0.75727427 255 255 255
236.73639 474.82187 0.89961064 255 255 255
976.47235 1178.8732 2.7337372 255 255 255
-199.2608 -225.68591 -1.5347478 255 255 255
1629.1215 1502.4713 4.030683 255 255 255
323.74304 321.9122 0.92943859 255 255 255
7661.3296 3705.5759 8.2826996 255 255 255
-883.32111 -907.46112 -2.6375196 255 255 255
1021.7914 1477.3794 1.3951874 255 255 255
1063.5635 1440.7954 2.6078899 255 255 255
397.25369 1412.7281 2.2349367 255 255 255
2028.0073 3551.5642 8.9655056 255 255 255
497.32364 2840.2329 4.3175645 255 255 255
263.9122 490.83914 0.93193388 255 255 255
644.14594 526.60315 0.71563941 255 255 255
640.53906 876.21436 1.4690176 255 255 255
-215.5778 -312.9628 -1.5415401 255 255 255
-24292.541 -34157.766 -68.919456 255 255 255
288.40817 343.39572 0.8760621 255 255 255
243.54259 476.70331 0.89929104 255 255 255
-2217.9163 -1865.733 -3.8148625 255 255 255
790.03772 1176.3492 1.9681306 255 255 255
-649.44647 -702.73627 -2.9117353 255 255 255
-1254.5393 -1563.5658 -2.9013641 255 255 255
301.14087 531.73969 0.99654013 255 255 255
-595.14996 -1008.3419 -2.6313591 255 255 255
354.87012 759.93994 1.4968263 255 255 255
910.74072 2535.3618 4.6988668 255 255 255
158.50836 769.89014 1.2754505 255 255 255
1912.6458 3384.4194 8.2626286 255 255 255
1816.4647 1199.0482 4.3755479 255 255 255
-506.992 -370.80588 -2.7488906 255 255 255
318.85483 244.40599 0.90672481 255 255 255
-127.94034 -128.9285 -1.3910315 255 255 255
873.86017 1347.1708 3.0394349 255 255 255
332.87378 228.56575 0.82252884 255 255 255
3066.9788 2698.2988 8.5854425 255 255 255
-7157.9448 -6379.9766 -19.661591 255 255 255
1001.7116 1112.8186 2.2372112 255 255 255
230.41734 444.69568 0.86368871 255 255 255
830.8219 628.01111 1.7524698 255 255 255
210.70752 436.10086 0.67365438 255 255 255
-71.509682 -327.60855 -1.6630883 255 255 255
564.88965 1017.4602 2.0057464 255 255 255
-173.38234 -294.6539 -1.4429885 255 255 255
866.40247 606.75201 1.8200613 255 255 255
1220.524 2345.1711 3.8554957 255 255 255
499.83325 982.52118 1.3714832 255 255 255
1012.176 1440.2216 2.4999192 255 255 255
-8266.2305 -16980.055 -34.347279 255 255 255
598.61438 651.84021 0.79928476 255 255 255
-967.3576 -905.50476 -5.3231745 255 255 255
1531.4847 2701.324 5.8351326 255 255 255
-2437.9905 -1883.3483 -4.189126 255 255 255
-6580.0537 -10400.559 -24.995882 255 255 255
-3765.4924 -5420.8115 -13.81888 255 255 255
645.33752 843.89966 2.3327935 255 255 255
253.33246 198.57913 0.75442153 255 255 255
3843.3076 1961.0519 3.8249121 255 255 255
619.27649 1025.3363 1.4940854 255 255 255
1058.3448 7866.8369 13.132615 255 255 255
663.9458 1627.5302 2.5845857 255 255 255
-171.47223 -33.776012 -1.2155013 255 255 255
851.90649 2175.5974 3.0114973 255 255 255
1795.1414 2113.5735 5.7265286 255 255 255
8747.0654 8932.4199 15.785841 255 255 255
447.85059 658.26678 1.2208855 255 255 255
-735.23621 -927.85059 -3.3040004 255 255 255
-473.16757 -1664.9651 -4.9551344 255 255 255
-821.10736 -1749.9854 -3.5909426 255 255 255
996.36572 1233.0593 2.2926877 255 255 255
490.52484 820.52063 2.0131543 255 255 255
856.00092 5597.9785 8.1922255 255 255 255
-1475.8969 -2838.5569 -6.296237 255 255 255
461.87726 606.60181 0.6587038 255 255 255
968.19781 930.25629 1.8363395 255 255 255
1724.6088 1290.7017 2.5719154 255 255 255
584.48492 640.27307 1.7369291 255 255 255
-707.40179 -1776.0205 -4.9538226 255 255 255
375.01443 662.89825 1.4237288 255 255 255
503.31284 639.24371 1.54207 255 255 255
595.77338 809.91388 1.415417 255 255 255
-2824.4783 -5561.0103 -9.8211803 255 255 255
485.98087 776.2901 1.2935688 255 255 255
3477.2078 2105.8149 3.4280183 255 255 255
50640.09 115281.7 258.40289 255 255 255
359.71033 855.67328 1.6769854 255 255 255
794.24402 548.3573 1.5550467 255 255 255
-389.59625 -267.20059 -2.0212865 255 255 255
2177.2512 1690.2375 2.5192242 255 255 255
-1134.6053 -751.39728 -2.4737723 255 255 255
1176.3245 789.09668 2.1905611 255 255 255
9224.1475 11056.83 31.007095 255 255 255
414.43973 896.09448 1.2873375 255 255 255
799.79456 1203.7576 2.0861232 255 255 255
642.55493 763.84839 0.7623747 255 255 255
326.25284 789.98175 1.5145259 255 255 255
875.93079 623.51276 1.827605 255 255 255
-5207.3721 -8792.3867 -21.955635 255 255 255
81.958107 275.64386 0.44281942 255 255 255
731.1535 544.75055 0.82756591 255 255 255
25808.254 49311.113 113.64179 255 255 255
276.86179 191.73271 0.31175137 255 255 255
2167.3718 6883.6641 13.017523 255 255 255
1050.4427 857.60925 1.2123082 255 255 255
17460.41 15395.994 53.763706 255 255 255
-630.61316 -659.5304 -2.6612771 255 255 255
804.06616 625.30505 1.710797 255 255 255
665.30444 450.98553 1.9503969 255 255 255
253.37144 424.66135 0.88229412 255 255 255
207.44174 675.7262 1.1875407 255 255 255
8977.2549 4958.356 25.013601 255 255 255
633.49738 2225.5864 2.9447947 255 255 255
-902.86945 -591.80054 -2.0268745 255 255 255
-56.365723 -292.70337 -1.7475958 255 255 255
945.16974 1238.967 2.297292 255 255 255
905.40326 791.15295 1.8085907 255 255 255
-3464.2378 -1955.8276 -9.0936995 255 255 255
327.10217 352.76254 0.83747327 255 255 255
-5984.5112 -1318.9491 -11.304261 255 255 255
577.0495 717.45319 1.6739786 255 255 255
337.77179 1005.0464 1.2409856 255 255 255
-1336.6095 -2027.256 -5.7393909 255 255 255
801.07452 988.51392 1.6407343 255 255 255
367.81943 1115.9995 2.3657479 255 255 255
496.75555 490.48846 1.8886991 255 255 255
2667.9702 1491.4431 3.3691263 255 255 255
569.45276 343.2789 1.4144964 255 255 255
611.22644 553.4696 1.4737319 255 255 255
630.98798 774.04095 1.7274843 255 255 255
-327.33997 -273.71545 -1.7302449 255 255 255
207.98799 378.33823 0.76782733 255 255 255
742.58356 739.11255 1.6001446 255 255 255
619.94922 651.70343 1.438349 255 255 255
-50.492268 -76.572403 -1.1521298 255 255 255
319.61121 1439.0143 1.9410815 255 255 255
9176.7373 12676.576 31.189186 255 255 255
-1478.2717 -2190.8252 -5.7059064 255 255 255
969.96344 1851.0869 3.0719624 255 255 255
429.01288 705.77087 1.2108903 255 255 255
-490.90683 -1538.0499 -3.3060186 255 255 255
-357.46063 -1870.0873 -3.6531627 255 255 255
-164.29536 -218.37112 -1.3380584 255 255 255
228.04762 359.83362 0.58984131 255 255 255
277.31833 569.20721 0.99493414 255 255 255
4225.2622 10389.911 16.632736 255 255 255
115.99719 286.19702 0.5557996 255 255 255
230.12827 531.26056 0.86008012 255 255 255
640.25922 876.56396 1.4692609 255 255 255
-1170.5857 -4089.4958 -9.11901 255 255 255
493.81226 735.42981 1.2891176 255 255 255
662.24945 123.0467 1.485613 255 255 255
-56571.566 -101121.39 -199.08527 255 255 255
1515.7792 882.52484 2.6231081 255 255 255
-258.89377 -140.14458 -1.3026546 255 255 255
515.3125 378.51151 0.65404236 255 255 255
-2389.1506 -1811.4178 -7.5166698 255 255 255
165.94815 594.51428 0.98871332 255 255 255
196.09152 634.02649 1.336594 255 255 255
264.57428 567.26294 0.98645353 255 255 255
3922.2632 2082.7515 3.748203 255 255 255
632.12341 867.22064 1.4581755 255 255 255
962.20593 955.72449 1.8286682 255 255 255
-2281.1658 -1566.1678 -4.6220355 255 255 255
-4259.8853 -8612.4697 -14.271518 255 255 255
3627.4771 1737.3221 3.9393692 255 255 255
222.75841 434.87442 0.84922367 255 255 255
185.92366 885.80524 1.4327484 255 255 255
4884.9468 4741.2114 13.293271 255 255 255
628.12317 615.07574 1.448753 255 255 255
748.96552 380.45908 1.7719095 255 255 255
289.74939 399.30991 0.66698378 255 255 255
661.80365 385.97363 1.5828079 255 255 255
976.11646 1253.969 3.7431962 255 255 255
174.42865 607.72394 1.0514053 255 255 255
430.42984 700.52698 1.2086042 255 255 255
274.91644 500.26993 0.94636267 255 255 255
263.97916 489.81497 0.92793047 255 255 255
221.28275 545.34607 0.93115669 255 255 255
2250.5051 4057.7405 8.127985 255 255 255
1278.0385 5188.48 6.8600726 255 255 255
416.16315 598.4505 1.0562178 255 255 255
-7328.2041 -12509.084 -29.552774 255 255 255
218.07413 529.56915 0.80386829 255 255 255
-839.25116 -703.70197 -2.1312056 255 255 255
-6840.6289 -5616.7783 -17.929623 255 255 255
182.96898 364.94009 0.64829439 255 255 255
212.92444 377.47476 0.63833362 255 255 255
-406.69888 -374.90182 -1.9823605 255 255 255
1220.6465 1578.5146 3.3899038 255 255 255
-407.11826 -315.53369 -1.7494469 255 255 255
915.55261 930.72485 1.7859095 255 255 255
-2944.77 -2730.8662 -5.4931011 255 255 255
-894.2998 -623.49146 -2.1673594 255 255 255
-280.20645 -232.84097 -1.6991788 255 255 255
7247.5439 8736.2471 23.601946 255 255 255
601.40295 964.13208 1.6865438 255 255 255
-97473.586 -76378.805 -344.33029 255 255 255
296.03159 577.90588 1.0170736 255 255 255
6582.104 15978.626 31.840361 255 255 255
289.30133 330.1991 0.87264538 255 255 255
978.43494 968.85126 1.8444171 255 255 255
-200.45679 -284.17383 -1.7152629 255 255 255
-990.32983 -1456.3462 -3.5169263 255 255 255
87.111588 496.26553 0.80344266 255 255 255
671.4552 634.65857 1.839864 255 255 255
1002.6276 2093.1653 2.8939402 255 255 255
305.83899 390.11539 0.92747533 255 255 255
172.16911 626.11853 0.93998092 255 255 255
305.52979 527.71796 0.99889982 255 255 255
134.25511 641.67535 0.95512569 255 255 255
776.91498 940.27075 1.718094 255 255 255
326.00076 695.62909 1.0711658 255 255 255
1654.0227 2463.8962 4.5364599 255 255 255
144.24409 381.74472 0.62204063 255 255 255
165.47418 166.54469 0.54938 255 255 255
266.82178 617.09314 1.3101958 255 255 255
577.41113 617.62054 2.5235887 255 255 255
6167.3628 1397.2106 6.8342738 255 255 255
137.26834 420.45068 0.64056104 255 255 255
259.61304 455.14041 0.90221763 255 255 255
-212.8857 -322.96292 -1.5115716 255 255 255
217.02025 451.57251 0.85633236 255 255 255
1688.8317 2375.6492 4.6512842 255 255 255
316.32016 568.4884 0.87723452 255 255 255
982.26367 461.1658 2.156836 255 255 255
-255.29607 -179.82185 -1.3255613 255 255 255
206.80132 414.9877 0.81582367 255 255 255
338.77606 832.78229 1.6679733 255 255 255
-128.65251 -89.012291 -1.2724581 255 255 255
-196.53891 -268.81262 -1.6187612 255 255 255
784.80963 1259.2683 2.4029112 255 255 255
169083.17 776325.25 1222.7065 255 255 255
653.7395 915.6488 1.4893184 255 255 255
356.88361 709.10529 1.1466156 255 255 255
884.50739 1668.1735 3.2503831 255 255 255
-186.56006 -218.2439 -1.407294 255 255 255
750.58453 402.18094 1.7486863 255 255 255
-1941.4424 -12945.057 -19.666136 255 255 255
243.28545 730.63885 1.3898376 255 255 255
4688.748 1957.4691 4.4091439 255 255 255
640.81317 1208.4867 1.7529439 255 255 255
283.63849 564.74963 0.99894232 255 255 255
196.89798 410.39389 0.80322915 255 255 255
-795.56854 -549.12317 -3.5276096 255 255 255
2568.3013 12068.644 19.358206 255 255 255
-505.89551 -806.88287 -2.8248601 255 255 255
327.14145 631.04407 1.0745912 255 255 255
1706.7607 6822.0835 9.9524183 255 255 255
-220.10806 -310.0379 -1.5281386 255 255 255
276.72186 1339.663 1.9378422 255 255 255
-1112.4944 -2128.5039 -4.5666695 255 255 255
1652.2367 6270.7549 9.3343868 255 255 255
226.09804 1267.3292 1.6943382 255 255 255
865.95679 606.72723 1.8193773 255 255 255
875.81256 1027.543 2.2162304 255 255 255
-2721.8892 -6772.2759 -16.539703 255 255 255
64.395142 668.88586 0.95752728 255 255 255
1291.2847 1902.9746 3.9084077 255 255 255
712.17889 764.5434 1.5432067 255 255 255
-1404.6367 -2314.8333 -5.7105761 255 255 255
684.74347 1251.0298 1.8221685 255 255 255
-2730.783 -2008.1013 -6.4979911 255 255 255
-101.52601 -167.842 -1.6213044 255 255 255
343.52469 1677.4386 2.6145101 255 255 255
4486.3877 3800.4011 12.81801 255 255 255
2166.4924 2797.2129 7.2578592 255 255 255
-297.39038 -459.63864 -1.9811918 255 255 255
-5240.7217 -8406.0596 -21.58861 255 255 255
310.71979 485.36005 1.1882868 255 255 255
-5549.0449 -6204.9517 -12.26495 255 255 255
448.21255 756.76575 1.2503496 255 255 255
-764.6944 -1410.0459 -3.4183862 255 255 255
213.28961 266.25159 0.71496838 255 255 255
1086.2098 1525.0083 1.4600619 255 255 255
5676.7754 8736.2334 22.286512 255 255 255
3400.8635 14667.464 27.564016 255 255 255
-226.98915 -193.57684 -1.3606858 255 255 255
4381.6694 8477.418 18.782837 255 255 255
962.80646 1461.7433 2.5433517 255 255 255
496.80344 1428.4204 2.0902779 255 255 255
-656.70233 -989.13324 -2.7832375 255 255 255
4404.8921 4318.3013 11.975663 255 255 255
-192.18143 -343.74802 -2.0395396 255 255 255
594.87836 803.93573 1.4139799 255 255 255
3529.3477 2127.8 3.4498832 255 255 255
371.31064 1715.1188 2.8727014 255 255 255
518.81842 1869.4019 2.8942065 255 255 255
483.65518 347.38351 1.239897 255 255 255
726.80078 832.42365 0.98113137 255 255 255
815.36676 2751.0789 5.1442595 255 255 255
800.96008 880.26978 2.0148454 255 255 255
-835.00452 -1402.6637 -3.4187627 255 255 255
143.52838 482.2106 0.75144219 255 255 255
719.61328 625.76746 1.5814739 255 255 255
1979.1605 4930.3799 8.7880688 255 255 255
252.64278 449.14084 0.8929466 255 255 255
371.6153 720.95312 1.1671889 255 255 255
-1493.0529 -836.87012 -5.8803077 255 255 255
-21329.33 -32271.512 -73.5578 255 255 255
964.00879 457.9332 2.1252391 255 255 255
157.24118 862.86993 1.504462 255 255 255
-198.53726 -225.35356 -1.5335238 255 255 255
571.38055 2184.9741 4.0042624 255 255 255
190.41925 625.39105 1.0925764 255 255 255
256.82901 434.82785 0.73903072 255 255 255
-429.12949 -533.85999 -2.2458947 255 255 255
-964.12006 -1576.1489 -3.6333141 255 255 255
-535.40259 -319.60669 -2.8393931 255 255 255
368.0527 868.85358 1.3175611 255 255 255
444.82169 380.48239 1.2665538 255 255 255
346.1301 626.11938 1.0338854 255 255 255
50257.875 38650.824 207.10869 255 255 255
588.84088 1419.1804 2.1210248 255 255 255
2105.8335 2507.5623 5.0964327 255 255 255
-302.3425 -355.78555 -1.8996568 255 255 255
3530.0928 7711.8198 11.406069 255 255 255
-1175.2443 -3751.7651 -7.764082 255 255 255
548.49957 564.37189 1.2268851 255 255 255
897.77136 1103.088 1.9123845 255 255 255
-1756.3894 -3750.72 -6.7307029 255 255 255
1570.5461 850.6554 3.8847866 255 255 255
-571.18182 -655.19452 -2.1669245 255 255 255
-821.40747 -363.51337 -2.9550748 255 255 255
429.82016 296.70236 1.098145 255 255 255
4707.1406 1947.2217 4.4394345 255 255 255
296.42249 802.1955 1.4743749 255 255 255
719.86407 554.83264 1.6007878 255 255 255
4163.7617 1890.2417 4.1482296 255 255 255
746.90674 648.91913 1.6171383 255 255 255
208.65482 664.22028 1.0050517 255 255 255
4181.5547 1893.3843 4.1561375 255 255 255
-3008.1355 -4713.5322 -10.9671 255 255 255
2285.5681 1348.4614 6.1739488 255 255 255
-3762.2207 -9829.6162 -24.072943 255 255 255
4479.7988 2220.1848 4.0897603 255 255 255
156.07515 497.60629 0.69196874 255 255 255
370.78348 726.48895 1.1677037 255 255 255
281.95392 1782.9337 2.378202 255 255 255
445.01224 1424.9763 2.1622 255 255 255
1098.587 4049.2043 5.5456095 255 255 255
173.51913 434.88696 0.67353928 255 255 255
203.85158 434.24872 0.83135432 255 255 255
311.41107 836.15009 1.1744965 255 255 255
800.72736 1528.0378 2.7340364 255 255 255
616.7276 449.90228 1.4525566 255 255 255
480.0592 1009.2567 1.5951903 255 255 255
92.977341 452.61606 0.6957413 255 255 255
493.55011 954.79523 1.356541 255 255 255
36019.688 98633.789 152.24059 255 255 255
243.25572 475.94748 0.8979609 255 255 255
953.15375 1058.4591 3.3838465 255 255 255
-2003.37 -4024.6555 -7.0829072 255 255 255
235.08595 452.24924 0.87325436 255 255 255
-1182.4675 -4477.479 -8.0623913 255 255 255
-151.67256 -97.096992 -1.2947249 255 255 255
613.11688 475.17001 1.7425153 255 255 255
182.8002 584.08356 0.93305486 255 255 255
2843.0374 3520.6006 9.6336975 255 255 255
2103.2957 2517.1741 6.6835718 255 255 255
560.22919 985.74774 1.4219049 255 255 255
8211.5352 1174.6643 9.324954 255 255 255
426.39716 903.59009 1.4062662 255 255 255
2201.5825 3473.4219 6.2287893 255 255 255
4684.9531 1957.7451 4.4018054 255 255 255
-806.23779 -313.29068 -2.0207202 255 255 255
12571.131 22489.1 47.315613 255 255 255
-1151.4346 -1843.7863 -5.1017199 255 255 255
138.16718 237.10577 0.57801193 255 255 255
159.51181 468.49884 0.81847399 255 255 255
816.89465 1115.2382 1.980727 255 255 255
837.17786 1925.2183 3.0300198 255 255 255
679.0968 573.70343 1.5299189 255 255 255
2210.0002 3338.1118 7.578372 255 255 255
978.70929 1442.5707 2.5398042 255 255 255
649.15167 914.0567 1.483647 255 255 255
298.81543 499.05103 0.97191542 255 255 255
3865.6055 5040.4487 12.116714 255 255 255
-791.7793 -2171.7954 -4.7630844 255 255 255
9531.0488 13752.433 48.519314 255 255 255
2991.543 4105.126 7.1232333 255 255 255
748.41571 411.67313 1.733495 255 255 255
158.40089 425.78796 0.68411314 255 255 255
-3664.2456 -5487.7759 -14.750258 255 255 255
-325.7851 -493.3046 -2.2452888 255 255 255
713.16815 755.54272 1.5452768 255 255 255
791.23712 421.98056 0.88546818 255 255 255
1475.1028 1554.4852 3.7076297 255 255 255
438.93704 502.28674 1.2804567 255 255 255
107.68382 641.8974 0.82489842 255 255 255
453.37875 739.1264 1.2475446 255 255 255
269.95026 490.68875 0.93485624 255 255 255
-621.00598 -1509.4478 -3.4632499 255 255 255
13774.195 11270.067 39.098522 255 255 255
1092.7825 623.61548 2.1845262 255 255 255
7558.7866 6935.9233 20.992296 255 255 255
504.43213 795.09766 1.3145919 255 255 255
-2997.3621 -6385.2676 -15.114248 255 255 255
-986.02631 -128.56161 -2.2137434 255 255 255
296.50058 495.28006 0.96720958 255 255 255
408.08209 336.65854 1.0843585 255 255 255
2032.9822 1571.371 5.2745652 255 255 255
-3742.2791 -3063.4368 -10.527643 255 255 255
1001.7665 1111.8629 2.2356706 255 255 255
-946.71448 -3202.2153 -5.9559026 255 255 255
224.16647 448.5585 0.86043817 255 255 255
-1002.6309 -2151.9226 -5.0253377 255 255 255
1973.464 1476.3562 2.7030683 255 255 255
587.29639 558.74738 1.3903308 255 255 255
794.10828 806.29272 1.6473298 255 255 255
1388.215 1787.6979 3.5739391 255 255 255
353.22375 671.92566 1.1222169 255 255 255
12560.238 24306.031 54.495712 255 255 255
-7962.3379 -3031.4861 -19.66046 255 255 255
205.49982 562.95111 0.92904061 255 255 255
791.3374 808.70868 1.5940015 255 255 255
4136.645 15128.173 25.478039 255 255 255
1565.2948 625.74371 1.9101872 255 255 255
3596.0908 6965.4824 15.341377 255 255 255
549.54974 1772.1549 3.2607744 255 255 255
-1230.7804 -1153.3853 -3.1753354 255 255 255
-1269.2881 -1250.5812 -2.7859917 255 255 255
-641.10522 -1288.8083 -3.0636103 255 255 255
199.90817 1588.0735 2.2983892 255 255 255
-157.50508 -227.87544 -1.5227644 255 255 255
736.27521 946.67249 4.9949861 255 255 255
-891.5462 -351.28204 -2.1430588 255 255 255
-3120.7712 -2759.5679 -5.703619 255 255 255
4278.7974 2135.2249 3.8982329 255 255 255
-1670.5796 -1481.3159 -5.1297951 255 255 255
998.52283 1078.3846 3.1190779 255 255 255
309.12738 531.10004 1.0500257 255 255 255
-78515.984 -138070.66 -302.15302 255 255 255
-762.00653 -1832.7952 -4.0807962 255 255 255
595.61139 750.6651 0.70746708 255 255 255
2114.3186 10854.179 19.055477 255 255 255
292.57877 528.70111 0.98541033 255 255 255
-510.51395 -1417.1323 -3.1511998 255 255 255
-3440.2041 -6937.6504 -12.915234 255 255 255
480.11685 1088.5768 1.528748 255 255 255
235.21892 472.20407 0.88789898 255 255 255
858.02643 1311.3868 2.9284348 255 255 255
-3544.3958 -6039.9268 -11.577384 255 255 255
630.78058 655.57605 1.4551862 255 255 255
2096.2881 2810.009 6.1673436 255 255 255
353.5813 447.91937 0.89934218 255 255 255
740.50958 1125.7878 1.876413 255 255 255
-483.77356 -304.52496 -2.5087044 255 255 255
-3037.7268 -3531.4839 -10.737685 255 255 255
122.3737 539.92963 0.78128564 255 255 255
-1239.1156 -2846.1055 -6.0673118 255 255 255
-1257.2236 -905.48639 -2.6741223 255 255 255
695.34589 1059.2003 1.6190195 255 255 255
302.57837 269.33148 0.51918775 255 255 255
72219.195 83761.555 221.72681 255 255 255
672.78363 765.2016 1.4975444 255 255 255
201.66145 543.11993 1.1083298 255 255 255
373.2272 442.80997 1.1167334 255 255 255
356.81427 332.21158 0.98861277 255 255 255
-1755.3245 -1736.9983 -5.1426487 255 255 255
441418.97 1073064.8 1683.7821 255 255 255
479.2085 2530.3184 4.4334111 255 255 255
894.07037 3281.1794 4.884254 255 255 255
-397.68134 -1385.7435 -3.6056612 255 255 255
3479.5393 2107.8174 3.4313312 255 255 255
-941.08447 -1297.2051 -4.0665793 255 255 255
1798.7256 1784.6367 3.8402286 255 255 255
255.30225 422.10718 0.63048536 255 255 255
-1111.3624 -480.73755 -2.4105735 255 255 255
838.49463 1063.6881 1.6891114 255 255 255
524.03839 1281.9493 1.9642662 255 255 255
86.978279 487.95657 0.79519391 255 255 255
292.06122 550.30634 0.99925232 255 255 255
-1922.5002 -3275.731 -8.9641466 255 255 255
357.57034 1871.2587 2.4348252 255 255 255
-1132.0587 -1693.0963 -4.697382 255 255 255
1507.0653 889.29236 2.6040485 255 255 255
2315.4214 4112.1489 8.4360714 255 255 255
-2512.8093 -3649.9626 -10.086354 255 255 255
525.2998 465.26306 0.99429393 255 255 255
765.31146 1449.1348 2.4341388 255 255 255
3056.1804 9672.3721 19.47525 255 255 255
-344.27081 -955.44336 -2.4404328 255 255 255
308.26184 1383.2242 2.1895514 255 255 255
4653.2905 1891.7136 4.4741721 255 255 255
409.0777 577.04852 1.3635367 255 255 255
604.77319 1046.4291 2.2243571 255 255 255
995.24823 3255.7908 7.0568151 255 255 255
469.02527 792.82086 2.5599298 255 255 255
-3196.5728 -14732.145 -23.314497 255 255 255
3629.6907 6307.4243 12.545385 255 255 255
-1034.6523 -1303.4979 -5.1475735 255 255 255
1315.4918 1066.2661 2.0687881 255 255 255
966.19159 1047.3027 2.0209527 255 255 255
-13946.548 -11840.773 -39.649006 255 255 255
-629.79437 -501.67908 -2.6829047 255 255 255
524.17395 849.41132 1.244439 255 255 255
491.6427 448.29526 0.9323982 255 255 255
1242.2373 595.50604 2.4818678 255 255 255
-11895.041 -17120.256 -36.813519 255 255 255
7331.4775 4905.853 8.6142073 255 255 255
-282.5668 -328.28271 -1.5811563 255 255 255
1951.2944 1565.4131 5.2077107 255 255 255
4197.457 2132.209 3.8516288 255 255 255
122.44415 158.62579 0.24323966 255 255 255
165.58925 166.29184 0.54947019 255 255 255
195.82928 383.52643 0.73340237 255 255 255
-271.40607 -451.58374 -1.8489463 255 255 255
964.98431 458.25052 2.1256251 255 255 255
326.69553 630.23236 1.0729657 255 255 255
239.06105 451.75708 0.87662572 255 255 255
-1542.8037 -3790.2258 -7.0268531 255 255 255
-3170.917 -4522.9478 -11.115746 255 255 255
-393.57187 -405.70264 -1.9996567 255 255 255
376.44312 1475.7443 2.5006082 255 255 255
299.30948 430.36002 0.72119206 255 255 255
4286.2803 2137.9448 3.9052927 255 255 255
216.31215 271.32373 0.72291046 255 255 255
3595.813 1757.7191 3.779562 255 255 255
426.42789 696.78571 1.2034979 255 255 255
995.41235 1326.1908 2.6909986 255 255 255
-1613.8636 -1892.9407 -3.5627947 255 255 255
1252.5133 1405.5957 3.9964318 255 255 255
971.2746 962.46027 1.8372632 255 255 255
123.90371 416.06186 0.68273717 255 255 255
225.78011 328.2937 0.5783028 255 255 255
-1546.0562 -2966.575 -5.5256743 255 255 255
766.39526 1385.7235 2.2919497 255 255 255
63.347042 206.88426 0.32627031 255 255 255
-1483.7544 -1002.1679 -2.905983 255 255 255
405.24313 1217.3035 1.8464618 255 255 255
4181.7588 7180.6938 14.95517 255 255 255
506.65674 426.7244 1.5739738 255 255 255
-766.07153 -1350.8921 -3.2350841 255 255 255
136.47163 455.49963 0.63461435 255 255 255
-1067.9895 -1546.2711 -4.6089978 255 255 255
895.32336 1527.322 2.2091022 255 255 255
989.67938 455.78629 2.175885 255 255 255
-1554.2324 -9080.5303 -14.048706 255 255 255
5862.7109 1413.7733 6.4644771 255 255 255
249.15115 211.82738 0.74941957 255 255 255
-790.39185 -949.96008 -2.7185256 255 255 255
1353.2751 1654.7615 3.8150902 255 255 255
746.0697 378.95523 1.7657384 255 255 255
1893.5745 1560.8762 2.5806651 255 255 255
1117.6586 2472.0085 3.7090647 255 255 255
-1268.4724 -4693.2622 -7.9759755 255 255 255
301.1637 539.64368 1.3516704 255 255 255
653.78131 3020.6697 5.0531726 255 255 255
199.71054 285.47037 0.70832551 255 255 255
