ply
format ascii 1.0
comment PCL generated
element vertex 1110
property float x
property float y
property float z
property uchar red
property uchar green
property uchar blue
element face 0
element camera 0
property float view_px
property float view_py
property float view_pz
property float x_axisx
property float x_axisy
property float x_axisz
property float y_axisx
property float y_axisy
property float y_axisz
property float z_axisx
property float z_axisy
property float z_axisz
property float focal
property float scalex
property float scaley
property float centerx
property float centery
property int viewportx
property int viewporty
property float k1
property float k2
end_header
527.43024 546.98743 1.4666035 255 255 255
11681.755 11290.766 32.248432 255 255 255
1101.5159 940.02942 2.3022807 255 255 255
9456.6621 5343.4194 19.624178 255 255 255
1184.1835 998.07623 2.3973813 255 255 255
-1129.1921 -1107.3114 -3.1519892 255 255 255
833.14905 841.94092 1.9587491 255 255 255
2074.665 1409.892 4.1917472 255 255 255
144.66977 338.51477 0.95366162 255 255 255
4752.0078 2395.9504 10.959862 255 255 255
1445.74 710.3255 2.9754801 255 255 255
865.5752 971.32556 2.0186996 255 255 255
33875.402 17207.859 34.907158 255 255 255
802.42432 1015.5233 1.9607841 255 255 255
-784.79193 -730.84296 -2.1742377 255 255 255
-148.77939 -402.56653 -1.6548145 255 255 255
-1162.1667 -1356.8455 -2.8441606 255 255 255
3405.7378 2359.9421 8.0599422 255 255 255
-1604.2954 -1901.4474 -4.2923217 255 255 255
1030.7791 1058.1382 2.2073839 255 255 255
741.61792 494.13779 1.2733284 255 255 255
873.76117 923.81842 1.7631301 255 255 255
-2757.9717 -1225.6853 -3.8663998 255 255 255
-1864.2975 -1487.8911 -4.1468329 255 255 255
-746.0813 -831.32703 -2.3886459 255 255 255
1889.1301 3678.9446 7.2417006 255 255 255
410.11304 488.93561 0.91386098 255 255 255
1360.3348 1286.5228 3.2298415 255 255 255
997.86975 615.80573 1.4323505 255 255 255
6131.3872 5801.8716 8.8397207 255 255 255
1827.1448 1143.5674 3.2834206 255 255 255
1630.6122 1819.4106 3.8560944 255 255 255
-1039.7194 -301.03082 -2.0328846 255 255 255
3221.8137 4285.7866 9.2918968 255 255 255
865.81488 999.12622 2.0256057 255 255 255
7703.8315 5932.8608 18.427334 255 255 255
1046.152 1284.4119 2.2396407 255 255 255
1049.0878 742.17749 1.5950933 255 255 255
-961.14801 -779.83051 -2.2868142 255 255 255
897.88495 1073.4691 2.0703666 255 255 255
-639.17316 -273.65527 -1.6412411 255 255 255
1374.5829 2301.6382 5.20084 255 255 255
1023.518 1080.8567 2.0423625 255 255 255
849.56055 1041.2185 2.0184588 255 255 255
-1603.8472 -1185.4504 -4.1618586 255 255 255
788.99695 699.89551 1.8953481 255 255 255
-705.96564 -364.98904 -2.3814206 255 255 255
-1561.1022 -2965.0457 -5.7727513 255 255 255
6656.7231 7277.3701 17.987537 255 255 255
1483.9818 1209.7942 2.7424192 255 255 255
1446.7213 2250.2046 3.9293079 255 255 255
4021.4502 2105.0276 5.1966434 255 255 255
-9504.8564 -3868.2651 -20.515165 255 255 255
4379.5903 7678.7871 14.273309 255 255 255
1585.3649 993.52301 2.1426196 255 255 255
740.61279 644.09784 1.3118417 255 255 255
-598.29346 -794.36151 -2.6844554 255 255 255
554.80212 1050.0151 1.7597849 255 255 255
-4597.2588 -12164.377 -19.184082 255 255 255
-18098.586 -13342.418 -44.154221 255 255 255
3251.03 2931.2275 5.8982019 255 255 255
-180.67763 -243.66028 -1.8477684 255 255 255
806.60297 1110.8054 1.9964769 255 255 255
8422.7461 5624.7632 14.488732 255 255 255
9649.6611 6838.2666 19.619625 255 255 255
274.36542 724.15955 1.0909333 255 255 255
-565.39563 -257.27982 -1.7063529 255 255 255
593.78864 612.94458 0.97245854 255 255 255
2021.4722 492.75635 3.9960752 255 255 255
652.69476 649.927 1.8412971 255 255 255
633.29822 588.87347 0.99862194 255 255 255
-2547.7493 -3734.9773 -7.9682841 255 255 255
9352.9912 5930.1323 9.707406 255 255 255
-773.31909 -533.24268 -1.9470211 255 255 255
1506.9911 1114.6438 2.8037205 255 255 255
-871.76056 -936.61963 -2.108547 255 255 255
863.71844 1055.0802 2.0337453 255 255 255
-4524.7847 -3466.9155 -10.152328 255 255 255
-1985.2306 -2363.53 -7.0909004 255 255 255
6985.2993 2583.4248 18.436457 255 255 255
7157.7158 3960.3018 15.474392 255 255 255
-22122.848 -9781.6641 -47.755249 255 255 255
5411.9595 3111.4165 5.731216 255 255 255
-1051.563 -389.12512 -2.8739228 255 255 255
1105.595 1860.9398 2.8518763 255 255 255
598.55194 867.79431 2.0675793 255 255 255
71577.969 38840.172 164.41521 255 255 255
3093.8533 1381.3016 4.2670646 255 255 255
-7808.937 -1966.8192 -12.057448 255 255 255
696.41547 800.0105 1.3901309 255 255 255
9467.9648 9922.4453 25.519943 255 255 255
645.69232 1118.0547 0.97371387 255 255 255
3237.1909 3395.2349 7.6837883 255 255 255
74934.742 68539.422 228.34946 255 255 255
614.14618 1159.2981 1.860232 255 255 255
919.56958 1041.9498 2.0901964 255 255 255
1218.6208 1031.6859 3.4458091 255 255 255
-1070.7327 -379.91156 -2.212934 255 255 255
-637.68921 -475.55374 -2.2917416 255 255 255
-930.52527 -1053.2738 -3.2447593 255 255 255
-1276.1652 -332.29556 -2.4204345 255 255 255
-6121.1733 -3564.2593 -14.126613 255 255 255
-2495.0371 -3438.8879 -8.4817171 255 255 255
-3092.9695 -1646.8588 -4.3266444 255 255 255
-9001.6367 -6488.7593 -18.776484 255 255 255
2045.6445 764.03345 4.6252928 255 255 255
179.50121 654.14783 1.2014831 255 255 255
-342.16852 -617.54187 -1.6249391 255 255 255
1357.7351 685.93628 2.8266387 255 255 255
4799.9097 5745.437 13.191312 255 255 255
635.41235 986.11676 1.7941208 255 255 255
-2984.3208 -2169.3008 -8.162322 255 255 255
7030.2563 1734.5665 9.3652897 255 255 255
766.09827 656.34613 1.5190341 255 255 255
1107.1117 372.11298 1.4315214 255 255 255
-12498.716 -13184.577 -23.054964 255 255 255
-4769.0732 -4789.4072 -10.673236 255 255 255
-3982.8625 -7858.8682 -21.032845 255 255 255
1270.0293 544.01776 2.8617747 255 255 255
1019.6448 603.15637 2.3515253 255 255 255
-1284.0316 -1281.1975 -2.6401935 255 255 255
-1311.6481 -1691.1843 -4.6514564 255 255 255
2518.0693 1532.4183 3.8818541 255 255 255
1920.49 1875.5504 3.0773258 255 255 255
53.261681 224.9335 0.56615955 255 255 255
3490.2708 2518.8633 8.5180111 255 255 255
-708.76154 -525.21722 -2.0570152 255 255 255
-1089.861 -379.13937 -2.0642529 255 255 255
-830.05481 -425.70377 -2.5573492 255 255 255
-969.10242 -482.78391 -3.3833449 255 255 255
7589.0635 9448.4473 21.820299 255 255 255
1712.5924 1467.9965 4.1922026 255 255 255
621.74744 1297.537 2.2760215 255 255 255
1157.2732 1259.4832 4.1863122 255 255 255
6875.9233 7336.6855 18.834696 255 255 255
2010.0344 977.16364 3.6559515 255 255 255
-3533.4351 -4152.8506 -10.626225 255 255 255
1163.6191 1020.3033 1.8800347 255 255 255
1989.8136 3136.8604 5.3053808 255 255 255
879.49408 1124.2509 2.9368649 255 255 255
2609.6692 1230.6818 5.4749451 255 255 255
-2220.5264 -2837.3594 -5.8113184 255 255 255
-1115.7462 -449.68054 -4.0188398 255 255 255
-1313.3992 -1480.5635 -2.7536757 255 255 255
546.45874 507.20514 1.4991453 255 255 255
2182.8621 2205.238 3.9561121 255 255 255
-711.51898 -1046.3455 -3.5062585 255 255 255
1792.9296 1746.8693 2.8280277 255 255 255
-1516.1207 -322.0994 -2.8554282 255 255 255
303.66183 663.16486 1.2901372 255 255 255
-3904.4353 -4200.0522 -9.6756554 255 255 255
1157.5408 1105.7982 3.8691819 255 255 255
-683.02039 -808.88837 -2.6655049 255 255 255
1963.1206 1817.5299 3.1299427 255 255 255
-1726.7343 -2662.9368 -5.9285855 255 255 255
-2839.3269 -1363.4299 -3.9634135 255 255 255
148.71695 293.23767 0.57702386 255 255 255
1316.4647 933.11237 3.3286347 255 255 255
-850.77728 -447.3082 -1.9328775 255 255 255
4802.4243 4400.0005 11.128761 255 255 255
4564.2646 1979.9612 9.2351551 255 255 255
-44647.352 -44999.605 -107.29829 255 255 255
-12014.119 -12818.033 -31.993361 255 255 255
-1606.874 -1815.2875 -5.4271498 255 255 255
3009.1128 1735.22 6.682344 255 255 255
969.83972 568.599 2.2377107 255 255 255
728.58179 553.31769 1.0855397 255 255 255
2822.8538 1251.5609 3.9312782 255 255 255
-5220.4956 -5981.6987 -14.906067 255 255 255
24865.68 28613.148 75.572594 255 255 255
9373.6523 7330.9351 24.703367 255 255 255
184.88353 366.24298 0.87420374 255 255 255
4538.7734 2008.5497 5.9459772 255 255 255
1167.478 1184.7054 2.9568298 255 255 255
2724.5295 2645.408 4.2446938 255 255 255
1771.7274 2599.9629 4.0538306 255 255 255
833.45093 940.42438 1.5782933 255 255 255
2338.4309 2434.8774 6.7111797 255 255 255
676.3457 625.76294 1.5427065 255 255 255
791.25726 778.59723 1.9024777 255 255 255
8092.5244 6947.7915 19.981041 255 255 255
1263.5603 984.19568 2.5067849 255 255 255
-136.58328 -218.59735 -1.3466699 255 255 255
290.3725 228.43205 0.3236644 255 255 255
3990.6897 1615.0067 9.1925154 255 255 255
4093.8391 6497.5972 16.1082 255 255 255
423.01617 769.29529 1.4775014 255 255 255
1012.4241 1071.6962 2.4145212 255 255 255
10495.844 9866.5908 31.195061 255 255 255
-1541.9514 -1736.137 -4.4679456 255 255 255
3622.449 2472.6296 8.2614632 255 255 255
144.80136 315.99429 0.84582049 255 255 255
2131.2339 845.97247 3.9577842 255 255 255
7497.9976 5224.7881 18.473427 255 255 255
5588.4565 3677.2803 13.259817 255 255 255
1201.1102 1159.7664 2.7314622 255 255 255
1234.8417 1004.239 2.4626708 255 255 255
736.46503 1121.2462 1.9385297 255 255 255
-2750.4119 -1895.8181 -6.4573178 255 255 255
1524.465 836.48633 2.9831321 255 255 255
418.67899 293.90884 0.54865783 255 255 255
602.62836 1055.022 1.8006065 255 255 255
651.46381 872.14001 1.7573963 255 255 255
404.31387 181.31607 0.4943057 255 255 255
1081.5624 565.46588 2.4534433 255 255 255
-973.33069 -1205.5002 -3.6385822 255 255 255
215.12659 308.41129 0.56199968 255 255 255
-2091.6301 -1843.8184 -3.8504913 255 255 255
14497.846 11079.4 37.488743 255 255 255
-711.21088 -1702.9486 -4.9980702 255 255 255
-2130.5503 -1879.2654 -3.7719908 255 255 255
551.71539 954.09546 1.703244 255 255 255
5977.4663 2780.6907 13.438003 255 255 255
-667.11841 -716.81995 -1.8536394 255 255 255
1231.3918 564.39172 2.750984 255 255 255
5430.6157 2532.8394 6.350596 255 255 255
2928.4534 1597.6692 4.570734 255 255 255
-4668.3057 -3867.9172 -9.4060059 255 255 255
13203.197 27901.941 47.333588 255 255 255
-3722.7949 -1591.7316 -8.7199888 255 255 255
4793.353 2764.302 5.4189162 255 255 255
764.01031 1021.3161 1.5963291 255 255 255
-1117.9187 -466.38443 -2.1503084 255 255 255
4309.3438 5102.9487 12.562384 255 255 255
4340.7236 2856.6926 4.8391223 255 255 255
-1348.993 -1110.111 -4.3699822 255 255 255
-537.58032 -982.32831 -2.9742374 255 255 255
-1222.0072 -478.38858 -2.3998737 255 255 255
-617.28339 -480.58786 -1.7682675 255 255 255
-40441.336 -10659.503 -43.819527 255 255 255
1237.3716 567.51117 2.759311 255 255 255
1768.0422 678.52209 3.9726801 255 255 255
989.93585 1064.9427 2.1659367 255 255 255
3207.0151 2055.26 7.2704568 255 255 255
-1017.481 -1000.0458 -3.1955087 255 255 255
-275.44446 -290.1142 -1.5164998 255 255 255
666.8938 698.46295 1.7196018 255 255 255
1026.1316 841.77655 1.1563295 255 255 255
-2157.1306 -3275.877 -8.2230854 255 255 255
948.44421 947.11359 2.1113284 255 255 255
2054.5808 1775.8068 5.1159248 255 255 255
1485.0502 683.78375 3.0857234 255 255 255
-2617.4382 -3654.5764 -10.477489 255 255 255
-1962.9446 -736.49713 -5.3644919 255 255 255
-668.43451 -337.71576 -1.7006296 255 255 255
754.22913 856.58936 1.8690492 255 255 255
86.973679 157.80469 0.30174324 255 255 255
1305.0894 698.87726 1.7518015 255 255 255
-84174.883 -48838.812 -142.0961 255 255 255
-89627.297 -57696.566 -237.91211 255 255 255
-1456.2205 -949.49292 -3.6198676 255 255 255
-1880.5879 -1323.7517 -4.4271221 255 255 255
6576.1577 3760.2441 9.3945532 255 255 255
5389.6753 1882.9375 8.5437889 255 255 255
772.41101 1362.4905 2.0660179 255 255 255
932.25116 919.90265 2.0910282 255 255 255
323.80127 752.28931 1.3833436 255 255 255
2611.5039 1859.9285 5.5168486 255 255 255
-991.31891 -335.72214 -1.9725634 255 255 255
3060.0735 1274.0803 6.4118214 255 255 255
59966.488 26949.562 73.32209 255 255 255
190.56543 244.60408 0.53674942 255 255 255
1251.8473 591.99329 2.7541819 255 255 255
1273.8082 524.91638 2.8967059 255 255 255
1356.4331 751.3421 2.7715087 255 255 255
3676.9099 1464.9332 5.5595188 255 255 255
-62264.879 -15559.562 -149.90866 255 255 255
-1806.6317 -1305.7444 -5.8865376 255 255 255
831.32208 554.96368 2.0043631 255 255 255
3062.3679 1470.7639 4.6684232 255 255 255
509.83295 678.32697 1.8268508 255 255 255
805.67548 1111.1461 1.9955932 255 255 255
-52349.648 -89436.578 -163.65327 255 255 255
1220.8009 1169.239 2.4220762 255 255 255
542.17291 453.32327 1.2355565 255 255 255
4828.1895 4828.6768 12.716582 255 255 255
1995.1946 1397.5983 4.2938852 255 255 255
3597.7244 2531.7131 5.9971552 255 255 255
2305.9287 1978.2756 6.0830364 255 255 255
27364.814 15893.335 57.30722 255 255 255
1302.5005 532.82275 2.9472933 255 255 255
110103.27 50120.738 172.7343 255 255 255
750.00391 1138.0564 1.9560421 255 255 255
216760.25 541232.31 1286.3422 255 255 255
1043.5509 537.7569 1.1600749 255 255 255
-3560.1865 -7781.2949 -20.639683 255 255 255
-7952.6196 -5654.9033 -19.47628 255 255 255
-829.51367 -324.89868 -1.8717542 255 255 255
-1786.3097 -1519.7932 -5.5948124 255 255 255
546.97656 732.7066 1.5823224 255 255 255
-6336.3633 -6142.3901 -20.232109 255 255 255
-1305.3944 -393.46631 -3.0318565 255 255 255
2206.7375 3156.0325 5.4648113 255 255 255
-40451.754 -51450.887 -114.34116 255 255 255
1296.2493 582.14142 2.5156982 255 255 255
-2728.3557 -2243.2039 -4.3799224 255 255 255
1922.7694 1280.9152 2.7879035 255 255 255
-12713.463 -9397.374 -35.985775 255 255 255
-34252.32 -21301.684 -83.574043 255 255 255
2105.1208 507.15369 4.2894173 255 255 255
11919.252 6183.6567 27.53804 255 255 255
3068.9841 2099.7461 4.1419916 255 255 255
-2021.004 -2176.459 -7.5925026 255 255 255
10409.796 6912.8457 14.72718 255 255 255
1217.4111 297.29871 2.4332469 255 255 255
1458.885 1577.3813 3.5624402 255 255 255
2347.5088 1499.5533 3.7225089 255 255 255
2720.1477 1162.5765 5.6861262 255 255 255
1412.8407 739.45374 2.8835578 255 255 255
1053.7744 890.30286 2.2459693 255 255 255
184.0374 804.54968 1.3573315 255 255 255
4354.9443 2822.948 4.9599385 255 255 255
2058.6257 2271.4067 4.3111892 255 255 255
4785.3726 3722.936 8.7807369 255 255 255
1510.2478 2081.1807 4.0536885 255 255 255
621.01062 511.57089 1.6249526 255 255 255
-2489.6345 -3027.4883 -7.2202358 255 255 255
6348.353 3915.8093 15.538507 255 255 255
1065.125 848.92615 3.1035349 255 255 255
4582.4976 4787.7085 13.762368 255 255 255
-2266.323 -2091.384 -4.9169607 255 255 255
3629.7231 678.93091 7.7806959 255 255 255
-1041.8273 -415.9429 -2.8936553 255 255 255
-413.43658 -442.91809 -1.5920831 255 255 255
723.50946 891.0379 1.8391645 255 255 255
7934.8091 5192.9629 17.95433 255 255 255
2175.7161 1645.9714 3.4035776 255 255 255
103.42858 310.06921 0.72640604 255 255 255
5359.7729 2680.6438 6.0939612 255 255 255
17256.871 7449.7178 33.273403 255 255 255
584.97742 346.32886 0.98861474 255 255 255
63.522972 236.61694 0.59274197 255 255 255
960.51691 1476.1204 2.9309995 255 255 255
907.4176 1074.9529 2.0812373 255 255 255
3148.4241 2321.105 4.0975108 255 255 255
-4587.4917 -3515.5869 -13.157218 255 255 255
579.2171 1240.0533 1.7094374 255 255 255
1226.1807 996.80518 2.4511988 255 255 255
525.23462 979.92578 1.6971971 255 255 255
1227.5602 848.32489 2.5003667 255 255 255
2212.3574 1417.5461 5.0673265 255 255 255
2465.27 985.84174 3.4164791 255 255 255
-2056.4258 -2317.5991 -4.9519563 255 255 255
-386.12543 -516.53485 -2.4100411 255 255 255
2457.3638 1895.3932 4.4288445 255 255 255
945.96173 844.09448 2.1113939 255 255 255
1326.4458 975.1908 2.5953336 255 255 255
2164.6204 1648.3774 3.3891041 255 255 255
825.66705 742.52222 1.1375444 255 255 255
3365.6858 1457.7295 5.1112599 255 255 255
-669.95734 -475.9252 -1.7675296 255 255 255
594.20093 424.9198 1.5808702 255 255 255
3327.5508 4724.0571 9.1771278 255 255 255
4434.5474 2124.2327 5.6738849 255 255 255
811.61841 502.40683 1.5862292 255 255 255
610.99182 507.646 1.6075201 255 255 255
-4440.5981 -4285.1235 -11.248338 255 255 255
1407.042 743.61664 2.8674662 255 255 255
758.13007 817.38287 1.8636599 255 255 255
2346.8289 800.19897 4.8101478 255 255 255
1349.2334 1077.9769 2.6015983 255 255 255
121.82273 161.36954 0.53530234 255 255 255
2153.1528 1724.1935 6.48422 255 255 255
-1219.3176 -1165.3373 -3.4825406 255 255 255
2158.6741 1164.892 4.4150791 255 255 255
1047.3256 947.27936 2.2294657 255 255 255
4565.9087 2915.7327 9.8516855 255 255 255
787.34863 1009.6373 1.9454916 255 255 255
5575.6123 2006.8318 7.3135557 255 255 255
832.0437 1029.3196 1.9976047 255 255 255
1247.2327 819.78717 2.5436301 255 255 255
1532.5847 1289.205 3.3598928 255 255 255
937.68372 712.80859 2.1200655 255 255 255
-9112.665 -11036.864 -26.493633 255 255 255
-193.74471 -110.87072 -1.4237298 255 255 255
1982.823 1821.136 3.9214151 255 255 255
2450.1716 1100.3083 5.1284871 255 255 255
1885.625 977.72821 3.4478745 255 255 255
574.89929 491.3884 1.1842999 255 255 255
-1233.6801 -1779.9437 -4.8517165 255 255 255
1237.3092 670.28058 2.645375 255 255 255
1411.1078 1812.0468 2.7815011 255 255 255
-158.92418 -176.94438 -2.4689102 255 255 255
-960.28149 -1807.5598 -4.2644153 255 255 255
881.78094 1221.3519 2.0967414 255 255 255
-16087.347 -12764.082 -29.137938 255 255 255
1483.6682 776.47937 3.5226994 255 255 255
1164.2587 1519.0552 2.7217541 255 255 255
-2037.6078 -1550.5938 -5.7612834 255 255 255
-1407.5048 -1032.1418 -3.0639729 255 255 255
831.07092 924.20648 1.9719977 255 255 255
1180.2783 994.12085 2.3887682 255 255 255
437.39716 624.62048 1.3952917 255 255 255
-10371.159 -13752.764 -33.333549 255 255 255
1033.7274 1339.2255 2.7648914 255 255 255
5124.8184 2483.9829 7.0637121 255 255 255
1500.1862 739.53925 3.0329623 255 255 255
-504.06464 -396.91284 -2.033777 255 255 255
945.39349 1119.0635 2.1206336 255 255 255
1168.5853 1072.7284 2.9620941 255 255 255
812.02783 662.27496 1.9300904 255 255 255
2108.2739 2015.1042 6.0277395 255 255 255
-2305.0266 -1490.8694 -5.350419 255 255 255
396.35214 1245.981 1.7927864 255 255 255
4746.002 3247.4233 5.0498328 255 255 255
-76005.625 -17455.975 -90.26004 255 255 255
1824.9102 822.86432 3.4417374 255 255 255
3556.623 2187.012 9.498971 255 255 255
-681.67786 -472.39517 -1.7770187 255 255 255
426.70312 260.66617 0.88442695 255 255 255
2455.1462 1911.9807 5.2297797 255 255 255
3503.3882 3325.6599 8.6974688 255 255 255
3179.0923 2668.5435 8.9690742 255 255 255
-7104.4253 -2415.0383 -22.582779 255 255 255
1451.6741 1241.7452 2.784616 255 255 255
926.72449 891.91302 2.0817981 255 255 255
1160.1285 1451.7501 3.8925478 255 255 255
-5239.9307 -1895.7562 -10.233304 255 255 255
2893.9539 3240.9233 8.0692368 255 255 255
-893.82104 -630.12421 -2.0288866 255 255 255
2611.7178 1516.028 4.0163836 255 255 255
1149.5525 1044.1803 2.342314 255 255 255
1092.0458 1117.0558 2.2491636 255 255 255
1436.743 1565.5449 3.0636275 255 255 255
184.68208 358.46533 0.86666006 255 255 255
-5897.5195 -8103.061 -17.78981 255 255 255
284.45111 275.16403 0.56923234 255 255 255
-1501.3435 -1555.8647 -4.7573586 255 255 255
-6131.3286 -3394.5093 -12.568586 255 255 255
1151.2882 1580.7646 3.073709 255 255 255
-451.79565 -287.59497 -1.5063441 255 255 255
-166840.62 -104938.24 -330.93866 255 255 255
13661.581 3150.1938 14.980907 255 255 255
412.04364 494.3382 1.133759 255 255 255
-1677.8047 -706.91119 -2.6923218 255 255 255
-4836.9688 -6743.0835 -14.572633 255 255 255
2362.1641 1619.132 5.6529393 255 255 255
1127.2462 656.45886 1.5803821 255 255 255
29363.699 16259.354 49.37957 255 255 255
-1452.9463 -3061.7341 -6.607326 255 255 255
590.54968 519.64471 1.5745834 255 255 255
11011.924 12801.615 21.040026 255 255 255
602.11005 1354.2401 1.9582026 255 255 255
312.70016 660.63092 1.2962896 255 255 255
787.89819 302.7182 1.0439912 255 255 255
-5189.8638 -2362.082 -8.5220194 255 255 255
1497.6504 2996.7864 6.1322227 255 255 255
-1228.7527 -1423.8676 -3.5804985 255 255 255
749.48859 625.67145 1.4858025 255 255 255
1351.9574 845.89062 2.6965971 255 255 255
-316.02237 -547.30316 -2.0284564 255 255 255
105.46471 163.80376 0.29183081 255 255 255
12051.81 20270.5 45.035851 255 255 255
-15710.553 -20449.645 -44.000702 255 255 255
1287.5201 1152.0599 2.5082729 255 255 255
-1027.2064 -901.18616 -2.9537256 255 255 255
-2158.3645 -1529.0175 -5.4205561 255 255 255
475.71793 1179.9242 1.5423899 255 255 255
2229.8228 1649.4359 3.4692128 255 255 255
-955.45013 -755.12738 -2.1789997 255 255 255
2767.3027 1593.1848 6.3438101 255 255 255
-1388.4141 -694.82269 -3.4583864 255 255 255
56690.891 27034.988 150.95302 255 255 255
2192.3291 1268.3578 4.2152624 255 255 255
896.91809 1354.7152 1.4003874 255 255 255
4530.4746 3004.3955 7.647202 255 255 255
660.40039 772.84473 1.7300227 255 255 255
-460.32974 -678.61053 -1.6795831 255 255 255
271.83823 932.98669 1.506887 255 255 255
-651.78058 -799.29077 -1.9129145 255 255 255
747.24658 105.05338 1.1348284 255 255 255
309.5 659.45312 1.2911831 255 255 255
646.40479 992.12048 1.8043399 255 255 255
2419.8313 977.65179 4.3333416 255 255 255
4698.896 2117.8486 8.8175354 255 255 255
-741.74921 -500.056 -1.8399231 255 255 255
2346.2417 1750.5096 3.3710501 255 255 255
-1260.396 -1342.1859 -2.8271887 255 255 255
3192.3521 1993.5035 6.3851767 255 255 255
923.5813 636.52734 1.674234 255 255 255
21730.873 14310.141 44.737206 255 255 255
1307.5192 503.55005 2.6977625 255 255 255
2339.2891 1602.0273 5.6723375 255 255 255
2136.7422 1375.1169 4.28582 255 255 255
2134.7817 1360.6953 5.3851266 255 255 255
781.41864 427.17487 1.5289279 255 255 255
-6327.5723 -8059.23 -19.74184 255 255 255
1344.7936 2391.0654 4.3312492 255 255 255
4433.0273 3633.5493 11.849118 255 255 255
1160.5903 431.94135 2.3935385 255 255 255
-15652.925 -13733.578 -51.614548 255 255 255
5811.417 2092.0522 9.294672 255 255 255
657.40417 667.80469 1.7302573 255 255 255
-1799.2916 -785.60321 -2.9757588 255 255 255
-1147.7878 -361.51529 -2.1473296 255 255 255
1125.2886 457.85892 2.0819106 255 255 255
3721.8799 1400.2158 5.4500709 255 255 255
-929.06384 -254.70799 -1.898205 255 255 255
3706.0315 1524.9807 7.5254049 255 255 255
1194.9186 1377.395 2.9960482 255 255 255
-789.69598 -900.21741 -2.7365105 255 255 255
-939.32306 -597.26154 -2.0500755 255 255 255
514.69336 756.56348 1.5560693 255 255 255
844.44891 1233.4047 2.0699308 255 255 255
1206.4578 968.09943 2.4291315 255 255 255
973.07379 482.3045 1.60943 255 255 255
456.85397 892.50757 1.5896012 255 255 255
-60407.461 -43803.758 -175.7791 255 255 255
954.15234 2128.6333 4.0854354 255 255 255
2326.6453 1979.2916 3.7646229 255 255 255
-2868.6978 -1509.0699 -7.0854635 255 255 255
759.70721 779.09967 1.8584991 255 255 255
415.41312 398.45636 0.86453712 255 255 255
1118.1814 1601.8672 2.829644 255 255 255
-930.27478 -509.80945 -3.3313112 255 255 255
1738.66 2172.7158 4.3105845 255 255 255
549.54352 545.94745 1.4726791 255 255 255
331.9747 1378.3102 1.8621902 255 255 255
30730.135 25142.084 92.148018 255 255 255
-2091.4438 -2608.0359 -6.8722486 255 255 255
1121.9164 893.30457 2.3387647 255 255 255
660.29022 1166.384 1.9007913 255 255 255
-1648.4341 -1798.7285 -3.4114256 255 255 255
-627.05048 -1575.5923 -3.7201281 255 255 255
-5948.5332 -3901.6824 -14.20824 255 255 255
1170.9954 884.06384 2.402663 255 255 255
1297.5417 530.0694 2.9356878 255 255 255
84.100403 489.40939 0.96788913 255 255 255
8907.8037 3305.6558 12.031027 255 255 255
935.57794 711.52332 2.1158731 255 255 255
2101.1208 1357.355 3.1023674 255 255 255
-3574.0806 -2674.4968 -8.2786169 255 255 255
14203.82 23793.461 56.652821 255 255 255
-3577.2837 -2437.4082 -10.795833 255 255 255
171.64716 565.08716 1.0907465 255 255 255
-13878.209 -7140.4639 -32.906979 255 255 255
2527.4124 971.34735 3.4635668 255 255 255
-174.73334 -149.13086 -1.3364204 255 255 255
1271.5376 1020.6764 2.6379516 255 255 255
2030.8148 1625.5333 3.2404313 255 255 255
625.02692 605.6416 1.6380579 255 255 255
1889.0507 797.63818 3.6632073 255 255 255
-321.0567 -285.40421 -1.6900537 255 255 255
5577.582 2006.8691 7.3206673 255 255 255
893.94946 980.9024 2.0516071 255 255 255
-2060.647 -1770.6947 -5.2782927 255 255 255
980.79431 1258.121 2.1821547 255 255 255
-340.10574 -482.0015 -2.2195544 255 255 255
1142.7181 690.72656 2.46242 255 255 255
-10539.025 -4916.0464 -25.215145 255 255 255
-9202.5283 -5692.7759 -26.016602 255 255 255
755.18274 468.62024 1.6568855 255 255 255
-1029.757 -761.18304 -2.3374219 255 255 255
721.94427 1026.1901 1.8888662 255 255 255
647.44977 993.51013 1.8071057 255 255 255
-1402.3204 -3162.0493 -7.317337 255 255 255
888.73267 208.47375 1.1821926 255 255 255
-1607.5214 -1181.1941 -3.4971976 255 255 255
386.12088 345.71881 0.70984197 255 255 255
90.529305 431.4631 1.1364858 255 255 255
55.58403 215.36401 0.55195069 255 255 255
2603.0942 3535.1575 7.0131898 255 255 255
-7232.231 -2992.7576 -11.631342 255 255 255
698.56244 1437.8688 2.0526035 255 255 255
-1339.5662 -1341.001 -4.1519561 255 255 255
1149.9918 675.77063 2.4884226 255 255 255
778.13849 334.87082 1.5696179 255 255 255
488.54605 392.09695 1.1599113 255 255 255
971.93958 938.38623 2.1373167 255 255 255
961.60126 1022.5822 2.1312814 255 255 255
724.58167 892.73993 1.8428556 255 255 255
395.8483 265.1489 0.83182645 255 255 255
875.96893 946.98737 2.0269845 255 255 255
2078.231 2085.0879 4.6075997 255 255 255
1807.719 1112.2637 3.5255668 255 255 255
1233.1038 589.98444 2.721791 255 255 255
-1546.4873 -1352.7312 -4.8346419 255 255 255
267.32904 669.71576 1.2674832 255 255 255
26987.59 22303.76 78.476471 255 255 255
-3490.6357 -1092.4346 -6.8343029 255 255 255
303.5018 663.20642 1.2903699 255 255 255
1199.1133 593.22479 2.6501188 255 255 255
2759.0112 3089.3367 7.6343184 255 255 255
-1048.4766 -1000.5366 -3.4456165 255 255 255
-428.70831 -440.01276 -1.5610863 255 255 255
1545.6155 257.23523 2.8978469 255 255 255
1374.3252 1304.7664 3.3754716 255 255 255
871.35443 449.41165 1.7933741 255 255 255
309.56775 659.55994 1.2915827 255 255 255
-1636.5026 -793.55542 -2.7177444 255 255 255
2222.1965 5336.2051 8.0553083 255 255 255
-456.36557 -543.55463 -1.6312369 255 255 255
3897.1453 4792.0908 7.0846434 255 255 255
578.63306 1073.7216 1.7918842 255 255 255
-5720.9609 -4892.1211 -15.020485 255 255 255
879.4856 1219.1892 2.091141 255 255 255
2609.4062 1514.9086 4.0135069 255 255 255
179.64639 655.27789 1.2042003 255 255 255
841.2547 1229.5807 2.0631883 255 255 255
750.276 388.48468 1.8090005 255 255 255
1000.6098 714.39532 2.2182746 255 255 255
-13385.16 -13308.803 -41.898205 255 255 255
828.61865 921.11072 1.9670177 255 255 255
1144.8445 1097.5902 2.3987019 255 255 255
5489.2329 4014.2664 11.538249 255 255 255
2478.7375 1843.64 5.3169031 255 255 255
757.8139 970.17804 1.9006089 255 255 255
3356.072 4449.6787 11.405412 255 255 255
-1074.6359 -1280.0441 -3.0549073 255 255 255
-1421.2012 -413.21625 -4.5741773 255 255 255
6574.8164 4478.5312 15.395935 255 255 255
-992.39233 -649.04639 -2.9478221 255 255 255
-171.03639 -193.91096 -1.5388911 255 255 255
1054.4645 793.05878 1.9992712 255 255 255
602.60669 1103.7781 1.8247211 255 255 255
-6661.918 -5584.5059 -17.126808 255 255 255
854.10754 474.03171 1.8878992 255 255 255
1041.0507 1002.9689 2.2204938 255 255 255
1258.088 595.16736 2.7693028 255 255 255
3086.8228 2096.2183 4.1670251 255 255 255
3035.1633 2699.6438 6.8846121 255 255 255
8183.8896 7267.5337 23.740318 255 255 255
5092.3945 5028.2935 16.291502 255 255 255
-2527.7693 -3351.4336 -8.22159 255 255 255
1234.7328 852.27649 2.5149338 255 255 255
128.05865 114.35885 0.24219036 255 255 255
5078.0498 5576.6235 11.662401 255 255 255
605.53424 521.92267 1.597842 255 255 255
-2684.8325 -2102.0645 -7.2681847 255 255 255
3332.1118 623.76257 7.0884242 255 255 255
1052.2823 886.86963 2.2449245 255 255 255
-15014.212 -13795.336 -36.616821 255 255 255
435.30411 1063.7963 1.6683781 255 255 255
1346.9397 681.04077 2.8357885 255 255 255
-1072.1841 -145.67256 -2.2414076 255 255 255
-995.18207 -843.17786 -2.2214608 255 255 255
1217.3939 976.69519 2.4418318 255 255 255
-496.36954 -1016.1503 -2.4407477 255 255 255
1956.7534 2714.4697 5.4650607 255 255 255
626.59497 1367.9233 1.9767369 255 255 255
13638.098 3144.7129 14.960004 255 255 255
1333.9174 897.18768 2.6433268 255 255 255
587.72687 550.03436 1.5721543 255 255 255
375.69901 850.31244 1.4983125 255 255 255
-1064.0905 -592.68585 -2.2670605 255 255 255
1506.2501 2202.6377 4.551949 255 255 255
-5636.3716 -10767.09 -19.904646 255 255 255
-479.13055 -386.55374 -1.5839045 255 255 255
-2798.2971 -2708.2708 -7.8584976 255 255 255
812.21857 784.18671 1.9287666 255 255 255
-7799.6821 -9232.9004 -15.882975 255 255 255
-876.56458 -1324.3667 -3.2808754 255 255 255
1225.2765 1505.771 3.4305067 255 255 255
13539.902 3140.6765 14.840672 255 255 255
5637.1245 2993.9358 13.879436 255 255 255
653.13983 418.8653 1.5092337 255 255 255
1222.7559 831.16846 2.50301 255 255 255
-448.15115 -384.37668 -2.1131856 255 255 255
-1573.8629 -1373.1595 -4.3722663 255 255 255
-5957.1475 -8186.1108 -18.392494 255 255 255
465.04251 465.07712 0.59645152 255 255 255
747.43835 690.16083 1.8334126 255 255 255
1064.0243 674.36725 1.8391558 255 255 255
-1076.8029 -1602.0625 -3.5515213 255 255 255
-850.55194 -751.39337 -2.3691056 255 255 255
822.59277 937.24286 2.8809285 255 255 255
978.91766 1129.6769 2.1591256 255 255 255
4353.9785 2825.2786 4.9533429 255 255 255
-26560.102 -17078.502 -50.335785 255 255 255
682.172 1036.0061 1.6869707 255 255 255
971.09344 569.71558 2.240185 255 255 255
396.68961 484.72372 0.77405554 255 255 255
-852.71564 -655.10522 -2.0254097 255 255 255
-1963.6816 -1112.1769 -4.0497637 255 255 255
-419.53241 -178.38336 -1.4317132 255 255 255
228.12068 650.0188 1.2160804 255 255 255
1677.0135 1109.9478 3.0312982 255 255 255
883.49133 702.47876 2.0386956 255 255 255
2352.2708 2028.8057 3.4535596 255 255 255
851.91962 613.4928 2.0049078 255 255 255
940.48364 1089.6514 1.7990997 255 255 255
948.15143 947.29633 2.1112678 255 255 255
525.35254 414.53732 1.4516315 255 255 255
2386.7363 1777.9258 6.445127 255 255 255
750.93964 1138.587 1.9562383 255 255 255
1151.7875 699.19952 2.4706929 255 255 255
-53876.59 -49640.129 -167.34708 255 255 255
2043.8174 1644.642 3.2502186 255 255 255
1953.4889 1352.9508 4.2987752 255 255 255
470.44324 61.993244 0.50608951 255 255 255
1602.569 769.05914 3.6647837 255 255 255
888.94043 813.98047 2.0340433 255 255 255
395.9574 1244.3823 1.7898141 255 255 255
350.15762 1362.8828 1.8569884 255 255 255
1293.9215 695.93195 2.7255511 255 255 255
1018.5385 1225.0157 2.1665897 255 255 255
805.25916 1110.9493 1.9955219 255 255 255
-1237.6685 -701.61652 -2.9149373 255 255 255
-1691.4031 -492.99649 -5.3504481 255 255 255
1171.9111 846.24475 2.4225914 255 255 255
-512.45563 -460.06448 -1.7292557 255 255 255
830.68536 1028.0509 1.9951516 255 255 255
117.60493 146.94025 0.50799704 255 255 255
406.0488 1156.8217 1.7392749 255 255 255
4556.4023 2388.4744 9.5406275 255 255 255
911.9093 1033.5591 3.402734 255 255 255
1855.8694 2506.8857 6.2102375 255 255 255
-900.9906 -1291.5662 -3.3887253 255 255 255
-52164.832 -42768.02 -81.755432 255 255 255
2118.1396 1240.4889 4.6549845 255 255 255
658.69574 1440.9624 2.0329943 255 255 255
-1187.2914 -590.5014 -2.7502551 255 255 255
648.51007 1435.7306 2.0244122 255 255 255
10360.244 7708.6846 18.265804 255 255 255
770.15082 1474.9814 2.1078351 255 255 255
1957.7611 2444.4688 4.8680129 255 255 255
1491.4386 1205.5345 3.5320568 255 255 255
770.64703 1360.4319 2.0621283 255 255 255
1554.9597 1156.9419 4.1979527 255 255 255
1667.1648 1625.4611 3.5371313 255 255 255
899.15369 843.50751 1.0481451 255 255 255
7253.9673 2060.5273 8.7550678 255 255 255
-1029.8516 -345.37152 -1.9951365 255 255 255
2167.2136 747.99908 5.1631908 255 255 255
1079.3057 850.55621 2.2964995 255 255 255
36994.117 33865.641 92.274048 255 255 255
-147875.09 -82391.477 -299.89963 255 255 255
712.03314 1524.8536 2.0998259 255 255 255
533.29816 732.91028 1.5655886 255 255 255
1033.3721 986.26379 1.9768674 255 255 255
609.18665 568.21759 1.610469 255 255 255
189.3972 467.13284 1.1108146 255 255 255
2168.1455 2012.7827 4.9532104 255 255 255
-2983.7095 -3403.6616 -8.8084936 255 255 255
-634.87756 -511.61362 -1.8496654 255 255 255
5083.7686 12977.021 29.852476 255 255 255
-406.04333 -424.94745 -1.5555826 255 255 255
395.48743 401.96289 1.2150646 255 255 255
-1263.056 -1122.9323 -2.6971185 255 255 255
4044.1943 4251.8916 11.854693 255 255 255
-718.32916 -390.53958 -1.7700648 255 255 255
-2111.7634 -2841.6704 -7.4032435 255 255 255
2514.1384 1940.9033 3.6500573 255 255 255
-446.5249 -449.862 -1.7592188 255 255 255
2884.8218 1158.0201 5.5901494 255 255 255
757.41833 817.38812 1.8629135 255 255 255
1520.3988 1887.8428 4.7196541 255 255 255
-2443.926 -3233.511 -7.8202066 255 255 255
1506.6024 1677.092 2.6993558 255 255 255
-1809.3203 -2700.1562 -5.5378184 255 255 255
917.93848 1222.3405 3.2608526 255 255 255
802.11749 749.30969 1.9144306 255 255 255
-84019.188 -48769.645 -141.8864 255 255 255
658.26599 923.68524 1.5972321 255 255 255
8102.896 2522.0532 9.5985498 255 255 255
-78676.977 -53401.59 -199.06006 255 255 255
312.29776 659.81421 1.2950954 255 255 255
-643.2384 -515.80444 -1.7645326 255 255 255
-22053.113 -7875.0381 -24.036678 255 255 255
-6631.5869 -3658.0227 -10.470588 255 255 255
-654.31378 -391.49951 -1.7185385 255 255 255
-2584.8516 -2163.5791 -4.2528009 255 255 255
-972.31396 -822.77118 -3.0323515 255 255 255
591.65326 344.86252 0.93377072 255 255 255
786.91296 1009.217 1.9440186 255 255 255
1390.7555 1043.1184 3.1459901 255 255 255
4622.147 3059.7434 11.852882 255 255 255
777.45966 864.3382 1.3498002 255 255 255
-1057.6162 -864.77808 -2.411202 255 255 255
740.44501 1333.4734 2.8270946 255 255 255
745.65057 868.61426 1.861496 255 255 255
602.94403 1054.9965 1.8007048 255 255 255
2728.4478 5397.4229 10.34481 255 255 255
1678.9054 676.3468 3.7359648 255 255 255
-2647.4956 -3178.0361 -8.0890799 255 255 255
-870.25208 -1135.9192 -2.2541928 255 255 255
-1442.1345 -1468.2842 -3.9803989 255 255 255
2264.4919 926.9613 4.555337 255 255 255
16779.766 3148.7854 19.272724 255 255 255
-1548.4685 -917.57214 -3.2220592 255 255 255
1614.9623 707.48505 3.286819 255 255 255
-1290.0956 -1411.4071 -3.7653794 255 255 255
7138.7358 2301.8188 9.2973471 255 255 255
-1432.7365 -1894.108 -4.5311131 255 255 255
13507.925 2925.2229 15.492797 255 255 255
-3312.885 -1710.8253 -10.998153 255 255 255
1051.049 818.65161 2.2595212 255 255 255
716.45972 958.13794 2.0334764 255 255 255
3994.3069 3254.7324 11.994672 255 255 255
2745.9634 1817.5781 5.9603238 255 255 255
540.58307 766.43945 1.5910839 255 255 255
421.83875 1316.7422 1.8579289 255 255 255
-559.84064 -1523.0509 -3.8937225 255 255 255
-3144.8806 -4297.8721 -7.9206443 255 255 255
525.07263 980.18372 1.6974941 255 255 255
2188.7583 1976.6379 6.2367516 255 255 255
-869.3902 -1050.2611 -3.1426485 255 255 255
8104.5723 2520.1484 9.6178217 255 255 255
-13405.396 -7301.1567 -29.019678 255 255 255
2794.3479 1543.6927 6.0007753 255 255 255
-350.22406 -455.54535 -1.5078539 255 255 255
5124.3267 2895.8477 5.8332858 255 255 255
3736.0405 1890.5833 5.7964578 255 255 255
746.97284 554.64276 1.4109057 255 255 255
351.91962 295.2771 0.76257789 255 255 255
1188.4583 1348.6254 2.3943779 255 255 255
-958.58173 -725.67389 -2.6578386 255 255 255
4011.0728 2835.1748 6.8794613 255 255 255
1331.2778 726.5979 2.7220123 255 255 255
2242.5505 1919.8771 4.8952618 255 255 255
17631.602 10549.73 30.391174 255 255 255
12691.183 2879.2642 14.644773 255 255 255
-1321.6641 -1218.295 -3.6667073 255 255 255
162.09161 354.24655 0.83480841 255 255 255
5743.6304 2295.9648 14.40545 255 255 255
1002.1111 1061.6548 2.178412 255 255 255
2207.0977 2766.0576 5.2816663 255 255 255
513.33423 755.1568 1.5529221 255 255 255
88403.688 67097.617 229.32118 255 255 255
-9484.9102 -8238.8271 -28.653254 255 255 255
1244.5112 781.21063 2.5582099 255 255 255
1477.9633 1023.4637 3.4397337 255 255 255
845.48236 908.48077 1.9840859 255 255 255
1410.0697 601.1308 2.6446655 255 255 255
2491.6201 3245.3669 6.5018811 255 255 255
1548.7439 2402.2676 5.1554775 255 255 255
3502.6938 2577.0864 4.3094616 255 255 255
866.94946 1025.2281 2.0279543 255 255 255
3067.45 2100.3171 4.1409173 255 255 255
820.6781 1516.1718 2.1526697 255 255 255
-33563.762 -21659.098 -66.381042 255 255 255
20989.316 18363.816 58.674881 255 255 255
784.89014 1173.1239 1.9987596 255 255 255
-1645.3759 -3085.4158 -5.6546946 255 255 255
600.20319 1167.9458 1.8555458 255 255 255
1949.144 1484.3619 4.7949047 255 255 255
3516.1382 1486.2274 4.6785245 255 255 255
-1884.5647 -411.38522 -3.2628784 255 255 255
-1921.2003 -2615.2231 -6.2466497 255 255 255
-903.98523 -263.88522 -1.8729773 255 255 255
944.53076 630.68872 1.7117035 255 255 255
11340.211 2801.2893 13.034053 255 255 255
1204.4346 1686.2654 3.0156636 255 255 255
14677.629 3016.5828 16.904228 255 255 255
873.97784 1489.226 2.1710713 255 255 255
833.04901 1598.6038 2.1904354 255 255 255
1528.2548 2621.3335 4.8804617 255 255 255
-148.05704 -174.8243 -1.3547186 255 255 255
-2939.7549 -1879.0397 -7.8216252 255 255 255
826.02643 661.07971 1.1648538 255 255 255
1399.8074 879.1546 2.7571273 255 255 255
932.54321 1009.1007 2.1010888 255 255 255
-4448.25 -3068.6035 -6.6283498 255 255 255
2361.7556 2034.2931 3.4605734 255 255 255
-570.50641 -634.06537 -2.0635018 255 255 255
704.88336 1333.3553 2.3216832 255 255 255
3750.093 2500.3621 4.588376 255 255 255
-3723.8486 -3216.2468 -11.441694 255 255 255
5622.4951 2213.4417 11.645578 255 255 255
-565.13593 -510.31332 -1.7079122 255 255 255
1172.9274 523.16425 2.6798279 255 255 255
-2458.5396 -2518.802 -8.1447134 255 255 255
582.90161 1056.2598 1.7858654 255 255 255
881.80756 1187.1179 2.080554 255 255 255
615.64215 1161.3256 1.8635397 255 255 255
1463.5768 3450.6431 7.8620677 255 255 255
-536.74152 -711.5108 -1.7698045 255 255 255
6547.7036 6838.873 16.492634 255 255 255
1252.3396 1667.0825 2.8027377 255 255 255
-2354.0535 -2604.7283 -6.4575019 255 255 255
600.07776 755.18549 1.6511441 255 255 255
700.28442 296.38147 1.5127141 255 255 255
2190.2556 2321.4001 5.1134953 255 255 255
-1578.238 -2509.9006 -6.6177125 255 255 255
-2395.6194 -2208.0647 -5.106873 255 255 255
550.44812 953.59503 1.7014134 255 255 255
1384.5095 295.28571 2.5338457 255 255 255
-5443.8481 -3689.9077 -9.370245 255 255 255
1036.6503 951.44293 2.2180789 255 255 255
317.93134 623.50287 1.2690804 255 255 255
878.87177 926.17926 2.024812 255 255 255
447.97858 1170.5146 1.7659214 255 255 255
650.35779 1181.5573 1.8984588 255 255 255
2076.23 2172.1604 5.1461325 255 255 255
4273.8916 2835.3101 4.8746996 255 255 255
660.38354 773.49933 1.7305144 255 255 255
-921.25122 -516.10181 -2.1028228 255 255 255
-1322.0145 -2527.813 -4.1114101 255 255 255
2058.8257 3144.2732 5.7357349 255 255 255
4285.1987 4636.8936 12.323001 255 255 255
-1588.9072 -1219.0168 -3.6506467 255 255 255
4042.5466 2925.4365 10.475408 255 255 255
666.07904 1183.4988 1.9121165 255 255 255
1162.4541 756.29498 2.4547107 255 255 255
4892.3647 2406.6304 5.8918505 255 255 255
3477.8235 2069.1348 4.5898285 255 255 255
-3176.4324 -6756.6641 -14.570304 255 255 255
1476.9264 2216.5547 4.5852213 255 255 255
4919.3433 2488.7644 5.6824427 255 255 255
-748.18024 -1826.0208 -5.2037416 255 255 255
1396.6907 656.32922 2.3995826 255 255 255
2956.2417 4940.1558 7.8804779 255 255 255
1324.797 721.53204 1.7368853 255 255 255
1762.9159 386.582 3.1455066 255 255 255
-25121.811 -32967.953 -90.107529 255 255 255
667.0639 1394.5905 2.0130773 255 255 255
4005.448 2097.9873 5.1776247 255 255 255
-4172.8647 -3270.1589 -11.176426 255 255 255
93268.992 37263.816 107.26816 255 255 255
4210.123 1586.0675 9.7280121 255 255 255
-5324.7275 -5162.1553 -13.898849 255 255 255
807.59076 1335.1135 2.656625 255 255 255
1997.493 2248.5955 4.8489108 255 255 255
5732.248 2737.7422 6.4250436 255 255 255
-699.74298 -482.88846 -1.7886592 255 255 255
-1322.8751 -1625.0704 -4.1365271 255 255 255
3814.5095 2450.9214 8.2892256 255 255 255
1018.0714 1273.2814 2.2186825 255 255 255
532.13245 701.5354 1.5505561 255 255 255
1114.1403 749.29797 2.3791492 255 255 255
-11715.341 -10626.227 -30.107887 255 255 255
-13893.007 -12736.13 -40.24535 255 255 255
708.41443 549.33514 1.0919483 255 255 255
19278.887 13476.43 50.637028 255 255 255
-3285.5002 -2293.7935 -7.5510998 255 255 255
-1231.3964 -1049.7957 -2.9069052 255 255 255
-3598.4536 -4893.877 -10.85065 255 255 255
-4134.2676 -4369.499 -12.680732 255 255 255
844.74915 907.60223 1.9818985 255 255 255
-6610.4829 -6795.8599 -17.691818 255 255 255
1618.4271 708.88214 3.2951994 255 255 255
1678.7467 1110.4136 3.0341003 255 255 255
-4793.9971 -5100.1201 -10.464361 255 255 255
5217.6831 8042.8311 14.35545 255 255 255
1532.2781 954.99341 2.9137888 255 255 255
117.99564 147.0481 0.50853211 255 255 255
839.52484 1227.2446 2.058713 255 255 255
5039.6187 3120.1221 10.19732 255 255 255
-1678.4814 -1486.1332 -5.8595481 255 255 255
830.11432 922.7334 1.9708304 255 255 255
-1366.3445 -2359.04 -5.6048527 255 255 255
876.01459 810.41675 2.2612646 255 255 255
-163.47404 -522.51758 -2.2029605 255 255 255
-25017.602 -21944.645 -74.688942 255 255 255
1321.5266 987.17798 3.0139639 255 255 255
1403.8457 781.36749 3.0161524 255 255 255
-2611.1089 -1803.5509 -8.4048576 255 255 255
155.69777 190.75293 0.63561207 255 255 255
813.13611 784.54987 1.9299328 255 255 255
1436.407 859.70306 2.8219357 255 255 255
-5106.0381 -7501.4912 -15.358517 255 255 255
254.3465 347.31323 0.86540568 255 255 255
-845.7215 -299.56326 -1.833326 255 255 255
-428.83844 -198.10567 -1.4888192 255 255 255
2357.2639 1713.9655 2.8904593 255 255 255
748.55188 1135.7974 1.9522157 255 255 255
10381.174 5371.6812 12.481714 255 255 255
700.70703 1658.8654 2.7615654 255 255 255
627.85486 608.07654 1.6453372 255 255 255
-1122.7458 -982.0575 -3.5027163 255 255 255
13388.769 2950.01 15.344016 255 255 255
982.57721 1259.4373 2.1853366 255 255 255
-22633.654 -17861.766 -34.975094 255 255 255
-5823.5513 -7908.3633 -16.708651 255 255 255
11284.573 5442.3081 16.327953 255 255 255
-287.44122 -294.48663 -1.5735799 255 255 255
2873.5071 1739.6927 4.850781 255 255 255
1478.2085 759.58679 2.9774184 255 255 255
-1743.5605 -1755.5649 -6.48702 255 255 255
-213.50258 -804.8147 -2.0844116 255 255 255
984.02661 621.71033 2.2307928 255 255 255
906.2276 798.81311 2.0603604 255 255 255
-143.80658 -138.2899 -1.3034827 255 255 255
-8972.7129 -4821.1968 -12.480288 255 255 255
-5328.3887 -5830.2837 -16.42403 255 255 255
875.29065 945.85687 2.0247736 255 255 255
-362.19312 -2022.4745 -4.4022069 255 255 255
1148.1965 629.966 2.5199609 255 255 255
28097.811 12164.602 42.738373 255 255 255
-4628.9531 -2171.9656 -10.400558 255 255 255
3183.7236 1144.9834 6.8349552 255 255 255
-723.47986 -574.41412 -2.5074751 255 255 255
179.27551 361.98544 0.86149037 255 255 255
-1621.4899 -1637.777 -4.7231207 255 255 255
-1093.2489 -637.18988 -2.2601871 255 255 255
342.5047 308.99948 0.85534817 255 255 255
5579.0459 2965.4644 9.3209887 255 255 255
12688.316 2861.2803 14.656772 255 255 255
-1817.863 -890.98737 -3.0142555 255 255 255
577.49103 1072.238 1.7894483 255 255 255
-1080.3276 -1063.7747 -2.799274 255 255 255
-2125.7278 -2587.491 -8.5450764 255 255 255
-2082.8718 -2179.4307 -6.4681792 255 255 255
1158.3717 476.47794 2.7237778 255 255 255
940.60608 777.78674 2.111738 255 255 255
1234.463 563.78082 2.7593296 255 255 255
712.87085 742.52332 1.7906169 255 255 255
1271.8478 1327.738 2.4357898 255 255 255
-1218.1442 -868.7594 -3.9542413 255 255 255
16970.045 3194.5747 19.307432 255 255 255
951.59149 828.25037 2.1176851 255 255 255
84.5028 490.41257 0.97029573 255 255 255
6980.4805 6725.8809 20.920166 255 255 255
936.73547 930.47119 2.097995 255 255 255
925.53247 891.05872 2.0800467 255 255 255
737.83331 1137.5952 1.9480554 255 255 255
-40.725395 -106.51393 -1.2841216 255 255 255
949.62274 948.95544 2.1157987 255 255 255
-4504.3979 -3655.6531 -7.0657001 255 255 255
1947.8512 1897.6075 3.0988691 255 255 255
428.8598 773.49866 1.4857684 255 255 255
597.59277 426.6272 1.5903472 255 255 255
13401.378 2906.2422 15.398901 255 255 255
3637.4768 2178.9944 4.693222 255 255 255
267.74408 763.67963 1.186914 255 255 255
3507.3337 2579.6167 4.3161216 255 255 255
963.21277 1024.3679 2.1349437 255 255 255
845.53955 936.4942 1.990159 255 255 255
1176.4843 689.02435 2.519258 255 255 255
401.50833 299.32352 1.2031926 255 255 255
444.94626 1211.0334 1.7932442 255 255 255
3620.1233 8053.4868 15.792665 255 255 255
-1353.8301 -916.67047 -3.6392078 255 255 255
772.02881 1361.2856 2.064441 255 255 255
-952.86261 -1841.4824 -4.6886101 255 255 255
350.71005 282.82986 0.77226007 255 255 255
551.50348 461.36469 0.62452233 255 255 255
308.43729 658.03296 1.2886503 255 255 255
2202.8113 4682.9858 7.1970801 255 255 255
27418.592 23633.1 33.328228 255 255 255
193.85141 792.48657 1.3514578 255 255 255
12638.196 2862.3059 14.578057 255 255 255
2016.472 2266.9355 6.2571149 255 255 255
-2548.0464 -1785.4736 -7.1683769 255 255 255
1093.9449 1155.0964 2.2781835 255 255 255
-436.0004 -466.00058 -2.3091741 255 255 255
370.98364 852.36932 1.4957812 255 255 255
1279.0187 788.81104 2.9037983 255 255 255
-1767.9993 -3445.7263 -9.80373 255 255 255
-880.24969 -1983.0648 -4.1475282 255 255 255
-828.3949 -2783.4165 -6.0398164 255 255 255
-1756.6849 -2046.9161 -4.9363985 255 255 255
-944.53064 -465.10971 -2.1301203 255 255 255
1899.6923 1875.1517 4.8744235 255 255 255
6517.3491 3318.9094 11.026102 255 255 255
1636.0334 882.40649 3.129643 255 255 255
600.05865 755.16791 1.6516159 255 255 255
-1430.0682 -841.3418 -4.9032845 255 255 255
1831.479 1949.6863 4.7669744 255 255 255
6383.0137 2434.5818 7.6037836 255 255 255
-1850.0667 -1562.1835 -4.8362427 255 255 255
4915.5444 3911.0632 10.179257 255 255 255
634.71857 984.5954 1.791045 255 255 255
-189.42522 -183.94202 -1.5801167 255 255 255
13619.111 3139.7871 14.93646 255 255 255
247.91199 278.20877 0.71080095 255 255 255
3076.3306 4170.3218 10.332225 255 255 255
5751.1963 3187.3843 8.1440105 255 255 255
-1865.3217 -3335.2817 -6.6984015 255 255 255
1055.4868 516.23602 2.4539943 255 255 255
6987.2373 3470.365 11.148443 255 255 255
8296.2754 3903.9915 13.636024 255 255 255
1174.5852 688.57062 2.2106049 255 255 255
-367.88739 -186.43237 -1.4280243 255 255 255
3000.0142 2232.1182 8.0921707 255 255 255
8044.6323 2501.8992 9.544034 255 255 255
14764.804 3049.1768 16.806162 255 255 255
606.42175 522.15662 1.6011792 255 255 255
664.35071 1441.7264 2.0365081 255 255 255
1714.7424 682.32263 3.524204 255 255 255
978.53656 484.32281 1.991491 255 255 255
647.21106 1441.548 2.0284297 255 255 255
-378.84641 -260.79919 -1.859427 255 255 255
-488.53934 -760.75269 -1.819397 255 255 255
5026.7393 2747.6816 5.6685266 255 255 255
754.40735 1381.3745 4.3793888 255 255 255
860.76245 728.69574 1.9990957 255 255 255
-634.35095 -560.33008 -1.8248066 255 255 255
396.94662 402.71591 1.2179638 255 255 255
8626.1885 4371.7129 12.247197 255 255 255
-1010.999 -1795.6578 -4.3048677 255 255 255
1065.5084 882.28461 2.2637899 255 255 255
-6341.1069 -5477.4937 -18.25742 255 255 255
784.74841 722.52332 1.8915321 255 255 255
5892.5581 1358.3373 11.798198 255 255 255
-447.04495 -329.13541 -1.666083 255 255 255
604.04828 1104.8779 1.8268139 255 255 255
-200.64961 -113.3046 -1.472862 255 255 255
11416.085 2818.7131 13.102842 255 255 255
-220.02025 -169.51674 -1.5756221 255 255 255
1828.0764 3000.176 5.3022938 255 255 255
-55859.203 -67347.141 -179.25111 255 255 255
2346.1736 2022.9235 3.444118 255 255 255
1345.0646 680.30621 2.8338163 255 255 255
-1494.2709 -814.77362 -5.2449574 255 255 255
-197.48199 -379.40884 -1.7008591 255 255 255
4889.374 2404.8467 5.8858738 255 255 255
1242.9469 786.30701 2.5187898 255 255 255
4812.6372 2775.0986 5.4439545 255 255 255
-1142.8557 -605.46692 -2.2771118 255 255 255
2640.8115 1893.9917 6.610168 255 255 255
12794.46 2907.238 14.68462 255 255 255
609.50348 568.09186 1.61115 255 255 255
2471.2512 1636.2765 5.0104427 255 255 255
453.29587 393.72519 1.3134884 255 255 255
1138.196 696.37048 2.4541693 255 255 255
4910.2959 2413.7903 5.9049244 255 255 255
55.293587 214.26772 0.54862255 255 255 255
874.05981 1045.6375 2.0417924 255 255 255
-1497.2029 -1440.8795 -3.7857277 255 255 255
