ply
format ascii 1.0
comment PCL generated
element vertex 1064
property float x
property float y
property float z
property uchar red
property uchar green
property uchar blue
element face 0
element camera 0
property float view_px
property float view_py
property float view_pz
property float x_axisx
property float x_axisy
property float x_axisz
property float y_axisx
property float y_axisy
property float y_axisz
property float z_axisx
property float z_axisy
property float z_axisz
property float focal
property float scalex
property float scaley
property float centerx
property float centery
property int viewportx
property int viewporty
property float k1
property float k2
end_header
-14.546832 -60.215084 -1.1159707 255 255 255
-7.1903324 -60.309937 -1.0916749 255 255 255
-7.0640349 -61.124485 -1.1187371 255 255 255
-5.9960089 -60.648228 -1.1032565 255 255 255
-4.5524211 -62.7603 -1.1737082 255 255 255
-0.39447945 -48.371002 -1.1395073 255 255 255
-13.323327 -59.394608 -1.1040716 255 255 255
-8.3288593 -64.110069 -1.1899211 255 255 255
-2.999234 -62.232571 -1.1337602 255 255 255
-8.9364309 -61.022446 -1.1326544 255 255 255
-5.6057591 -63.347046 -1.1869613 255 255 255
-6.301271 -62.962078 -1.1754688 255 255 255
-5.6518307 -60.598949 -1.1016927 255 255 255
-5.6041012 -63.279354 -1.1849989 255 255 255
148.92311 -35.662083 -0.85753793 255 255 255
-6.7920022 -63.470028 -1.1886811 255 255 255
143.66667 -33.574753 -0.78698146 255 255 255
-6.7787333 -60.950127 -1.1132977 255 255 255
-0.042069424 -65.838913 -1.1936435 255 255 255
207.26634 -7.5808325 -0.39811754 255 255 255
-5.0835071 -62.945103 -1.1763896 255 255 255
0.14730084 -62.513378 -1.2249882 255 255 255
28.874968 -65.90921 -1.2807527 255 255 255
-6.1494374 -63.101501 -1.1795793 255 255 255
-2.4708381 -62.649593 -1.1655846 255 255 255
-5.737998 -63.544384 -1.1922199 255 255 255
-6.5861764 -60.617168 -1.1017112 255 255 255
-15.359511 -61.485847 -1.1351026 255 255 255
-3.0054736 -59.540905 -1.0774127 255 255 255
-13.633037 -59.770668 -1.1270278 255 255 255
19.848589 -68.498047 -1.264326 255 255 255
-6.360651 -62.972889 -1.1756765 255 255 255
-6.0295372 -63.109558 -1.1799359 255 255 255
-8.8295374 -51.931057 -1.0920347 255 255 255
-2.7327311 -58.432079 -1.116635 255 255 255
-0.71030319 -65.846764 -1.2002298 255 255 255
-5.4383483 -62.502068 -1.1634605 255 255 255
-5.5204625 -63.379616 -1.1878934 255 255 255
8.5124054 -59.466106 -1.1493319 255 255 255
162.49789 -30.228735 -0.7623207 255 255 255
-6.0787058 -60.60181 -1.1014601 255 255 255
-2.4211643 -69.238319 -1.3346648 255 255 255
6.2249398 -65.387566 -1.1922873 255 255 255
-4.3762136 -60.657555 -1.1083856 255 255 255
-6.0688019 -63.102077 -1.1796733 255 255 255
20.303982 -55.374874 -1.0799013 255 255 255
-6.6248088 -63.535141 -1.1907593 255 255 255
-0.099106908 -65.580414 -1.2099698 255 255 255
-5.8952117 -63.3554 -1.1868831 255 255 255
821.86609 96.799469 0.1043647 255 255 255
-7.8069053 -60.72789 -1.1032592 255 255 255
-7.1160407 -60.292034 -1.0907816 255 255 255
-9.5482349 -58.562317 -1.1009773 255 255 255
-17.199837 -59.536171 -1.1061018 255 255 255
-6.8707881 -63.325191 -1.1849077 255 255 255
-7.1143341 -60.274891 -1.0904559 255 255 255
-5.8300529 -60.592598 -1.1013587 255 255 255
5.7226338 -59.529903 -1.1002946 255 255 255
-10.413271 -63.892132 -1.1869212 255 255 255
-2.9705009 -59.072208 -1.102312 255 255 255
-17.357805 -57.757835 -1.0710912 255 255 255
2.4767764 -64.718498 -1.1806504 255 255 255
89.607796 -29.344589 -0.72470772 255 255 255
-5.7824264 -60.578617 -1.1008929 255 255 255
-10.710985 -57.589512 -1.0780263 255 255 255
-5.5041041 -64.02623 -1.2078675 255 255 255
-5.770184 -63.488441 -1.1906555 255 255 255
360.42825 21.899197 -0.40701613 255 255 255
-5.8358216 -60.592148 -1.1013362 255 255 255
-6.8221416 -63.303928 -1.1843734 255 255 255
-274.88089 -117.00483 -1.6571611 255 255 255
19.523129 -59.269463 -1.1347326 255 255 255
-4.877738 -60.917484 -1.1139553 255 255 255
16.383675 -58.111481 -1.1025457 255 255 255
1.2214117 -59.404106 -1.1308892 255 255 255
-19.665045 -55.947277 -1.0560795 255 255 255
-6.3518858 -63.524395 -1.1908643 255 255 255
-5.972075 -64.009094 -1.1900154 255 255 255
195.61143 -30.455591 -0.77222282 255 255 255
-8.8751383 -60.554878 -1.1307955 255 255 255
-5.9203973 -63.59623 -1.1934835 255 255 255
-6.8006411 -63.254372 -1.1829896 255 255 255
-7.8300838 -65.322624 -1.219666 255 255 255
-4.1737189 -65.296562 -1.2394222 255 255 255
-23.467598 -61.358776 -1.1483746 255 255 255
-24.528036 -59.239594 -1.1075491 255 255 255
79.108101 -45.883556 -0.92484772 255 255 255
-4.7467737 -56.803047 -1.0743395 255 255 255
210.21898 -31.29393 -0.77757561 255 255 255
-7.1138062 -61.588566 -1.1331201 255 255 255
-0.95124573 -58.598835 -1.095741 255 255 255
5.3904815 -62.576187 -1.1860088 255 255 255
-5.836565 -63.699467 -1.1963277 255 255 255
-17.505592 -58.76524 -1.1035123 255 255 255
9.925498 -59.421673 -1.0964668 255 255 255
165.75597 -30.195637 -0.76208562 255 255 255
-4.830513 -60.907185 -1.113694 255 255 255
-2.0454242 -53.656212 -1.0644877 255 255 255
164.61752 -30.183376 -0.76160842 255 255 255
14.805525 -69.387108 -1.2718072 255 255 255
-5.3181057 -60.456352 -1.096826 255 255 255
0.99889809 -58.658188 -1.0660484 255 255 255
-6.2940507 -63.472824 -1.1894889 255 255 255
-6.7601681 -63.24115 -1.1826403 255 255 255
-2.6307831 -58.468853 -1.0882676 255 255 255
-6.3939686 -62.95676 -1.1751974 255 255 255
-7.0941305 -60.266716 -1.0902324 255 255 255
-5.9094181 -63.383492 -1.1876609 255 255 255
143.61369 -29.809324 -0.75098556 255 255 255
211.75381 -31.537296 -0.78036058 255 255 255
-8.167448 -65.178253 -1.1843383 255 255 255
62.423203 -41.743225 -0.8385734 255 255 255
-6.3647795 -63.164227 -1.1811062 255 255 255
15.627419 -59.250446 -1.121617 255 255 255
-7.0980515 -60.296322 -1.090782 255 255 255
4.3931513 -60.499466 -1.0999142 255 255 255
3.8201697 -64.29335 -1.1705968 255 255 255
-23.498365 -59.898487 -1.1079279 255 255 255
256.44046 5.5194521 -0.59109092 255 255 255
0.65216178 -60.329357 -1.0929376 255 255 255
-3.1077211 -61.482517 -1.1612412 255 255 255
17.970087 -56.305202 -1.0747366 255 255 255
-14.188803 -59.480236 -1.1028756 255 255 255
-15.680747 -60.065792 -1.1624331 255 255 255
-15.315429 -61.163021 -1.1056653 255 255 255
-5.808248 -61.88192 -1.166809 255 255 255
30.322159 -59.025623 -1.084373 255 255 255
164.642 -30.168676 -0.76152605 255 255 255
-11.815934 -56.434151 -1.0766051 255 255 255
-12.632266 -59.821442 -1.0751771 255 255 255
-4.1526499 -59.315918 -1.0782738 255 255 255
-2.4114382 -60.8615 -1.1155576 255 255 255
7.1402173 -62.838478 -1.1516136 255 255 255
-169.63817 -90.958466 -1.191296 255 255 255
161.72603 -30.239462 -0.76253325 255 255 255
-10.609362 -60.425629 -1.1202916 255 255 255
1.3417615 -63.26442 -1.1699873 255 255 255
8121.8203 2064.2734 12.697617 255 255 255
-7.2972164 -60.500862 -1.0977726 255 255 255
28.968243 -54.105923 -1.0154704 255 255 255
-19.044575 -62.001675 -1.1305575 255 255 255
65.060852 -48.239948 -0.94024879 255 255 255
-5.4194055 -59.755035 -1.0783412 255 255 255
-16.212313 -59.809692 -1.1305792 255 255 255
6.2341099 -67.023895 -1.257656 255 255 255
-18.498747 -61.36005 -1.1232164 255 255 255
29.417915 -63.688698 -1.2324575 255 255 255
-5.8244448 -59.779835 -1.0751597 255 255 255
-6.9850755 -60.387039 -1.0934536 255 255 255
8.2052708 -56.215012 -1.0758593 255 255 255
-6.7658749 -63.845287 -1.1605721 255 255 255
13.491467 -55.02066 -1.0899413 255 255 255
14.660864 -57.748627 -1.0671376 255 255 255
-5.8762822 -60.576019 -1.1007333 255 255 255
-7.1872716 -61.937683 -1.1434014 255 255 255
-7.4664626 -63.592983 -1.1896534 255 255 255
-6.0956182 -60.191513 -1.0856365 255 255 255
-8.7973757 -62.157837 -1.1757998 255 255 255
9.5733938 -60.770252 -1.1317371 255 255 255
65.556358 -47.690533 -0.94635653 255 255 255
10.86837 -56.73101 -1.1100367 255 255 255
9.9470711 -59.516468 -1.0957264 255 255 255
-995.7984 -270.67911 -3.0202622 255 255 255
10.745975 -67.192719 -1.2292311 255 255 255
6.1560636 -60.504913 -1.156149 255 255 255
-2.4422362 -65.357224 -1.2085712 255 255 255
-7.1307535 -61.634785 -1.1344471 255 255 255
12.222289 -59.205406 -1.0887493 255 255 255
-6.3504882 -61.558632 -1.1335757 255 255 255
35.079494 -56.195992 -1.0987599 255 255 255
-6.1586185 -59.916199 -1.0815839 255 255 255
-7.0597148 -61.051964 -1.1301861 255 255 255
-392.46295 -156.50346 -1.5533555 255 255 255
14.135319 -61.854412 -1.1693815 255 255 255
-6.7013493 -64.194977 -1.1913806 255 255 255
-26.283632 -59.408005 -1.1194794 255 255 255
256.23251 1.0682497 -0.58849722 255 255 255
239.17203 11.623484 -0.40291125 255 255 255
163.56508 -30.10334 -0.760409 255 255 255
-5.8104582 -63.37804 -1.1874908 255 255 255
-34.118473 -56.876457 -1.0535429 255 255 255
0.98790246 -66.040512 -1.2460349 255 255 255
-0.35310683 -63.493591 -1.1595478 255 255 255
4.9066834 -49.040184 -1.0799115 255 255 255
-6.3110461 -61.196507 -1.1117221 255 255 255
19.87414 -61.569382 -1.1726199 255 255 255
-6.7356529 -60.378635 -1.0929437 255 255 255
128.06824 -25.633039 -0.72443992 255 255 255
-6.2521996 -60.514717 -1.0981389 255 255 255
-6.6545229 -61.053825 -1.1166465 255 255 255
166.0858 -30.203651 -0.76217312 255 255 255
12.120808 -54.121155 -1.050277 255 255 255
-5.5396843 -63.698643 -1.1965798 255 255 255
-7.2067642 -60.645878 -1.1026161 255 255 255
19.2533 -51.424938 -0.97084147 255 255 255
162.13239 -29.871983 -0.75478959 255 255 255
130.9537 -38.257641 -0.88064712 255 255 255
-6.9162474 -60.426323 -1.0947089 255 255 255
13.8187 -61.854179 -1.1442151 255 255 255
-5.8037271 -63.29324 -1.1851835 255 255 255
35.597874 -53.193687 -1.0402384 255 255 255
-7.2828941 -61.872639 -1.1371026 255 255 255
-6.6410031 -62.997025 -1.1760334 255 255 255
1098.8865 186.34109 0.70993936 255 255 255
-11.961653 -59.907539 -1.1080054 255 255 255
156.06013 -18.878405 -0.73660088 255 255 255
228.90744 -12.218868 -0.64144564 255 255 255
-2.5560949 -61.177212 -1.1261551 255 255 255
0.481253 -62.439598 -1.1686327 255 255 255
13.332549 -56.569332 -1.1256249 255 255 255
-16.31175 -58.207508 -1.1020403 255 255 255
-16.530016 -58.602623 -1.0900116 255 255 255
-22.610163 -58.139297 -1.0937538 255 255 255
19.122189 -58.090904 -1.0893492 255 255 255
-7.0374503 -60.391602 -1.0937279 255 255 255
-15.316191 -59.350971 -1.0687053 255 255 255
-5.0860081 -59.713703 -1.0796793 255 255 255
-7.2539039 -62.252819 -1.1526892 255 255 255
20.076174 -56.68903 -1.0818264 255 255 255
94.220749 -36.210732 -0.75000632 255 255 255
125.61623 -30.129 -0.73550236 255 255 255
4.137538 -63.474022 -1.1614246 255 255 255
29.446226 -52.181107 -1.0530984 255 255 255
-27.84864 -57.145329 -1.0744621 255 255 255
-7.7206335 -62.492012 -1.1638987 255 255 255
-18.521862 -61.402565 -1.1227475 255 255 255
-5.7662253 -60.599113 -1.101648 255 255 255
-5.7769785 -59.83337 -1.0802222 255 255 255
-380.83798 -166.68687 -1.6872604 255 255 255
-6.8650503 -60.369133 -1.0927286 255 255 255
-5.3773022 -59.599709 -1.1220857 255 255 255
0.47171301 -64.949471 -1.2181177 255 255 255
-27.407585 -59.331593 -1.130699 255 255 255
178.57568 -32.871864 -0.7874248 255 255 255
-6.0528436 -62.907505 -1.1742268 255 255 255
4.8399496 -57.622131 -1.108313 255 255 255
-14.743302 -59.060921 -1.1048687 255 255 255
-11.553446 -61.22937 -1.1286834 255 255 255
-9.1573038 -60.526871 -1.1148927 255 255 255
224.26611 -30.736618 -0.77868515 255 255 255
-6.1803188 -59.684212 -1.104044 255 255 255
-13.217602 -58.779083 -1.0902152 255 255 255
208.07794 -30.611029 -0.77610552 255 255 255
6.3047214 -66.611664 -1.2651905 255 255 255
-8.5300169 -61.852707 -1.1760107 255 255 255
-2.3642173 -61.074783 -1.1230055 255 255 255
-12.518045 -60.898483 -1.1283979 255 255 255
-1.7853422 -63.872555 -1.2030162 255 255 255
7.8697586 -55.956989 -1.077617 255 255 255
14.23281 -56.209126 -1.0787923 255 255 255
-8.0027752 -65.149956 -1.1871127 255 255 255
8.3528948 -56.649567 -1.083524 255 255 255
-17.97838 -61.581612 -1.1341109 255 255 255
1.5065581 -60.998505 -1.1387712 255 255 255
-6.2141094 -60.58968 -1.1008681 255 255 255
7.6842213 -58.046864 -1.1048352 255 255 255
205.88342 -30.672562 -0.77108908 255 255 255
-0.16253892 -59.079281 -1.0747699 255 255 255
7.2462506 -50.523155 -1.0619022 255 255 255
-12.683314 -62.223549 -1.1537955 255 255 255
-6.5428967 -60.612957 -1.101589 255 255 255
235.49532 21.868387 -0.2002854 255 255 255
-9.0548906 -55.090279 -1.0222539 255 255 255
-7.1312366 -60.25658 -1.0909945 255 255 255
-2715.7922 -645.51758 -5.177012 255 255 255
-24.441088 -61.232544 -1.1356804 255 255 255
12.009384 -57.04911 -1.0799664 255 255 255
228.62125 -30.78281 -0.77960533 255 255 255
-6.4893718 -60.587799 -1.1006697 255 255 255
7.5032935 -67.264206 -1.26106 255 255 255
216.06288 -31.917707 -0.78519994 255 255 255
-1.744552 -58.099495 -1.1068723 255 255 255
-0.1822902 -58.898701 -1.0791575 255 255 255
6.6322069 -59.599342 -1.0935892 255 255 255
-6.3572001 -60.539501 -1.0989349 255 255 255
-7.1338458 -64.17598 -1.2051103 255 255 255
-20.436029 -60.701538 -1.145676 255 255 255
113.07741 -22.738813 -0.67765617 255 255 255
119.68761 -31.686974 -0.79213059 255 255 255
134.24939 -4.1567216 -0.83698297 255 255 255
18.880812 -59.761772 -1.0989469 255 255 255
-5.2044168 -59.734604 -1.0796353 255 255 255
-4.0370059 -59.468002 -1.0644113 255 255 255
-0.75790781 -56.432335 -1.0887108 255 255 255
10.076972 -51.908104 -1.1235543 255 255 255
-14.448246 -59.544174 -1.1202847 255 255 255
36.604542 -55.550766 -1.0542319 255 255 255
-167.11504 -100.79737 -1.5002906 255 255 255
6.7731934 -59.090195 -1.0909202 255 255 255
259.7131 5.4423566 -0.50069124 255 255 255
-8.6812725 -59.883091 -1.1066307 255 255 255
-4.0884461 -60.681915 -1.1066887 255 255 255
-7.8780203 -58.529861 -1.1088046 255 255 255
9.4723482 -61.120434 -1.1430753 255 255 255
-7.1698461 -61.046577 -1.1163452 255 255 255
8.7122087 -63.274734 -1.1556104 255 255 255
6.5371742 -59.659286 -1.0974554 255 255 255
1.8968229 -56.544292 -1.0749576 255 255 255
129.83087 -36.138123 -0.82020974 255 255 255
-1538.6627 -504.73273 -5.093863 255 255 255
18.476076 -53.941833 -1.0766009 255 255 255
1.7968264 -63.571087 -1.1594394 255 255 255
-7.5842533 -63.783649 -1.1852901 255 255 255
20.694326 -55.702656 -1.069622 255 255 255
24.975843 -62.671909 -1.2359005 255 255 255
-5575.0645 -1229.9701 -10.428039 255 255 255
0.60626245 -54.033981 -1.0240449 255 255 255
181.44357 -30.616987 -0.76309437 255 255 255
-5.8491139 -59.744316 -1.0693355 255 255 255
-12.858582 -62.100414 -1.1548713 255 255 255
15.978981 -60.400288 -1.1479155 255 255 255
5.9730616 -63.053322 -1.1509812 255 255 255
-5.5314927 -59.661659 -1.0673649 255 255 255
-3.7788727 -59.322887 -1.164975 255 255 255
-1.4876343 -59.068378 -1.0701969 255 255 255
-516.58417 -134.12958 -1.556838 255 255 255
-6.6501198 -63.02557 -1.1769663 255 255 255
0.83063126 -60.837234 -1.126639 255 255 255
-0.11101378 -57.837749 -1.0495232 255 255 255
173.70372 -30.005497 -0.75704426 255 255 255
-7.5456057 -63.16909 -1.178476 255 255 255
0.44365856 -61.748283 -1.1157279 255 255 255
223.22224 -14.938476 -0.71816248 255 255 255
-17.1775 -60.254429 -1.1149112 255 255 255
7.1835852 -63.108665 -1.1639239 255 255 255
170.90875 -21.686766 -0.70621091 255 255 255
-14.035494 -60.776108 -1.1128074 255 255 255
-8.2633991 -54.830898 -1.1574891 255 255 255
157.43863 -32.993847 -0.87409037 255 255 255
109.98831 -20.328732 -0.68822944 255 255 255
23.922211 -58.471661 -1.063959 255 255 255
25.500683 -57.158974 -1.0835073 255 255 255
-23.05595 -58.098835 -1.0989546 255 255 255
287.56198 5.5715833 -0.57367104 255 255 255
113.39146 -25.651102 -0.80078059 255 255 255
33.26371 -56.086182 -1.0566956 255 255 255
-2.8879383 -59.554565 -1.0818955 255 255 255
21.416288 -56.739544 -1.0966876 255 255 255
-5.8326173 -60.093403 -1.0870279 255 255 255
-6.1356673 -60.545265 -1.0993137 255 255 255
9.6105957 -59.073288 -1.0706792 255 255 255
-7.0547709 -60.247677 -1.092617 255 255 255
20.445496 -56.098423 -1.0797373 255 255 255
20.271938 -56.381542 -1.0815675 255 255 255
-13.041699 -61.807899 -1.117673 255 255 255
35.267498 -61.034416 -1.0966581 255 255 255
-2.9071147 -61.712959 -1.1426997 255 255 255
256.88541 -5.390276 -0.62439913 255 255 255
161.82677 -29.854689 -0.7544058 255 255 255
867.99713 169.79451 0.85485011 255 255 255
113.52299 -34.071838 -0.75124526 255 255 255
6.8426089 -65.276375 -1.1992722 255 255 255
218.12401 -30.584774 -0.77503574 255 255 255
102.93415 -28.732857 -0.71288425 255 255 255
-5.9709067 -64.418671 -1.2150848 255 255 255
-5.7648702 -60.66098 -1.1039271 255 255 255
178.54631 -32.872604 -0.78737473 255 255 255
-4.5311909 -65.929329 -1.1995716 255 255 255
219.49666 -30.620741 -0.77563202 255 255 255
175.78523 -31.194927 -0.76730096 255 255 255
-6.2839651 -60.532921 -1.0987573 255 255 255
-4.5980177 -59.417118 -1.0633649 255 255 255
-6.2910399 -60.539646 -1.0990303 255 255 255
-13.454388 -60.348976 -1.1381683 255 255 255
150.15941 -30.405993 -0.74982238 255 255 255
-5.4454799 -59.759624 -1.0784019 255 255 255
-21.85911 -58.379787 -1.0766947 255 255 255
-7.0976553 -61.008991 -1.1152112 255 255 255
-6.9350567 -62.109001 -1.1599553 255 255 255
-15.441694 -60.252209 -1.1145018 255 255 255
151.0141 -30.23546 -0.76154572 255 255 255
-6.827877 -60.911694 -1.1119119 255 255 255
-14.061629 -60.319077 -1.1125402 255 255 255
-5.2812047 -56.711506 -1.0762454 255 255 255
-2.9562023 -58.545895 -1.0761991 255 255 255
-25.028046 -56.977257 -1.0518016 255 255 255
-6.3404422 -63.16729 -1.1811585 255 255 255
-13.061902 -69.903053 -1.3400736 255 255 255
12.64418 -57.979504 -1.0771158 255 255 255
-8.8589573 -60.825642 -1.1323823 255 255 255
-482.14539 -160.28654 -2.1921375 255 255 255
219.39073 -30.650948 -0.77584904 255 255 255
-5.373908 -63.966373 -1.2038741 255 255 255
221.97304 -25.252247 -0.73774946 255 255 255
-6.3560166 -60.525951 -1.0984794 255 255 255
-1.3956568 -60.984093 -1.1372991 255 255 255
-8.0126896 -59.719292 -1.1111027 255 255 255
-6.3183708 -60.961273 -1.1141201 255 255 255
-4.4400444 -59.40723 -1.1218845 255 255 255
-10.603381 -62.152271 -1.1563444 255 255 255
-5.7779212 -60.650848 -1.1035593 255 255 255
-6.4871507 -61.138432 -1.1437794 255 255 255
-7.3181453 -57.15501 -1.1007645 255 255 255
-15.061292 -59.398708 -1.0877818 255 255 255
-1.7488568 -60.599739 -1.0950624 255 255 255
-2.4373837 -61.164017 -1.1129799 255 255 255
-15.765304 -62.270554 -1.1231009 255 255 255
-5.8788257 -60.606472 -1.1017772 255 255 255
-12.569139 -57.879852 -1.0963439 255 255 255
-5.716557 -58.311462 -1.1344267 255 255 255
-12.215682 -59.819626 -1.1064302 255 255 255
-6.12325 -62.71516 -1.1685642 255 255 255
-2.4147885 -63.363743 -1.1728016 255 255 255
-6.1189446 -59.844765 -1.0754088 255 255 255
-7.5806727 -59.345787 -1.1471288 255 255 255
-6.7708883 -60.213928 -1.0871772 255 255 255
9.6549301 -59.089272 -1.0709219 255 255 255
-5.8860245 -60.580936 -1.1008368 255 255 255
-5.9514127 -60.085625 -1.1175997 255 255 255
116.97367 -38.078957 -0.83730328 255 255 255
1166.7476 130.25876 0.72870284 255 255 255
-3.0733383 -60.437393 -1.1314707 255 255 255
315.12387 -0.70872283 -0.66217929 255 255 255
6.4377522 -60.205891 -1.1050308 255 255 255
1.2887768 -59.696724 -1.1032102 255 255 255
772.90002 82.217712 0.52967048 255 255 255
-6.9247589 -61.000549 -1.114881 255 255 255
3.2134049 -59.455082 -1.1023371 255 255 255
360.14151 7.9184432 -0.34485137 255 255 255
-5.1181612 -60.272537 -1.1159701 255 255 255
-5.6237521 -63.348625 -1.1869891 255 255 255
-4.7188702 -62.641979 -1.1798435 255 255 255
3.2727985 -58.237801 -1.0713474 255 255 255
3.7197804 -64.058006 -1.1685466 255 255 255
-5.6981006 -63.386261 -1.1879779 255 255 255
198.29454 -30.511221 -0.76774406 255 255 255
-7.146059 -60.437717 -1.095381 255 255 255
6.1018062 -60.160236 -1.1653507 255 255 255
-20.206018 -59.241379 -1.0975145 255 255 255
-6.7159872 -60.223015 -1.0873669 255 255 255
-4.8793254 -60.907795 -1.1139677 255 255 255
-7.059691 -61.029602 -1.1158539 255 255 255
4.6022143 -58.17831 -1.0495807 255 255 255
-23.533314 -60.971821 -1.132552 255 255 255
-10.595141 -60.313606 -1.0928429 255 255 255
-535.03442 -129.66673 -1.6251779 255 255 255
-8.2142439 -59.870136 -1.1396804 255 255 255
12.419667 -55.372135 -1.0852942 255 255 255
-17.23053 -59.468952 -1.0946621 255 255 255
285.54626 26.286537 -0.36819804 255 255 255
-6.8927565 -60.352886 -1.0921597 255 255 255
-5.421031 -62.761665 -1.1708322 255 255 255
-4.8653598 -60.90773 -1.1136667 255 255 255
441.44666 37.968849 -0.31369573 255 255 255
-13.155438 -60.792015 -1.1397057 255 255 255
-7.0713143 -60.538902 -1.0988196 255 255 255
-6.1578698 -62.768566 -1.1700587 255 255 255
0.84968948 -59.913857 -1.0959051 255 255 255
-7.1919694 -61.920639 -1.1430672 255 255 255
-1125.981 -271.40143 -2.4382088 255 255 255
-7.3727131 -59.037617 -1.1021467 255 255 255
-2.5293119 -58.871162 -1.1194422 255 255 255
-6.7518988 -60.882011 -1.1109616 255 255 255
89.591057 -29.321932 -0.7244848 255 255 255
215.95821 -31.91958 -0.78511447 255 255 255
-6.3627911 -63.441677 -1.1886325 255 255 255
-5.7860346 -58.128731 -1.114622 255 255 255
-8.2761774 -58.68391 -1.0867716 255 255 255
196.90691 -30.458492 -0.77236325 255 255 255
-3.2257702 -59.014385 -1.1020138 255 255 255
-6.651433 -60.248444 -1.0881412 255 255 255
-28.375238 -57.407066 -1.0894507 255 255 255
5.3814921 -63.807259 -1.1647402 255 255 255
-8.2568674 -61.072922 -1.1104659 255 255 255
-10.649297 -61.24728 -1.1020049 255 255 255
-1132.8514 -242.52013 -2.2076104 255 255 255
-6.3944907 -60.611732 -1.1016204 255 255 255
-5.8529778 -63.082012 -1.179316 255 255 255
-3.7642012 -60.756554 -1.1099274 255 255 255
0.71686232 -58.605835 -1.0965115 255 255 255
-6.0501862 -66.952026 -1.2474843 255 255 255
3.9836261 -61.283047 -1.1181093 255 255 255
19.081749 -63.247021 -1.1260477 255 255 255
27.310314 -56.847137 -1.0603256 255 255 255
16.927818 -60.501431 -1.1471268 255 255 255
-16.135626 -59.351658 -1.1233805 255 255 255
-6.7823706 -63.239727 -1.182639 255 255 255
32.66087 -54.655499 -1.076162 255 255 255
-6.6467414 -60.635975 -1.1023686 255 255 255
-6.2696099 -63.039368 -1.1776102 255 255 255
107.44554 -39.363468 -0.85160285 255 255 255
-6.334332 -63.038689 -1.1775665 255 255 255
-5.511157 -60.622841 -1.1027156 255 255 255
-3.3921144 -60.832039 -1.1130139 255 255 255
-3.5515056 -59.325253 -1.1223621 255 255 255
2574.7051 623.24841 5.5774922 255 255 255
6.1153488 -59.282066 -1.1014341 255 255 255
-13.488065 -62.112389 -1.1378207 255 255 255
181.67143 -17.921762 -0.70492226 255 255 255
162.06145 -30.233873 -0.76229149 255 255 255
-6.7828302 -63.444016 -1.1881858 255 255 255
-9.3730078 -61.119907 -1.1061519 255 255 255
-13.855468 -63.791248 -1.1840297 255 255 255
162.34036 -30.23243 -0.76239568 255 255 255
-14.389797 -59.174679 -1.1014806 255 255 255
-3.7021723 -59.912441 -1.1214082 255 255 255
-14.792799 -59.22049 -1.0968044 255 255 255
-6.1188111 -63.101093 -1.1796542 255 255 255
206.55922 -15.759815 -0.76480192 255 255 255
162.65289 -30.243383 -0.76268464 255 255 255
191.34778 -15.15552 -0.68105245 255 255 255
-26047.99 -4117.3477 -32.776928 255 255 255
-6.3320007 -63.511715 -1.1905392 255 255 255
-10.822167 -59.880615 -1.1084799 255 255 255
-3.0727427 -65.555489 -1.2072488 255 255 255
208.15192 -30.598207 -0.77601081 255 255 255
-5.7207079 -63.547192 -1.1922532 255 255 255
-4.6260681 -63.875069 -1.1780152 255 255 255
23.788816 -62.900414 -1.1427422 255 255 255
-3.5152957 -63.834843 -1.1798168 255 255 255
-10733.617 -2228.7034 -25.892591 255 255 255
-4.7823277 -60.617893 -1.1033466 255 255 255
-6.8988152 -60.199894 -1.0872159 255 255 255
-18.327354 -59.249477 -1.0679643 255 255 255
3.5931318 -64.068588 -1.1666496 255 255 255
-8.5986338 -58.967152 -1.1212901 255 255 255
116.78987 -29.057673 -0.71905643 255 255 255
-7.2056813 -60.638355 -1.1023027 255 255 255
-5.9842067 -59.776249 -1.0700755 255 255 255
-5.2055182 -63.06815 -1.1797847 255 255 255
-16.240606 -59.689274 -1.0791357 255 255 255
4.0808544 -63.641685 -1.1583636 255 255 255
-4.3725619 -65.353294 -1.2406756 255 255 255
-5.7420597 -66.331184 -1.2303462 255 255 255
151.19301 -15.658199 -0.63764316 255 255 255
-15.009995 -59.370968 -1.1024648 255 255 255
-7.1973963 -60.644093 -1.1025712 255 255 255
258.10919 -1.5224043 -0.69282478 255 255 255
266.73724 15.978188 -0.36174464 255 255 255
-7.3020763 -60.501469 -1.0977545 255 255 255
27.858686 -57.361809 -1.118584 255 255 255
-1.9492458 -61.860001 -1.1191009 255 255 255
-11.0103 -51.464561 -1.0816274 255 255 255
2.5666645 -58.150928 -1.0886618 255 255 255
-25.380365 -60.23542 -1.1107397 255 255 255
-5.5836535 -60.693859 -1.102947 255 255 255
-6.3257713 -60.90414 -1.1119547 255 255 255
-8.4010897 -60.028233 -1.1446443 255 255 255
-7.1562753 -60.329239 -1.0920883 255 255 255
6.4526763 -73.762794 -1.3784118 255 255 255
-5.3992147 -58.716137 -1.1037127 255 255 255
-18.916239 -60.190529 -1.1102102 255 255 255
-3.1272027 -64.447762 -1.1871042 255 255 255
-6.7713985 -61.381081 -1.1267437 255 255 255
-4.5933342 -61.278362 -1.1323719 255 255 255
-6.0286698 -63.115852 -1.180066 255 255 255
-6.8420134 -60.884811 -1.1299489 255 255 255
-7.1456513 -60.339462 -1.0922998 255 255 255
-15.893089 -60.450729 -1.1259334 255 255 255
-6.6131101 -60.905064 -1.111801 255 255 255
114.75394 -29.698336 -0.74011183 255 255 255
26.257366 -63.126965 -1.1252295 255 255 255
-20.093454 -59.708977 -1.1104522 255 255 255
-11.568135 -60.744194 -1.1346178 255 255 255
19.147779 -57.324657 -1.0915165 255 255 255
10.401708 -59.88678 -1.1088051 255 255 255
1644.8204 327.94431 1.6163942 255 255 255
215.1097 -30.65263 -0.77715832 255 255 255
-21.763172 -59.637539 -1.1018237 255 255 255
163.92883 -30.096775 -0.76036888 255 255 255
-11.915461 -61.288181 -1.1808568 255 255 255
456.08618 50.770588 -0.14163637 255 255 255
7.2305255 -55.385586 -1.1194268 255 255 255
32.263199 -56.091049 -1.0744661 255 255 255
-5.5669847 -64.009354 -1.2046298 255 255 255
-5.596097 -59.72279 -1.0732266 255 255 255
214.97076 -30.644035 -0.7771678 255 255 255
-12.971085 -57.646896 -1.0799074 255 255 255
1.3631446 -61.150463 -1.1373308 255 255 255
17.052601 -60.617554 -1.1120551 255 255 255
17.873228 -55.905968 -1.0354178 255 255 255
21.815445 -57.69212 -1.1098596 255 255 255
181.50121 -30.601801 -0.76295108 255 255 255
23.379766 -62.57922 -1.1191672 255 255 255
-0.048922621 -59.591217 -1.1220683 255 255 255
143.6297 -29.807869 -0.75103182 255 255 255
-6.7986217 -63.427109 -1.1875318 255 255 255
10.215105 -59.59766 -1.0936149 255 255 255
166.08524 -30.191509 -0.7620666 255 255 255
143.68251 -33.569279 -0.78691971 255 255 255
2.2816093 -61.442429 -1.1359985 255 255 255
-12.371067 -56.400833 -1.0620486 255 255 255
-29.016304 -62.870777 -1.134119 255 255 255
101.59859 -28.81967 -0.71491313 255 255 255
-22.595705 -59.486961 -1.1437998 255 255 255
1.7916176 -60.402752 -1.1260965 255 255 255
-1229.4537 -352.15433 -3.341799 255 255 255
3481.2922 479.88501 3.2444921 255 255 255
-6.725162 -63.540874 -1.1908356 255 255 255
143.715 -29.854795 -0.75169152 255 255 255
-5.6701555 -63.377922 -1.1876574 255 255 255
-13.172745 -62.229145 -1.1381919 255 255 255
0.36908019 -59.862057 -1.1388819 255 255 255
-6.4553194 -62.990925 -1.1761584 255 255 255
3.7852581 -66.222893 -1.2529116 255 255 255
-6.9689536 -60.365078 -1.0926681 255 255 255
-17.180763 -58.491982 -1.0754786 255 255 255
-19.913582 -60.740372 -1.1268067 255 255 255
-11.96019 -45.755657 -1.0810294 255 255 255
-6.8669238 -60.340599 -1.0916857 255 255 255
21.73521 -58.505054 -1.0646122 255 255 255
87.158234 -44.367184 -0.9082489 255 255 255
19.752197 -59.628445 -1.1316674 255 255 255
12.754448 -58.519592 -1.1422305 255 255 255
-2.1291783 -59.883572 -1.1292249 255 255 255
10.319202 -58.883221 -1.0710109 255 255 255
-7.3985491 -63.913692 -1.1980892 255 255 255
24.869587 -58.85178 -1.1354418 255 255 255
648.01343 47.042171 -0.15097483 255 255 255
-7.5289664 -60.655724 -1.103067 255 255 255
102.50579 -26.684141 -0.71566188 255 255 255
-4.2744026 -64.201988 -1.1844785 255 255 255
-7.3081636 -60.237049 -1.1009552 255 255 255
-13.14301 -56.960949 -1.0615041 255 255 255
6.8876247 -66.925278 -1.2604083 255 255 255
-0.55563265 -64.626419 -1.1917087 255 255 255
79.9617 -38.739975 -0.78566515 255 255 255
-7.6251845 -56.543751 -1.0993458 255 255 255
14.807634 -57.168072 -1.0853996 255 255 255
-2.9618573 -61.991997 -1.1506526 255 255 255
170.76631 -15.192469 -0.70952779 255 255 255
-0.36699972 -62.914413 -1.1632879 255 255 255
-18.314116 -62.2136 -1.1358814 255 255 255
-6.2922926 -62.968952 -1.175545 255 255 255
1662.8844 409.9679 2.8617573 255 255 255
-21.401802 -62.592007 -1.1631551 255 255 255
33.123978 -55.035992 -1.0948513 255 255 255
24.174555 -54.387409 -1.0959183 255 255 255
-6.8583841 -63.320568 -1.1847179 255 255 255
-6.6925611 -63.067951 -1.1779788 255 255 255
-9.2886152 -60.855766 -1.1174937 255 255 255
-7.79141 -61.436676 -1.1284287 255 255 255
-7.4768958 -58.776512 -1.1045134 255 255 255
-574.45819 -163.49922 -1.7387962 255 255 255
-2.5410378 -65.733627 -1.233017 255 255 255
-6.805655 -60.177197 -1.0860994 255 255 255
8.2413464 -58.758224 -1.0776256 255 255 255
-9.4861555 -60.126423 -1.1043632 255 255 255
-13.61842 -58.974979 -1.1051682 255 255 255
303.44516 -1.6261064 -0.6764102 255 255 255
-4.7746863 -59.64101 -1.0773519 255 255 255
3029.6289 600.88123 2.9850857 255 255 255
-3.8428593 -57.973167 -1.0903739 255 255 255
-7.1972642 -60.654781 -1.102843 255 255 255
-14.486595 -59.934227 -1.1112643 255 255 255
-8.4833889 -59.230175 -1.0978421 255 255 255
9.0675983 -59.955593 -1.1430346 255 255 255
-22.139296 -62.038719 -1.1207663 255 255 255
345.61636 -9.6185989 -0.63002086 255 255 255
-1.8547401 -59.432934 -1.1066698 255 255 255
-14.375541 -57.791065 -1.0422368 255 255 255
12.978941 -61.041023 -1.1466414 255 255 255
193.70236 -30.295156 -0.76597321 255 255 255
-12.889092 -57.712738 -1.107537 255 255 255
-6.1445594 -60.732224 -1.1053762 255 255 255
-18.512283 -59.253296 -1.09965 255 255 255
-7.8903894 -60.048286 -1.1023219 255 255 255
170.70366 -29.982704 -0.7550956 255 255 255
-15.651893 -59.59433 -1.1097497 255 255 255
246.14029 1.939984 -0.54247093 255 255 255
27.466106 -63.188992 -1.1277628 255 255 255
-2.4343967 -60.67841 -1.0996857 255 255 255
-7.3646879 -63.713482 -1.1928444 255 255 255
-1948.634 -544.59296 -4.8608661 255 255 255
-5.1968379 -59.912899 -1.0881313 255 255 255
-5.8242478 -64.307045 -1.1816032 255 255 255
-4.420908 -58.98204 -1.1243868 255 255 255
-4.0500612 -64.84436 -1.2081722 255 255 255
-5.9939327 -60.646679 -1.1032414 255 255 255
13.717184 -60.345482 -1.1498052 255 255 255
0.61898458 -59.574772 -1.1233007 255 255 255
-13.664009 -58.742805 -1.0950782 255 255 255
-564.76703 -180.58165 -2.2420344 255 255 255
-7.1002493 -61.595966 -1.1332538 255 255 255
-6.0745201 -60.602993 -1.1014937 255 255 255
-7.0949464 -60.294842 -1.0907762 255 255 255
7.6691771 -59.440212 -1.1130992 255 255 255
-7.5019212 -60.660847 -1.1032881 255 255 255
195.53305 -30.462858 -0.77228391 255 255 255
231.62489 -30.900938 -0.77988952 255 255 255
-5.8949685 -63.601479 -1.1935695 255 255 255
10.292881 -58.884163 -1.0709058 255 255 255
-5.9552603 -60.626419 -1.1025116 255 255 255
0.25550452 -60.410419 -1.1305707 255 255 255
162.13629 -29.872307 -0.75481546 255 255 255
-15.194941 -60.079746 -1.117789 255 255 255
-2.3123825 -57.514381 -1.0745511 255 255 255
-5.5776558 -63.207809 -1.1832058 255 255 255
-6.2190099 -62.942459 -1.174993 255 255 255
-13.554843 -59.26926 -1.095482 255 255 255
-9.1953506 -59.366245 -1.101053 255 255 255
113.12518 -40.595375 -0.84912163 255 255 255
228.44792 -32.161278 -0.79052103 255 255 255
-788.72833 -176.6779 -1.8838533 255 255 255
-5.1125536 -63.274845 -1.1829002 255 255 255
-4.1937041 -82.441277 -1.5541025 255 255 255
143.6046 -37.682526 -0.84533501 255 255 255
4.355454 -64.006424 -1.1668561 255 255 255
5.9401298 -63.505081 -1.1646975 255 255 255
-3.3100033 -61.68055 -1.1228073 255 255 255
181.21606 -30.573954 -0.76261985 255 255 255
-1.0527171 -60.000347 -1.0947202 255 255 255
757.42841 96.383423 0.2280803 255 255 255
203.09007 -32.219028 -0.78565735 255 255 255
2.8275084 -57.349579 -1.0885662 255 255 255
134.74895 -28.104891 -0.80408347 255 255 255
7.9805217 -56.751938 -1.0890789 255 255 255
-10.284682 -58.31432 -1.0968177 255 255 255
12.120585 -59.882572 -1.1380057 255 255 255
364.92145 16.970303 -0.53213066 255 255 255
-15.682323 -57.648804 -1.1098366 255 255 255
-16.187155 -50.366341 -1.0735002 255 255 255
168.73828 -29.981901 -0.75401866 255 255 255
171.92957 -29.979879 -0.7557624 255 255 255
17.168762 -55.462399 -1.0934658 255 255 255
-5.2229037 -64.954292 -1.2011307 255 255 255
-7.0554991 -58.547249 -1.0960684 255 255 255
-7.6387148 -60.013775 -1.0881774 255 255 255
20.382999 -55.34156 -1.0607448 255 255 255
-11.725445 -59.713726 -1.1160462 255 255 255
-7.0462632 -60.394947 -1.0937632 255 255 255
-13.166613 -60.76231 -1.1741909 255 255 255
-835.22772 -256.26166 -2.5496025 255 255 255
0.50244212 -59.560627 -1.0819291 255 255 255
-6.626936 -60.117165 -1.0898726 255 255 255
-5.3466549 -64.581329 -1.1867712 255 255 255
6.653585 -55.999908 -1.3360974 255 255 255
6.8842573 -56.79089 -1.0920417 255 255 255
699.11646 73.586815 -0.13539186 255 255 255
26.684187 -60.377533 -1.0845208 255 255 255
220.26038 -29.10751 -0.75274611 255 255 255
8.8026829 -58.377861 -1.1746995 255 255 255
7.9448371 -57.308907 -1.1391163 255 255 255
-5.3044486 -60.457363 -1.0968806 255 255 255
-8.2167625 -62.527073 -1.1458012 255 255 255
571.10791 84.746056 -0.081975251 255 255 255
-19.120424 -58.883286 -1.0827347 255 255 255
-338.92447 -138.74191 -1.9035485 255 255 255
428.07922 31.063398 -0.38955033 255 255 255
-14.055876 -60.563889 -1.0889009 255 255 255
-7.396821 -60.411156 -1.0955029 255 255 255
192.06519 -30.261431 -0.76542014 255 255 255
290.1069 10.87175 -0.49932203 255 255 255
-13.483188 -59.296787 -1.1176978 255 255 255
-8.5099306 -62.067436 -1.1473974 255 255 255
4.2044311 -58.791336 -1.1072775 255 255 255
-7.1714711 -60.311253 -1.091696 255 255 255
7.6846614 -61.512627 -1.1277571 255 255 255
1056.2744 129.84238 1.0285093 255 255 255
-5.7854085 -60.589146 -1.1012652 255 255 255
221.94223 -2.8431957 -0.68614858 255 255 255
-6.5836387 -60.61903 -1.1017458 255 255 255
-6.3290238 -60.521523 -1.0982999 255 255 255
-8.5376968 -57.771107 -1.0487552 255 255 255
-14.211876 -60.499035 -1.1026512 255 255 255
-330.70767 -131.6362 -1.7935482 255 255 255
174.40965 -30.00824 -0.75745118 255 255 255
-4.7489262 -60.631962 -1.1038246 255 255 255
22.592024 -55.206337 -1.0908993 255 255 255
203.42715 -30.584944 -0.76978177 255 255 255
-15.153426 -59.454659 -1.0752248 255 255 255
199.91772 -30.393456 -0.77158493 255 255 255
88.272987 -29.574186 -0.9143936 255 255 255
188.50462 -14.626574 -0.65111983 255 255 255
-5.1306129 -59.595398 -1.06621 255 255 255
-7.2789946 -60.464001 -1.0965283 255 255 255
288.21884 -13.634021 -0.65862566 255 255 255
-2879.7522 -591.43079 -5.4131885 255 255 255
201.16331 -31.959343 -0.78237021 255 255 255
16.314342 -57.499096 -1.0851128 255 255 255
-4.5399489 -58.846359 -1.1032404 255 255 255
-12.664084 -59.768806 -1.1023151 255 255 255
222.50027 -14.516397 -0.67184877 255 255 255
-296.97809 -122.41254 -1.7081444 255 255 255
17.857224 -60.158936 -1.1393402 255 255 255
-4.1173325 -63.783577 -1.1736469 255 255 255
199.99846 -30.48761 -0.76821232 255 255 255
-9.6823635 -59.752563 -1.0917041 255 255 255
-4.9223013 -60.859142 -1.1002815 255 255 255
8.5861883 -61.154499 -1.1436574 255 255 255
-4.090158 -60.68539 -1.1067572 255 255 255
12.389524 -58.569107 -1.1341834 255 255 255
14.017588 -60.425457 -1.1430025 255 255 255
205.1013 -30.581459 -0.77036566 255 255 255
-1040.8634 -272.15799 -3.473315 255 255 255
5.589469 -55.672485 -1.0712126 255 255 255
96.313759 -40.637901 -0.83980793 255 255 255
-6.3114886 -61.449097 -1.1302265 255 255 255
-21.876387 -58.309071 -1.1220088 255 255 255
57.673111 -48.755478 -0.94615012 255 255 255
-4.738214 -64.094978 -1.2025368 255 255 255
2.5054159 -59.682587 -1.1224049 255 255 255
28.30266 -56.93026 -1.11172 255 255 255
-6.1699328 -63.094051 -1.1793514 255 255 255
-2226.5178 -440.3457 -3.1062222 255 255 255
0.83817506 -60.453453 -1.1412612 255 255 255
-22.691927 -61.398216 -1.1383631 255 255 255
-11.775236 -61.985451 -1.1442053 255 255 255
-7.2115827 -60.639435 -1.1023473 255 255 255
-9.8412037 -62.590691 -1.1629676 255 255 255
0.38370857 -48.255489 -1.1382232 255 255 255
13.358705 -56.875259 -1.0980664 255 255 255
-16.126362 -58.020744 -1.078935 255 255 255
-33.242485 -57.290104 -1.0604999 255 255 255
185.03429 -31.072369 -0.76881182 255 255 255
24.134809 -58.035332 -1.1215115 255 255 255
3.2188938 -67.060585 -1.2197342 255 255 255
-4.853302 -60.904659 -1.1136452 255 255 255
-2.7893512 -61.796444 -1.1452386 255 255 255
10.84068 -52.58662 -1.0615361 255 255 255
76.991791 -44.429146 -0.91010612 255 255 255
8.6260338 -57.683105 -1.0812036 255 255 255
-6.8451362 -62.722763 -1.1655653 255 255 255
-1.919572 -58.293041 -1.0968671 255 255 255
-18.07836 -78.92617 -1.4635118 255 255 255
-12.881836 -61.018867 -1.1339623 255 255 255
216.30833 -31.885319 -0.78487474 255 255 255
162.3069 -30.235415 -0.7625345 255 255 255
-6.80932 -63.465858 -1.1886498 255 255 255
-5.7710328 -60.58078 -1.100991 255 255 255
-10.467638 -59.42643 -1.1099298 255 255 255
-1057.6578 -216.32416 -2.1966264 255 255 255
-8.1693373 -61.622307 -1.1197802 255 255 255
-5.6516294 -60.599213 -1.1017225 255 255 255
185.24039 -31.058464 -0.76866049 255 255 255
0.23589747 -59.859444 -1.1081841 255 255 255
-4.3833385 -70.573357 -1.3039792 255 255 255
-2.4535375 -56.905079 -1.0727764 255 255 255
382.48499 -5.0801301 -0.60049176 255 255 255
103.00622 -28.734451 -0.71290052 255 255 255
-13.006927 -60.177612 -1.1242794 255 255 255
-6.6220155 -60.116196 -1.0898517 255 255 255
-6.3393946 -60.902073 -1.1119041 255 255 255
-9.3739357 -60.236759 -1.1384392 255 255 255
-5.8559179 -59.743324 -1.0693148 255 255 255
-1252.4192 -357.15436 -3.4100986 255 255 255
6.6807365 -63.556152 -1.159386 255 255 255
27.007427 -57.509796 -1.0991545 255 255 255
-5.8112354 -63.367188 -1.1872863 255 255 255
-20.04653 -60.219196 -1.1261888 255 255 255
0.30198699 -63.904564 -1.1655071 255 255 255
-10.676044 -59.644928 -1.1200695 255 255 255
225.44547 -15.029587 -0.80197251 255 255 255
383.97095 25.349812 -0.40135753 255 255 255
-4.235836 -58.314827 -1.0738237 255 255 255
89.634918 -40.641682 -0.88196158 255 255 255
3.0292757 -62.773094 -1.1609912 255 255 255
143.74799 -29.847994 -0.75169563 255 255 255
-5.3453932 -71.330521 -1.3814628 255 255 255
-10.550314 -62.439514 -1.1324316 255 255 255
-2898.1895 -517.2818 -4.5616822 255 255 255
-29.492052 -59.219383 -1.1367921 255 255 255
5.9446058 -58.693359 -1.0893098 255 255 255
-4.4222054 -63.217976 -1.1644996 255 255 255
-9.8645716 -61.013245 -1.1068605 255 255 255
-17.035751 -60.371189 -1.117757 255 255 255
-21.756205 -58.326565 -1.0768907 255 255 255
-6.8643003 -60.352879 -1.0921623 255 255 255
-7.1017609 -61.596161 -1.1332754 255 255 255
-17.006794 -59.11438 -1.1409892 255 255 255
25.149429 -58.976784 -1.1340363 255 255 255
-7.544477 -60.65556 -1.103025 255 255 255
-6.4412394 -60.895214 -1.1116308 255 255 255
-3.7324109 -57.938847 -1.1002877 255 255 255
1.8804326 -60.584488 -1.1264718 255 255 255
-6.3926811 -60.922184 -1.1124855 255 255 255
203.81714 -0.11422226 -0.49282998 255 255 255
-7.5138507 -60.658558 -1.1032177 255 255 255
-11.303406 -59.665482 -1.1239535 255 255 255
163.11969 -18.893375 -0.82618117 255 255 255
216.64207 -30.658392 -0.77859944 255 255 255
-6.924571 -60.359108 -1.0923544 255 255 255
35.175842 -57.527241 -1.1310936 255 255 255
-6.2772079 -60.985767 -1.1150005 255 255 255
6.9809432 -56.956646 -1.0917573 255 255 255
-5.9641204 -59.778664 -1.0701318 255 255 255
-0.54224139 -57.134483 -1.0849987 255 255 255
-5.872242 -63.08366 -1.1793405 255 255 255
149.99751 -30.423033 -0.74995142 255 255 255
-6.5564513 -65.383369 -1.2190814 255 255 255
-3.9435201 -59.509132 -1.1223129 255 255 255
-12.48161 -60.829754 -1.1246626 255 255 255
-6.3693576 -63.018974 -1.1770272 255 255 255
162.05539 -30.239809 -0.76236176 255 255 255
9.5830307 -58.497807 -1.1252925 255 255 255
-673.84973 -190.03564 -2.3942356 255 255 255
-28.92099 -56.787193 -1.067311 255 255 255
221.14742 -16.807629 -0.6585961 255 255 255
-4.011395 -58.586243 -1.1100882 255 255 255
-5.7932577 -61.169903 -1.145366 255 255 255
-6.5856624 -59.169155 -1.1023747 255 255 255
-9.426856 -59.729015 -1.1364008 255 255 255
-11.879562 -58.503086 -1.0696675 255 255 255
272.36304 -15.309734 -0.80688149 255 255 255
-6.5024061 -57.924965 -1.1006536 255 255 255
-21.866781 -54.942574 -1.1034517 255 255 255
-6.2001615 -57.648739 -1.1186404 255 255 255
162.19316 -29.859627 -0.75469691 255 255 255
-7.0526509 -60.304432 -1.0910087 255 255 255
8.9155684 -58.540714 -1.1372412 255 255 255
33.293236 -56.134628 -1.1042544 255 255 255
-5.4084544 -60.561367 -1.1006256 255 255 255
-7.0330272 -61.390076 -1.129222 255 255 255
-6.5291381 -61.450943 -1.1301508 255 255 255
-6.1340604 -59.847233 -1.0754648 255 255 255
-7.2296124 -65.027573 -1.211772 255 255 255
4.6663518 -60.267643 -1.1337951 255 255 255
493.0322 32.229225 -0.39512271 255 255 255
-1.4726899 -57.182625 -1.0882026 255 255 255
-19.632677 -60.997093 -1.1231977 255 255 255
93.782425 -54.665058 -1.0656695 255 255 255
8.0725069 -60.351917 -1.1582178 255 255 255
161.74635 -29.863914 -0.7545048 255 255 255
-5.4414568 -57.602535 -1.1298267 255 255 255
-5.3877926 -63.963825 -1.2037981 255 255 255
2.3542681 -61.32909 -1.147313 255 255 255
15.225584 -52.420815 -1.1215169 255 255 255
-6.4060268 -60.609707 -1.1015588 255 255 255
199.0341 -30.488089 -0.76783067 255 255 255
-18.72076 -79.600609 -1.4706279 255 255 255
-6.3465352 -63.037594 -1.1775674 255 255 255
217.83151 -30.683287 -0.77772713 255 255 255
-5.5562549 -60.158276 -1.1269898 255 255 255
20.844784 -55.382561 -1.0611006 255 255 255
142.34572 -30.201542 -0.74420077 255 255 255
-6.2988324 -62.954933 -1.1752822 255 255 255
-1.2989441 -62.142223 -1.1515158 255 255 255
-122.86139 -80.370613 -1.1899836 255 255 255
133.75299 -30.027082 -0.75388622 255 255 255
162.92769 -30.221567 -0.76238167 255 255 255
213.92181 -30.650349 -0.77830517 255 255 255
0.94436818 -61.622471 -1.1194954 255 255 255
218.13091 -30.5937 -0.77513164 255 255 255
-5.5940981 -58.220806 -1.101927 255 255 255
-18.936882 -57.254143 -1.0575248 255 255 255
26.090151 -59.665565 -1.1355736 255 255 255
-6.3065138 -63.50864 -1.1905679 255 255 255
-0.31213641 -58.520088 -1.1003233 255 255 255
-6.0133467 -59.838554 -1.0718799 255 255 255
3.4589479 -60.411911 -1.1379035 255 255 255
-17.769829 -59.548771 -1.0985799 255 255 255
-7.0054803 -59.275753 -1.099617 255 255 255
1650.13 302.07043 1.5999287 255 255 255
220.98941 -30.700172 -0.778139 255 255 255
-6.7840033 -60.174629 -1.0860357 255 255 255
-0.052578766 -65.563805 -1.1925826 255 255 255
-7.3254385 -60.499714 -1.0976994 255 255 255
31.476658 -59.286133 -1.1305182 255 255 255
25.262426 -55.781651 -1.0817504 255 255 255
-7.6881075 -60.052284 -1.122623 255 255 255
197.07153 -30.431633 -0.77212811 255 255 255
-11.126541 -62.997185 -1.1788431 255 255 255
24.36697 -57.516922 -1.1142092 255 255 255
2.5167241 -61.007362 -1.1305332 255 255 255
-7.082716 -61.775311 -1.1386682 255 255 255
150.94745 -30.247448 -0.76165593 255 255 255
5.2940936 -59.491566 -1.0931463 255 255 255
-6.8732815 -61.455647 -1.1307586 255 255 255
-2.4115696 -61.614365 -1.1245747 255 255 255
703.8476 80.262581 0.44107845 255 255 255
-7.0013123 -62.727707 -1.1720774 255 255 255
-0.048980493 -61.534981 -1.1330143 255 255 255
-21.677128 -54.58099 -1.0456176 255 255 255
-5.2997041 -60.45649 -1.0968872 255 255 255
-526.73547 -155.98767 -2.0261319 255 255 255
-2.4301338 -69.242073 -1.3349001 255 255 255
-6.7541175 -60.88348 -1.1109788 255 255 255
-20.146107 -59.751396 -1.0998048 255 255 255
19.987553 -56.900684 -1.1091666 255 255 255
-1.1121342 -64.056152 -1.2321842 255 255 255
-2.6673717 -60.809189 -1.1158677 255 255 255
-5.7727389 -63.49118 -1.1906831 255 255 255
-6.4266453 -60.919136 -1.112422 255 255 255
-0.020319059 -58.864788 -1.0787277 255 255 255
-14.201754 -59.728294 -1.1264144 255 255 255
-5.7041965 -63.392159 -1.188069 255 255 255
-6.3271241 -60.963436 -1.1141876 255 255 255
-6.4383211 -60.915127 -1.1122866 255 255 255
148.83261 -24.644482 -0.72612309 255 255 255
-7.0704527 -60.538242 -1.0987934 255 255 255
-4.7597337 -60.626659 -1.1036457 255 255 255
29.978201 -54.199436 -1.0710365 255 255 255
-21.285961 -57.097317 -1.1012954 255 255 255
-11.918359 -59.565578 -1.1072022 255 255 255
-2.0656009 -58.888416 -1.0992049 255 255 255
-0.56718302 -57.059319 -1.07333 255 255 255
168.62814 -29.988516 -0.7540009 255 255 255
-557.7489 -139.53967 -1.6900057 255 255 255
-1.2830052 -60.358097 -1.100969 255 255 255
-6.3116312 -63.471485 -1.1894706 255 255 255
-7.1382437 -60.254044 -1.0909529 255 255 255
163.60768 -30.186403 -0.76151842 255 255 255
166.42903 -38.45509 -0.85897309 255 255 255
195.50119 -30.472628 -0.77234393 255 255 255
-0.77023238 -61.494308 -1.1279613 255 255 255
178.56479 -32.869202 -0.78733379 255 255 255
11.004713 -60.081963 -1.1205269 255 255 255
-3.7358971 -60.771305 -1.1103648 255 255 255
-7.1910005 -61.923798 -1.1430366 255 255 255
-3.7538683 -60.756042 -1.1099166 255 255 255
-727.53882 -244.53711 -2.2697759 255 255 255
173.78708 -29.994137 -0.75692731 255 255 255
236.86375 -11.757259 -0.74303836 255 255 255
0.81514895 -65.399628 -1.2440039 255 255 255
-5.8986764 -63.608398 -1.1937474 255 255 255
-18.476789 -60.191063 -1.0991377 255 255 255
-43.025414 -61.376156 -1.158924 255 255 255
-4.6555753 -66.158287 -1.195202 255 255 255
-6.7444472 -61.078545 -1.1173224 255 255 255
-12.141859 -61.18713 -1.1363072 255 255 255
203.0116 -32.223228 -0.7856496 255 255 255
-4.8727059 -58.829929 -1.1015799 255 255 255
-4.0341468 -60.698112 -1.1072956 255 255 255
-9.0059872 -61.675705 -1.1198486 255 255 255
27.200993 -58.838417 -1.0631211 255 255 255
-2.1798303 -60.173954 -1.1257068 255 255 255
144.53384 -40.009129 -0.86669534 255 255 255
-7.0103555 -61.971851 -1.1447901 255 255 255
-12.025344 -61.06266 -1.1089394 255 255 255
-0.71695197 -57.37492 -1.0745907 255 255 255
-15.000216 -60.369587 -1.1167947 255 255 255
867.22131 109.31914 0.24038415 255 255 255
-3.9014959 -54.403854 -1.0632122 255 255 255
17.093588 -56.740307 -1.0852739 255 255 255
205.21623 -31.696419 -0.78053439 255 255 255
-16.727392 -44.394955 -1.0454589 255 255 255
143.64409 -29.80089 -0.75097603 255 255 255
2.6925073 -59.026749 -1.0822458 255 255 255
22.758448 -57.886086 -1.1061482 255 255 255
125.91948 -11.42159 -0.79904485 255 255 255
205.83218 -31.329565 -0.77686191 255 255 255
351.22302 -3.6346388 -0.47952643 255 255 255
-5.7885628 -60.640911 -1.1031612 255 255 255
-17.189623 -59.607578 -1.1074737 255 255 255
0.61450481 -66.188683 -1.2091173 255 255 255
-5.7525125 -60.660625 -1.1039177 255 255 255
278.1413 -3.0581133 -0.70135617 255 255 255
-2.7939925 -61.12706 -1.1406678 255 255 255
289.98682 8.8749323 -0.50975543 255 255 255
161.85643 -30.221981 -0.76229888 255 255 255
-20.004669 -59.540543 -1.1002663 255 255 255
181.17953 -30.583826 -0.76269138 255 255 255
-7.1638565 -60.327904 -1.0920699 255 255 255
24.464167 -58.229439 -1.0633824 255 255 255
-4.821228 -59.524166 -1.0650291 255 255 255
17.065563 -62.385555 -1.142998 255 255 255
-5.9511476 -60.630032 -1.1025378 255 255 255
-8.6684427 -62.607864 -1.159411 255 255 255
178.23834 -30.945995 -0.76538223 255 255 255
-6.0536976 -60.60408 -1.1015426 255 255 255
296.733 25.210373 -0.30777511 255 255 255
-5.0915442 -62.93079 -1.176047 255 255 255
4.5596223 -58.185009 -1.0496459 255 255 255
5.0682769 -62.240662 -1.1398853 255 255 255
16.684519 -62.177902 -1.1619714 255 255 255
-2.0850558 -60.287621 -1.0985199 255 255 255
-283.77658 -118.88789 -1.6215825 255 255 255
190.84009 -19.566271 -0.79951382 255 255 255
116.1111 -29.934858 -0.83157289 255 255 255
-3.7076437 -63.237946 -1.1805612 255 255 255
-21.173397 -58.535168 -1.0983071 255 255 255
-380.67926 -128.67009 -1.4647157 255 255 255
-6.1501575 -60.622108 -1.1021587 255 255 255
3.3114905 -76.659859 -1.4375985 255 255 255
