ply
format ascii 1.0
comment PCL generated
element vertex 1111
property float x
property float y
property float z
property uchar red
property uchar green
property uchar blue
element face 0
element camera 0
property float view_px
property float view_py
property float view_pz
property float x_axisx
property float x_axisy
property float x_axisz
property float y_axisx
property float y_axisy
property float y_axisz
property float z_axisx
property float z_axisy
property float z_axisz
property float focal
property float scalex
property float scaley
property float centerx
property float centery
property int viewportx
property int viewporty
property float k1
property float k2
end_header
4807.8574 3905.9878 6.1737304 255 255 255
-14316.189 -20003.961 -51.84864 255 255 255
1699.026 1625.7682 2.7712235 255 255 255
-1969.8568 -4445.4116 -8.7922726 255 255 255
6413.3433 2933.2903 7.1075864 255 255 255
-607.65009 -451.10858 -2.1654208 255 255 255
1055.3976 581.13373 2.5823622 255 255 255
775.0368 901.74902 1.9886152 255 255 255
1172.5958 1041.4404 2.2705133 255 255 255
-2294.4224 -2035.4664 -4.3047071 255 255 255
1467.7822 1564.9839 2.8924689 255 255 255
6220.5513 1812.2404 9.7406578 255 255 255
1115.9976 575.69934 2.7260435 255 255 255
1514.3944 1512.984 2.8570876 255 255 255
14770.146 4173.2207 15.628614 255 255 255
385.5347 842.79974 1.5247719 255 255 255
-3705.1716 -4102.0967 -10.528025 255 255 255
1404.3594 1469.4343 2.7397947 255 255 255
762.54675 702.15546 1.9516745 255 255 255
748.78424 729.00061 1.9287282 255 255 255
1506.2499 1513.3971 2.8428168 255 255 255
4570.2275 1758.855 7.0995431 255 255 255
2642.1606 2292.8442 3.9789257 255 255 255
654.30267 535.76172 1.7586977 255 255 255
752.46637 930.74994 1.9697064 255 255 255
9516.4043 7108.228 14.598785 255 255 255
417.13184 431.37354 1.3029656 255 255 255
2915.937 1899.5859 3.859937 255 255 255
-724.97614 -524.86414 -2.0510607 255 255 255
-584.49921 -472.74036 -2.8287585 255 255 255
-634.14606 -447.14374 -1.8505377 255 255 255
1974.387 3414.4766 10.372995 255 255 255
690.00464 794.32025 1.7701021 255 255 255
11404.685 3247.7131 13.725315 255 255 255
780.44562 1236.2874 2.105418 255 255 255
-332.38501 -372.01242 -1.7617811 255 255 255
2303.752 2570.8005 4.8268819 255 255 255
686.27228 678.66644 1.8180496 255 255 255
4827.3667 6177.1401 13.163292 255 255 255
10010.228 3249.2241 11.877316 255 255 255
1034.6694 768.99445 2.3803747 255 255 255
272.93796 1082.1293 1.6209719 255 255 255
-639.50458 -685.72681 -2.4269066 255 255 255
716.33582 948.24585 1.9331096 255 255 255
580.61481 818.67334 1.7095596 255 255 255
-412.95566 -524.82782 -2.0067813 255 255 255
5234.6895 2566.6287 6.8136201 255 255 255
-2499.0518 -2801.3311 -8.0513906 255 255 255
772.80225 471.19247 2.0409184 255 255 255
-2685.8237 -3012.3796 -9.6881714 255 255 255
3689.3774 2351.8479 5.1285067 255 255 255
3562.6331 4796.1426 11.482244 255 255 255
25.190344 715.62311 1.2345514 255 255 255
1686.0341 1564.8335 2.423594 255 255 255
4848.9492 4303.1245 12.559949 255 255 255
1135.928 565.73315 2.7830088 255 255 255
-653.85468 -566.12311 -3.0207102 255 255 255
521.26813 590.54712 1.114434 255 255 255
1346.2975 1385.342 2.7413116 255 255 255
-3537.4001 -3894.8337 -11.971841 255 255 255
1419.4969 1498.3499 2.760124 255 255 255
612.56348 695.1629 1.3279139 255 255 255
1058.2479 1084.7061 1.5075347 255 255 255
572.48755 551.41907 1.6068912 255 255 255
-1394.8108 -1177.0996 -3.9505837 255 255 255
2123.0093 1641.9672 6.9536901 255 255 255
1383.9401 1378.8796 2.7244613 255 255 255
1514.6379 1545.411 2.8616738 255 255 255
182.03979 178.18338 0.6996963 255 255 255
614.53851 898.12689 1.4502848 255 255 255
1068.323 567.68567 2.6280718 255 255 255
3013.5051 1771.7073 4.4913745 255 255 255
402.62411 470.97858 1.2937746 255 255 255
691.84509 678.18176 1.8304752 255 255 255
403.24997 741.08038 1.4612144 255 255 255
790.20947 897.18811 2.0054624 255 255 255
356.8367 844.29126 1.5018969 255 255 255
407.18219 744.74591 1.4690965 255 255 255
4544.9712 2922.6572 5.6494279 255 255 255
-1579.6782 -1070.283 -4.2119403 255 255 255
40.234997 694.59625 1.2115039 255 255 255
4046.5024 2993.6931 5.1235309 255 255 255
-678.38721 -660.57349 -2.2404416 255 255 255
1474.479 933.02032 6.3180547 255 255 255
-5204.9907 -14353.674 -29.158379 255 255 255
1097.3478 918.31226 3.2940719 255 255 255
2915.5771 956.26898 5.8487587 255 255 255
-795.99164 -827.16376 -2.9658039 255 255 255
1059.204 1244.6582 1.4413244 255 255 255
4363.3687 4348.7812 14.056561 255 255 255
-533.40924 -403.7048 -1.8120962 255 255 255
540.31122 856.94189 1.6793576 255 255 255
-6384.8989 -4153.6987 -19.816689 255 255 255
1238.5543 788.92456 1.5981826 255 255 255
329.85614 781.8269 1.4322342 255 255 255
1229.5997 1168.2688 3.6273272 255 255 255
14860.532 4188.1592 15.721168 255 255 255
3349.252 1821.1516 5.1558323 255 255 255
-805.44257 -587.01477 -2.1149919 255 255 255
1337.6088 2394.9668 6.9088941 255 255 255
1384.8401 1394.5547 2.7211003 255 255 255
-1549.6636 -3349.8347 -7.6363144 255 255 255
456.81686 1408.7494 1.9715208 255 255 255
410.57483 257.52551 0.53606772 255 255 255
232.9446 711.84467 1.3000659 255 255 255
-3757.5344 -3579.2153 -14.526671 255 255 255
-734.92035 -456.89194 -1.89943 255 255 255
737.61188 974.5813 1.9683787 255 255 255
-977.0058 -812.19806 -3.1338959 255 255 255
-1908.2015 -1743.7909 -3.3819067 255 255 255
-1732.1689 -2290.9219 -6.2165446 255 255 255
-366.22882 -248.47726 -1.7091517 255 255 255
-941.14581 -1159.5259 -4.1086645 255 255 255
1208.266 588.92133 2.9032857 255 255 255
-2224.8191 -1863.6699 -3.8119709 255 255 255
4696.4829 2119.5874 6.6822762 255 255 255
-750.87036 -1017.6737 -3.2112598 255 255 255
-980.98303 -1160.5198 -2.6445293 255 255 255
699.27063 652.59827 1.8400472 255 255 255
-538.96863 -483.98508 -1.8851496 255 255 255
1243.9501 1262.72 1.8053927 255 255 255
670.42499 892.07892 1.8571321 255 255 255
946.67206 960.83368 2.2267272 255 255 255
-724.97363 -746.16772 -1.9439899 255 255 255
11412.653 3272.1631 13.704651 255 255 255
-2859.0327 -6815.5649 -13.822362 255 255 255
1107.4928 1288.4861 3.4052019 255 255 255
-3868.2876 -5260.0205 -13.197754 255 255 255
6467.0537 3327.1821 7.3867736 255 255 255
516.71802 919.44043 1.9308629 255 255 255
-398.88516 -154.01396 -1.427003 255 255 255
1940.2063 1407.1975 5.1263037 255 255 255
-1438.8125 -1432.9922 -4.576314 255 255 255
6480.7275 2150.4309 9.2872438 255 255 255
652.86993 654.04486 1.7565024 255 255 255
3973.5139 3120.8711 5.0058498 255 255 255
1419.912 1945.0323 4.032918 255 255 255
208.44202 435.57187 0.71427751 255 255 255
879.7851 1661.8478 2.3700266 255 255 255
-555.68823 -447.37509 -2.0339937 255 255 255
-1072.8257 -873.42279 -2.9730465 255 255 255
2766.8564 2626.6084 4.0327468 255 255 255
-31782.539 -13308.834 -92.181358 255 255 255
4050.3162 2987.7903 5.1260223 255 255 255
4740.1836 2131.9802 6.7244172 255 255 255
-384.09033 -531.77618 -2.160449 255 255 255
-826.25818 -570.86469 -2.2692673 255 255 255
-697.0097 -263.69733 -1.7853032 255 255 255
779.80402 911.03497 1.9954897 255 255 255
-2944.2627 -2935.2185 -5.7890525 255 255 255
-1115.7684 -1834.9895 -3.378262 255 255 255
685.81183 663.37781 1.8184564 255 255 255
9830.5146 3810.5889 10.493102 255 255 255
-1742.0404 -772.20105 -5.7332821 255 255 255
838.06079 691.58392 2.078156 255 255 255
-717.66229 -770.31403 -2.339648 255 255 255
994.83661 992.22748 2.2922812 255 255 255
525.5166 745.2829 1.608205 255 255 255
203.61841 708.55084 1.2786381 255 255 255
-907.52051 -1285.1351 -3.8153689 255 255 255
3507.8777 2472.1997 4.8407688 255 255 255
4119.606 3089.9099 5.1497107 255 255 255
1283.5813 1183.2699 1.7453327 255 255 255
667.3028 497.21518 2.8505216 255 255 255
904.26477 922.91626 1.2835121 255 255 255
915.349 862.57404 2.177125 255 255 255
696.58228 943.13666 1.9062897 255 255 255
2949.3931 2132.6221 8.0099945 255 255 255
-676.93213 -607.48267 -2.1007469 255 255 255
3128.3857 3527.4714 4.7566009 255 255 255
1371.7427 611.2597 3.244369 255 255 255
948.3454 810.87793 2.6596792 255 255 255
741.29602 266.86957 0.85984272 255 255 255
1207.4026 1361.4733 2.3700681 255 255 255
-565.47577 -408.1666 -1.7255584 255 255 255
-629.8963 -300.08621 -1.8156803 255 255 255
1788.2728 1863.4542 3.6750069 255 255 255
1523.0703 1589.4594 5.1599479 255 255 255
3030.5396 2603.3098 4.3063312 255 255 255
794.26227 867.75122 1.1305568 255 255 255
947.04596 1664.6515 2.4139471 255 255 255
4050.3865 2970.4829 5.1387839 255 255 255
-4723.0146 -5620.0215 -20.125032 255 255 255
412.93246 1165.8921 1.7825507 255 255 255
-1217.6006 -934.5094 -3.9239488 255 255 255
-789.6557 -587.28479 -2.7597995 255 255 255
-325.13455 -244.43309 -1.6117651 255 255 255
797.42279 1247.345 2.1260793 255 255 255
3618.4421 2773.5967 4.7991042 255 255 255
-662.29895 -668.56848 -2.5168686 255 255 255
799.40265 599.33936 2.2998495 255 255 255
735.117 965.16852 1.9620538 255 255 255
3171.1885 3401.6968 14.090297 255 255 255
924.75153 709.30701 2.2223592 255 255 255
1078.7949 856.4364 1.4948454 255 255 255
989.32434 988.74426 2.2848182 255 255 255
1043.0457 744.63977 1.2998357 255 255 255
9404.0254 6940.8955 29.574617 255 255 255
2660.4089 2585.8108 3.9451632 255 255 255
516.14838 424.78821 1.4859906 255 255 255
-547.151 -689.95862 -1.9339951 255 255 255
766.94684 698.22748 1.9580915 255 255 255
-11589.122 -7952.5596 -19.773535 255 255 255
9234.4189 2322.5286 13.326232 255 255 255
-549.71161 -490.01422 -2.1917162 255 255 255
-466.59866 -511.04245 -1.8176038 255 255 255
9347.793 3908.0845 9.8199587 255 255 255
415.07462 871.83948 1.5695117 255 255 255
-3620.1748 -5634.7383 -9.0692921 255 255 255
-811.8476 -508.40778 -2.7357311 255 255 255
605.19305 473.59457 1.6723466 255 255 255
745.61542 925.80145 1.9593929 255 255 255
-1063.2111 -1438.5437 -2.9446535 255 255 255
450.44855 1043.2489 1.8510419 255 255 255
13851.701 4310.1074 14.842721 255 255 255
-1299.8129 -1075.6243 -3.6130731 255 255 255
358.37292 659.71893 1.3573374 255 255 255
1150.0919 782.76086 3.0591617 255 255 255
448.99359 1153.1831 1.7924848 255 255 255
16745.289 3661.6777 20.214184 255 255 255
-3801.9907 -3537.8879 -15.651925 255 255 255
-798.00403 -791.13263 -2.980221 255 255 255
3434.2212 2915.9885 4.5711164 255 255 255
-638.29333 -708.50482 -2.0270073 255 255 255
631.05872 760.37524 1.7134479 255 255 255
-11284.842 -13145.174 -38.217934 255 255 255
761.70776 877.52704 2.1792614 255 255 255
4031.7319 3067.5557 5.0770807 255 255 255
549.96613 684.5813 0.79772413 255 255 255
351.30161 511.7428 1.2421577 255 255 255
852.59436 666.53046 2.1092663 255 255 255
1562.4323 1489.2651 2.9412997 255 255 255
829.84021 1841.1237 2.5678411 255 255 255
-885.21075 -1292.9856 -3.5554352 255 255 255
1001.1769 885.67218 1.2582815 255 255 255
-535.56177 -678.35754 -2.6483212 255 255 255
-471.53256 -480.37097 -2.2469549 255 255 255
-1416.6168 -1845.3005 -5.1512589 255 255 255
4346.7432 1700.9258 6.7219162 255 255 255
3786.6621 1696.7883 5.9359851 255 255 255
3764.8423 3007.8403 4.8466797 255 255 255
-1533.0663 -348.48056 -3.6487553 255 255 255
-2088.5247 -2064.2742 -6.4192567 255 255 255
3704.6562 5784.5508 11.31685 255 255 255
-528.08478 -437.56772 -2.2760839 255 255 255
771.48248 923.45703 1.9897661 255 255 255
-568.21899 -484.38605 -1.6679876 255 255 255
542.41119 618.57672 1.5741974 255 255 255
7115.0747 4279.7759 24.437965 255 255 255
-3140.03 -3180.5872 -11.804862 255 255 255
480.8067 470.93826 1.3327043 255 255 255
803.04852 643.03876 2.0297513 255 255 255
1786.8855 1165.2942 2.017189 255 255 255
2598.9338 2560.1289 3.892343 255 255 255
-782.33112 -1628.0261 -4.0392365 255 255 255
2090.2573 2093.0974 6.5244961 255 255 255
1038.3656 750.89508 2.4084778 255 255 255
-1290.5787 -1071.4877 -4.4210653 255 255 255
-2236.8381 -1613.5503 -8.2054987 255 255 255
2732.4009 2446.3738 4.0397024 255 255 255
-919.40387 -1940.6084 -5.3229976 255 255 255
4037.5244 3047.0505 5.0950265 255 255 255
-599.19745 -599.46375 -2.1450534 255 255 255
1815.3632 1078.3451 3.540467 255 255 255
675.44073 696.19598 1.8064109 255 255 255
-1089.1252 -1625.5603 -4.143466 255 255 255
-3633.7964 -2016.8082 -5.971313 255 255 255
604.65027 862.66003 1.7615854 255 255 255
-340.25519 -487.70447 -1.771014 255 255 255
-765.38483 -545.87683 -2.6940243 255 255 255
3129.8145 2768.8748 4.3320951 255 255 255
508.28967 892.63184 1.667405 255 255 255
2916.6594 1956.1411 4.4616432 255 255 255
5801.0352 2621.0088 7.4555326 255 255 255
-902.32092 -604.0578 -2.6207597 255 255 255
-9229.9727 -4143.3008 -25.168331 255 255 255
378.98312 1049.5378 1.8739489 255 255 255
-3180.7654 -4166.4741 -13.747197 255 255 255
460.1557 686.94897 1.0675846 255 255 255
-525.58038 -632.66309 -2.6288853 255 255 255
753.80341 1257.3236 2.0912054 255 255 255
2452.9819 2336.4053 3.793174 255 255 255
5399.3931 6074.9507 14.311641 255 255 255
1923.51 1963.0883 2.7572997 255 255 255
-28131.041 -14959.719 -94.848045 255 255 255
-575.53601 -507.96457 -1.9392631 255 255 255
-2896.1858 -4886.8882 -10.888653 255 255 255
1261.3495 647.98041 2.8792131 255 255 255
2724.1479 2009.9028 7.9130306 255 255 255
-2138.8921 -2480.6426 -7.7655978 255 255 255
3489.6416 1784.1561 5.386611 255 255 255
-2986.6687 -2428.6345 -6.1108108 255 255 255
-416.19061 -475.98151 -1.9783733 255 255 255
580.82465 701.19324 1.6579477 255 255 255
1934.9275 1356.8969 3.6944523 255 255 255
6164.9297 1818.0533 9.6433754 255 255 255
878.88666 677.37134 1.1975819 255 255 255
29196.115 21213.883 89.774796 255 255 255
356.97757 499.20197 1.2412304 255 255 255
-7137.9722 -5142.4785 -23.384844 255 255 255
647.82007 943.66162 1.848573 255 255 255
567.18793 392.55145 0.7788552 255 255 255
-714.96857 -3208.5168 -7.5341387 255 255 255
583.10516 761.1264 1.6024152 255 255 255
811.64185 1595.1503 2.4514887 255 255 255
6092.6582 1805.8857 9.5350142 255 255 255
6917.5996 4101.7271 7.2282162 255 255 255
3770.0513 2827.7087 4.9241791 255 255 255
576.80902 745.44952 1.668802 255 255 255
-32946.352 -27060.262 -106.2455 255 255 255
4165.2598 2186.2903 5.8684254 255 255 255
596.82159 779.25262 1.7114271 255 255 255
599.05701 638.44629 1.2562846 255 255 255
2303.3706 1626.6143 3.8755155 255 255 255
783.59741 1236.7281 2.1077635 255 255 255
4411.1758 3295.1074 5.6271505 255 255 255
869.72473 801.17828 2.311229 255 255 255
410.54327 325.62003 1.1260794 255 255 255
730.84583 869.36755 1.9253621 255 255 255
-1863.0139 -1226.9781 -5.0736418 255 255 255
-1293.2181 -2168.1194 -5.1999097 255 255 255
419.87033 436.7421 1.3096367 255 255 255
1286.8323 977.19934 1.5182731 255 255 255
4643.3926 2957.8079 5.727951 255 255 255
1484.77 1490.509 2.1123805 255 255 255
1910.2092 1301.4989 2.6268113 255 255 255
-1326.7201 -1197.6515 -4.1857872 255 255 255
-3897.2744 -7272.4902 -13.632018 255 255 255
-9810.71 -7800.1079 -37.012009 255 255 255
2798.959 2472.053 4.0980635 255 255 255
-1639.8324 -1069.9491 -4.6912017 255 255 255
-3940.467 -5595.9004 -20.683159 255 255 255
2796.3816 2062.3403 4.2312098 255 255 255
1038.9856 1342.0045 3.4359174 255 255 255
682.95599 1332.5455 2.5372832 255 255 255
2263.7197 787.75659 6.8861666 255 255 255
-17961.256 -14168.594 -54.15559 255 255 255
434.69281 681.00006 1.4407122 255 255 255
2916.6423 2514.833 4.1994524 255 255 255
-915.67969 -1123.4753 -2.2781229 255 255 255
-2562.7017 -3359.9641 -5.6042919 255 255 255
-2654.4019 -1230.4093 -4.2756581 255 255 255
-2601.9275 -1892.7316 -7.0367684 255 255 255
55.370121 680.43256 1.1981311 255 255 255
2759.3745 3229.7476 9.7968321 255 255 255
-5409.9907 -7461.812 -20.081545 255 255 255
667.13806 845.79614 1.8345171 255 255 255
494.04504 765.0354 1.6303146 255 255 255
1127.4823 990.83813 1.3789185 255 255 255
732.7807 980.97839 1.96497 255 255 255
1597.5327 908.2583 2.3542964 255 255 255
790.4126 915.31909 2.0110159 255 255 255
285.16595 1003.2736 1.6966699 255 255 255
-1057.181 -1069.3804 -3.6107659 255 255 255
-558.1347 -556.46637 -2.2004552 255 255 255
1216.3031 759.87067 1.6295034 255 255 255
988.1889 1088.5369 2.2912111 255 255 255
-765.63464 -782.40942 -2.3974049 255 255 255
4225.4355 2984.6233 5.3037715 255 255 255
-958.70013 -2639.0911 -4.7468071 255 255 255
2828.2344 2650.5916 4.0824285 255 255 255
-978.00964 -1675.1228 -3.9966435 255 255 255
-1144.6614 -1159.105 -2.740659 255 255 255
-680.3551 -864.68854 -2.3392761 255 255 255
-2123.3237 -1043.5452 -6.7626095 255 255 255
2111.1902 1223.4823 2.9336553 255 255 255
-568.62482 -561.875 -2.481472 255 255 255
-1705.9274 -3243.4961 -7.5437913 255 255 255
511.08243 249.74265 0.60996062 255 255 255
1724.0659 1407.4672 3.2130122 255 255 255
987.8244 1018.7751 2.2820845 255 255 255
989.08588 1000.4541 2.2831392 255 255 255
4940.9648 2738.9961 6.2461042 255 255 255
-3943.4019 -3502.8276 -13.907098 255 255 255
352.59805 609.49561 1.3129541 255 255 255
-825.48071 -513.61963 -2.1962898 255 255 255
2392.7549 2312.9868 3.740293 255 255 255
15793.779 22458.898 65.234642 255 255 255
4413.2856 1751.5421 6.8448095 255 255 255
1198.4077 1187.3027 3.3362827 255 255 255
-562.32739 -631.56323 -2.7263525 255 255 255
968.73303 991.19824 2.2546041 255 255 255
3497.5789 1784.9791 5.4032574 255 255 255
710.39801 731.47626 0.9011724 255 255 255
591.76306 796.69312 1.7168938 255 255 255
987.52673 983.57343 2.2810893 255 255 255
-5253.0005 -6988.5874 -10.583633 255 255 255
-516.20911 -450.43924 -1.9879123 255 255 255
4023.0684 1276.2906 7.2188902 255 255 255
492.90189 659.01947 1.0573751 255 255 255
4039.3464 3064.0559 5.0849862 255 255 255
1445.3591 2432.0408 4.0150042 255 255 255
1439.0918 1583.0243 2.8048587 255 255 255
4049.8687 2996.2642 5.1290183 255 255 255
14842.087 4181.896 15.713804 255 255 255
3099.7454 3048.5752 9.9300413 255 255 255
-1373.2032 -1512.417 -3.351182 255 255 255
-1708.2749 -1735.995 -3.2216618 255 255 255
1138.203 566.98975 2.7887936 255 255 255
748.28162 726.90637 1.9277675 255 255 255
781.9447 685.66669 1.9818406 255 255 255
718.4577 434.45001 1.07637 255 255 255
657.1203 421.54492 0.9934302 255 255 255
-1688.4786 -1811.8658 -4.7074323 255 255 255
24.90642 715.21637 1.2336231 255 255 255
581.59821 801.56549 1.7073573 255 255 255
-1144.5981 -1136.6327 -4.007215 255 255 255
1502.0215 1515.6101 2.8446877 255 255 255
1527.6434 860.13092 2.1899834 255 255 255
-898.3811 -413.47305 -2.0349565 255 255 255
41.106853 708.51874 1.2267474 255 255 255
1674.2522 1455.7878 4.867137 255 255 255
11425.26 3251.02 13.74687 255 255 255
111.33996 697.85522 1.2285403 255 255 255
1499.7506 1444.7336 2.8473577 255 255 255
1514.4037 1545.5995 2.8623316 255 255 255
1112.0526 574.03021 2.7162373 255 255 255
1953.6523 977.78668 2.555711 255 255 255
-605.82458 -468.67389 -2.6287305 255 255 255
6857.5127 4084.406 7.1941595 255 255 255
385.436 842.01337 1.5234904 255 255 255
3523.7751 2559.7922 10.732469 255 255 255
769.19232 921.85315 1.9876562 255 255 255
-13.958344 -33.47192 -1.1083295 255 255 255
441.58347 739.0011 1.5282859 255 255 255
1383.3806 1393.3414 2.7176199 255 255 255
1426.1035 1378.153 2.7841201 255 255 255
744.50208 961.90247 1.9714501 255 255 255
1414.845 1377.6527 2.7638686 255 255 255
1090.5721 562.55164 2.6842775 255 255 255
1147.2225 823.03241 1.2561985 255 255 255
77.936203 700.10162 1.2227786 255 255 255
3525.6135 2474.5349 4.8513408 255 255 255
1109.4762 870.92017 1.2224463 255 255 255
805.14655 1035.5321 2.0583177 255 255 255
1097.8599 1135.665 1.4618438 255 255 255
475.58368 721.0354 1.535211 255 255 255
3851.8267 2853.6033 4.9884267 255 255 255
1441.7446 1519.764 2.7880814 255 255 255
-977.62445 -983.35089 -3.4492664 255 255 255
3501.2375 2467.4185 4.8291316 255 255 255
890.39844 763.42267 1.1889606 255 255 255
271.98248 1077.9432 1.6142884 255 255 255
3967.5242 2951.7124 5.062036 255 255 255
-287.51376 -319.15311 -1.5062634 255 255 255
347.26703 923.4975 1.4983941 255 255 255
462.83286 442.15341 0.69496602 255 255 255
1400.092 1466.0387 2.7312508 255 255 255
6235.9692 1815.8859 9.7631426 255 255 255
602.0495 770.44391 1.7141122 255 255 255
3653.8889 2336.998 5.091332 255 255 255
-1415.7992 -1389.449 -2.7231593 255 255 255
878.93823 1659.0355 2.3675539 255 255 255
420.18372 444.42563 0.64468777 255 255 255
1538.3752 1573.8738 2.8886399 255 255 255
3618.9651 2775.3054 4.8000593 255 255 255
-3432.939 -2041.3403 -11.603205 255 255 255
-841.11487 -1347.9751 -2.910002 255 255 255
232.91556 711.83569 1.2993681 255 255 255
1457.5181 2345.3916 3.9336705 255 255 255
1451.8719 2018.4934 3.495888 255 255 255
-397.96341 -412.17215 -1.7139899 255 255 255
-19076.037 -15487.312 -65.774696 255 255 255
-4951.8237 -4306.5483 -21.095545 255 255 255
-656.09912 -395.24448 -1.9422014 255 255 255
530.5791 442.19366 0.95324433 255 255 255
7143.5586 4691.8999 20.235258 255 255 255
-903.80371 -626.76575 -2.4104269 255 255 255
5238.27 2563.9707 6.8171568 255 255 255
6917.7769 4105.4668 7.2274098 255 255 255
10016.306 3243.2234 11.882154 255 255 255
3842.0789 3406.9019 5.5039291 255 255 255
1343.8219 1382.6737 2.7352982 255 255 255
1276.208 596.16107 3.088587 255 255 255
1401.6091 1374.351 2.7499583 255 255 255
8629.1855 3184.1572 10.202799 255 255 255
29.476278 618.87408 1.1235675 255 255 255
755.85309 976.58411 1.988109 255 255 255
14029.319 3537.3501 16.739853 255 255 255
400.65662 740.64178 1.4616923 255 255 255
441.02271 377.02335 0.58960152 255 255 255
85.738106 675.76947 1.1976645 255 255 255
1786.5264 1372.1737 2.5061665 255 255 255
-816.89539 -865.09875 -2.9275851 255 255 255
-1054.9509 -784.10931 -2.5903451 255 255 255
2910.8909 954.59943 5.838367 255 255 255
1379.9596 1393.2368 2.713563 255 255 255
1542.7559 697.85352 3.4822016 255 255 255
9776.9648 3225.2368 11.62302 255 255 255
108.20967 684.37622 1.2133638 255 255 255
-1743.0986 -2129.4248 -5.9165258 255 255 255
70.310493 701.65808 1.2228049 255 255 255
3960.106 3029.9841 5.0262356 255 255 255
1783.4685 1865.3157 3.6640015 255 255 255
2543.1858 1770.7357 6.9473147 255 255 255
2361.0442 659.06573 6.031918 255 255 255
567.92999 551.26721 1.5996863 255 255 255
1129.5361 569.32153 2.7671359 255 255 255
-16956.971 -6178.6089 -19.517782 255 255 255
1515.0966 1513.468 2.8594611 255 255 255
1699.0156 1624.566 2.7717083 255 255 255
8721.1543 3178.6812 10.315882 255 255 255
576.23041 745.66492 1.6689191 255 255 255
406.55719 743.77203 1.4675674 255 255 255
350.47177 514.22119 1.2428149 255 255 255
356.64041 816.46222 1.4808319 255 255 255
784.14362 710.78455 1.9844108 255 255 255
1414.9561 1480.0079 2.7494938 255 255 255
1521.3521 1540.3187 2.8703692 255 255 255
-1550.017 -1455.2148 -6.4631772 255 255 255
-2380.1377 -2959.7153 -5.2960806 255 255 255
158.19363 327.26035 0.82150966 255 255 255
192.16074 283.1022 0.81917089 255 255 255
1400.8878 1369.2565 2.7502024 255 255 255
355.52127 666.21228 1.3616555 255 255 255
509.77634 323.77573 0.67636001 255 255 255
-2856.845 -2544.2439 -10.51371 255 255 255
522.70001 542.26172 0.96855563 255 255 255
6493.4814 2153.7065 9.3072224 255 255 255
2936.4062 2313.5625 4.7935958 255 255 255
628.26324 528.8786 1.7096735 255 255 255
-2642.2808 -3677.9827 -6.0468588 255 255 255
-3768.4558 -3562.9299 -6.7625465 255 255 255
1604.2319 1632.0524 2.9769938 255 255 255
1505.3143 1509.0828 2.8468451 255 255 255
-562.20654 -332.67941 -1.6236626 255 255 255
-867.8847 -628.94666 -2.2908955 255 255 255
-1433.6737 -924.76904 -2.7198229 255 255 255
1384.8369 1380.3297 2.7281115 255 255 255
418.35233 432.35904 1.3065885 255 255 255
-543.09808 -311.17615 -2.5508018 255 255 255
356.30707 978.73236 1.3327073 255 255 255
1413.4015 1495.7375 2.752682 255 255 255
781.68292 1236.7727 2.1067474 255 255 255
1191.5178 594.88531 2.8548584 255 255 255
632.59009 530.39001 1.7176894 255 255 255
-9024.3936 -11673.367 -19.393009 255 255 255
1420.6158 1482.8281 2.7565789 255 255 255
1866.0398 2386.7659 4.0340552 255 255 255
40.394169 695.77252 1.2138788 255 255 255
156.23143 535.8316 1.0670859 255 255 255
-6505.5693 -6820.0156 -18.136412 255 255 255
4694.2715 2118.1035 6.6777716 255 255 255
787.32532 894.98743 2.0014217 255 255 255
1035.5355 748.61383 2.4024487 255 255 255
715.93268 947.9873 1.9330542 255 255 255
506.48343 240.83755 0.60936105 255 255 255
744.48938 924.38959 1.9560486 255 255 255
-716.77667 -620.54144 -2.6761761 255 255 255
-3368.4309 -3613.3804 -6.0872207 255 255 255
-647.24579 -275.09296 -1.6594025 255 255 255
312.97415 657.4577 1.1861587 255 255 255
-972.50415 -572.87573 -4.0251603 255 255 255
1925.4684 1964.64 2.7597992 255 255 255
539.42798 856.07172 1.6771092 255 255 255
-991.42249 -1817.5217 -4.4390516 255 255 255
857.98712 670.35345 2.1222367 255 255 255
-281.4028 -233.47772 -1.430105 255 255 255
3620.0557 2969.3022 4.9042954 255 255 255
-6314.7437 -7013.6538 -13.756755 255 255 255
-2134.8784 -1794.4241 -7.7251868 255 255 255
-968.72656 -707.59772 -3.5210874 255 255 255
4053.3879 2990.0977 5.1305408 255 255 255
11227.214 9058.6816 34.823975 255 255 255
2274.0271 2785.8726 3.4845901 255 255 255
4576.1909 1760.3838 7.1077967 255 255 255
415.55539 872.46069 1.571597 255 255 255
1169.014 982.47552 2.5465381 255 255 255
2915.2705 979.26044 5.8075585 255 255 255
340.26532 801.60968 1.4560657 255 255 255
4872.8555 1757.949 7.5825644 255 255 255
643.86584 882.9223 1.8188541 255 255 255
1488.3031 1432.8953 2.8375888 255 255 255
4110.2949 3075.8074 5.1421165 255 255 255
3860.0276 3408.5059 5.2434325 255 255 255
83.797195 645.61102 1.1624312 255 255 255
203.24861 708.21869 1.2783567 255 255 255
-927.58777 -1463.2991 -4.1637735 255 255 255
1536.0665 943.12183 1.8905878 255 255 255
1214.2781 810.12561 2.8769941 255 255 255
2718.6729 2868.1042 8.8277903 255 255 255
4039.9626 3064.3093 5.0854459 255 255 255
2640.8726 2291.4204 3.9770672 255 255 255
154.44322 525.76367 0.71152174 255 255 255
476.8739 1129.8297 2.6108303 255 255 255
526.97626 926.97357 1.7046483 255 255 255
-284.10193 -334.77609 -1.3810875 255 255 255
390.88348 337.24759 0.51101059 255 255 255
-862.92444 -679.98254 -3.7334425 255 255 255
4131.8081 3014.8416 5.1945243 255 255 255
308.50232 780.70404 1.4143252 255 255 255
584.47485 783.20312 1.7005991 255 255 255
743.96399 939.52191 1.9638213 255 255 255
6152.3428 1814.5354 9.6271362 255 255 255
11424.133 3272.304 13.720702 255 255 255
1058.0793 583.02399 2.589025 255 255 255
781.89209 660.15289 1.9858238 255 255 255
525.41241 741.16608 1.6027795 255 255 255
55.297138 680.02313 1.1978539 255 255 255
4041.1821 3050.1489 5.0925474 255 255 255
-927.10559 -350.16129 -3.6698399 255 255 255
3840.4534 1669.9691 6.056509 255 255 255
-3652.7205 -2280.2847 -6.0867491 255 255 255
75.644264 686.80371 1.2080587 255 255 255
1340.6949 3255.8086 5.231811 255 255 255
6105.9087 1809.1239 9.554801 255 255 255
351.66565 452.28333 1.2018795 255 255 255
4025.5491 3039.7751 5.0794225 255 255 255
3326.2654 2671.7976 4.5564299 255 255 255
4036.7129 3070.5889 5.084271 255 255 255
993.27527 991.18597 2.2885621 255 255 255
106.50202 192.19838 0.43764612 255 255 255
473.75696 356.4447 0.5733434 255 255 255
734.39453 964.23285 1.9597378 255 255 255
2915.8345 2514.3252 4.1978436 255 255 255
5347.6431 11703.233 16.912886 255 255 255
1142.8878 1882.783 2.949347 255 255 255
3934.9587 2659.0332 4.8250399 255 255 255
-7937.5117 -15142.605 -36.435734 255 255 255
3854.6252 1845.2159 10.594676 255 255 255
894.34882 484.37015 2.9846489 255 255 255
954.32831 1188.8196 1.4820118 255 255 255
6471.8853 3420.3308 7.2781363 255 255 255
3436.1592 2915.853 4.57336 255 255 255
-1860.4283 -1225.0688 -5.0671105 255 255 255
449.53964 1154.2587 1.793916 255 255 255
1030.4521 615.7619 1.3112293 255 255 255
375.34894 151.00783 1.0852119 255 255 255
737.15442 712.7995 1.8930602 255 255 255
-986.30328 -532.08411 -2.2502286 255 255 255
3231.8105 2838.9504 4.4082069 255 255 255
6267.645 3319.6694 7.2027254 255 255 255
-1032.0737 -1599.4766 -3.351795 255 255 255
401.00696 685.91223 1.4274987 255 255 255
4044.4968 2966.6377 5.129848 255 255 255
4745.3979 2134.9666 6.7342196 255 255 255
-1037.793 -1203.3094 -3.5253935 255 255 255
-801.63641 -1394.4777 -3.7627079 255 255 255
-525.07788 -522.54163 -2.1302364 255 255 255
2769.5613 2628.5496 4.0367632 255 255 255
3403.5442 2871.177 4.5552607 255 255 255
1979.004 1267.783 5.1237717 255 255 255
2252.5435 1655.927 6.7828975 255 255 255
148.20949 355.71725 0.84583306 255 255 255
-609.90039 -285.05124 -1.772849 255 255 255
593.55029 359.56589 1.7034528 255 255 255
1797.1469 1721.8337 2.6424265 255 255 255
1050.4559 654.11591 1.1929766 255 255 255
3897.2593 9854.6309 17.237579 255 255 255
4707.2739 1749.5887 7.3288479 255 255 255
4660.187 1749.7227 7.2428751 255 255 255
-615.36267 -412.84024 -2.9371598 255 255 255
2603.3271 2563.957 3.898706 255 255 255
3357.4211 1825.5431 5.1681218 255 255 255
1491.2012 1998.0629 4.4434433 255 255 255
-649.76532 -273.54846 -1.6588705 255 255 255
3653.1265 3000.2124 4.7488999 255 255 255
486.02383 1437.6395 2.0059981 255 255 255
1505.876 1406.9812 4.1686087 255 255 255
3767.1741 3008.7166 4.8509865 255 255 255
-1379.9669 -1013.9852 -3.0603504 255 255 255
623.34686 550.85718 1.6994399 255 255 255
-959.65784 -929.88818 -4.4440675 255 255 255
1874.8014 1456.201 5.7459288 255 255 255
561.49811 1436.5868 2.0417092 255 255 255
4143.2578 3013.491 5.2112598 255 255 255
-1403.882 -1146.8689 -4.4825144 255 255 255
-519.75037 -994.15326 -3.0765827 255 255 255
-14863.267 -14225.188 -58.290478 255 255 255
767.07214 812.24548 2.7923281 255 255 255
-347.90625 -82.12912 -1.4182321 255 255 255
-3475.3533 -1436.6798 -5.4146495 255 255 255
6816.3682 1716.6517 19.466358 255 255 255
-1070.3539 -1082.8716 -3.6376784 255 255 255
620.45142 820.25842 1.7641339 255 255 255
-2021.3372 -824.77728 -6.8704934 255 255 255
748.22272 634.21979 1.9274117 255 255 255
-1537.5869 -965.80634 -3.3321669 255 255 255
1447.4169 699.72992 3.2709627 255 255 255
766.52924 697.96387 1.9566522 255 255 255
697.63245 607.84418 1.3528417 255 255 255
353.47293 657.41211 1.3506771 255 255 255
1032.3621 2140.2253 4.2486324 255 255 255
3072.2683 1268.5284 5.4793801 255 255 255
22180.926 26394.51 59.24651 255 255 255
352.38367 595.99329 0.88532948 255 255 255
-3231.7751 -5485.9302 -10.90392 255 255 255
-2336.0276 -2464.7898 -7.19379 255 255 255
-1317.7957 -1859.9332 -5.1365933 255 255 255
2390.9658 2311.3779 3.7370334 255 255 255
10021.94 3940.416 10.486868 255 255 255
9123.6221 2300.3115 13.20063 255 255 255
-811.42249 -494.59445 -2.1660371 255 255 255
-1568.6401 -1762.7599 -5.4924026 255 255 255
1399.1962 592.23828 1.8635373 255 255 255
-324.03098 -201.29286 -1.4212852 255 255 255
762.6817 702.38171 1.9512259 255 255 255
2600.2163 1896.712 8.405858 255 255 255
3181.4958 2615.2832 4.4294281 255 255 255
1934.7407 1898.098 2.8076925 255 255 255
-2203.4114 -18354.545 -33.238297 255 255 255
403.92877 472.01694 1.2973348 255 255 255
-1067.6654 -1312.4346 -3.397541 255 255 255
-633.0647 -577.23749 -2.2552452 255 255 255
392.86499 1227.1355 1.8144844 255 255 255
1690.4966 1640.8804 3.3577578 255 255 255
6020.8594 4559.0898 7.4905763 255 255 255
-1768.8064 -2028.6168 -6.0751309 255 255 255
2658.0103 2583.8352 3.9423792 255 255 255
1209.6561 590.65582 2.9068887 255 255 255
2230.1431 2621.314 7.8541965 255 255 255
2093.5032 1719.5092 5.7549644 255 255 255
-710.85522 -417.96002 -1.9086684 255 255 255
-525.93005 -536.07611 -2.3566182 255 255 255
696.61877 619.96118 1.8308889 255 255 255
786.23859 913.20093 2.0048885 255 255 255
156.01997 537.15369 1.0682088 255 255 255
-1255.1786 -1230.0541 -4.0260296 255 255 255
509.0672 746.39111 1.2233465 255 255 255
-838.966 -705.92938 -2.3043301 255 255 255
789.22333 1301.5602 2.1450069 255 255 255
112.23425 683.18805 1.2131759 255 255 255
-978.06055 -1158.2841 -2.6382103 255 255 255
499.23386 871.85535 1.6455935 255 255 255
1749.1591 847.49054 3.6741061 255 255 255
-510.13699 -297.85876 -2.4095979 255 255 255
5180.5186 3428.8838 6.47686 255 255 255
-1061.77 -566.20642 -4.1932936 255 255 255
558.44977 965.0874 1.7557962 255 255 255
-367.26056 -859.95703 -2.4784648 255 255 255
8129.3345 6282.3232 26.049416 255 255 255
1280.6974 1211.5546 4.2915525 255 255 255
4728.6899 1751.783 7.3649173 255 255 255
770.68225 599.39868 2.7003269 255 255 255
795.76959 316.26678 0.95159447 255 255 255
640.84119 903.29211 1.8533717 255 255 255
438.20361 457.37759 0.53473282 255 255 255
-1048.9463 -1213.6263 -3.010447 255 255 255
4420.4009 1754.6605 6.8609118 255 255 255
-2314.5276 -3048.3806 -7.4245367 255 255 255
3316.5872 2510.4177 9.6939211 255 255 255
2722.1497 1485.5853 8.0490408 255 255 255
1337.4714 2572.0432 4.7613702 255 255 255
4470.8276 3334.0134 12.603674 255 255 255
-1131.8567 -2372.696 -4.2896953 255 255 255
-23981.939 -12094.637 -34.045105 255 255 255
3994.2747 3776.3774 5.7630057 255 255 255
1296.0205 1180.526 2.0910172 255 255 255
429.33633 440.29684 1.0936222 255 255 255
582.40991 702.93781 1.6627179 255 255 255
451.87009 271.76376 0.55071187 255 255 255
554.30371 967.45978 1.7524537 255 255 255
1269.0621 1055.2617 3.8507161 255 255 255
-418.21786 -207.71349 -1.4137244 255 255 255
-1589.2834 -3548.7996 -5.3218651 255 255 255
787.79102 887.29071 2.0018497 255 255 255
4164.0166 2185.6755 5.8677692 255 255 255
1454.2495 885.85291 1.6934394 255 255 255
-416.63336 -482.33099 -1.7951149 255 255 255
3865.9775 1675.6737 6.0866609 255 255 255
-1275.5461 -1061.2106 -4.3780131 255 255 255
2554.6709 2377.041 3.8810749 255 255 255
4264.0503 2766.2012 4.8533516 255 255 255
1549.8385 1344.2792 5.4354434 255 255 255
432.85107 1188.2756 1.8091005 255 255 255
3341.386 1812.2885 5.1538873 255 255 255
512.94525 742.78113 1.4453361 255 255 255
-773.87372 -776.16724 -2.6566975 255 255 255
928.56348 414.1424 1.6944482 255 255 255
647.94263 943.36426 1.8475834 255 255 255
1633.7711 1125.2512 2.251096 255 255 255
-12479.009 -15145.629 -41.34774 255 255 255
938.67999 881.03186 2.2130685 255 255 255
-627.58319 -474.37692 -2.8984377 255 255 255
-567.53625 -935.91681 -2.6943741 255 255 255
25335.914 6891.1572 42.642609 255 255 255
-1109.1234 -1480.9414 -3.2674949 255 255 255
41380.16 13600.92 119.36798 255 255 255
267.40378 764.86224 1.3722416 255 255 255
3465.8289 2754.9429 4.5036807 255 255 255
1057.9847 1247.7869 1.9999163 255 255 255
6602.6284 4895.458 8.1987906 255 255 255
1368.0757 1725.0468 4.3717151 255 255 255
-1941.6761 -1238.293 -5.3882608 255 255 255
4696.4673 2737.3918 5.9922848 255 255 255
-12268.09 -17391.83 -40.435791 255 255 255
13071.784 9791.9893 16.779936 255 255 255
15788.1 5733.811 18.69631 255 255 255
2366.8074 1346.5109 4.1866956 255 255 255
605.14032 473.41925 1.6718906 255 255 255
-917.37445 -1002.8615 -2.1957281 255 255 255
3757.1855 8045.6606 14.586502 255 255 255
-1821.1699 -1005.0757 -4.3175306 255 255 255
1240.7672 789.24017 1.4860058 255 255 255
-495.12836 -791.98975 -2.118963 255 255 255
-952.90424 -634.07025 -2.7327864 255 255 255
1091.832 883.5827 3.1613727 255 255 255
-3392.0662 -4002.575 -13.289919 255 255 255
-300.44952 -268.01755 -1.4484423 255 255 255
-398.41425 -567.60254 -2.0735853 255 255 255
734.2782 971.02679 1.9629534 255 255 255
2450.3376 2335.3333 3.791786 255 255 255
2793.7083 2467.55 4.090013 255 255 255
712.35455 972.00171 1.9861202 255 255 255
1031.7699 587.36316 2.5244739 255 255 255
1108.1012 830.16284 2.4946933 255 255 255
-322.9173 -136.776 -1.3096372 255 255 255
-1011.1875 -1760.04 -4.354619 255 255 255
565.65698 592.7182 1.6049367 255 255 255
2285.9966 1620.6814 3.8590293 255 255 255
2321.8418 2436.2148 4.7457395 255 255 255
2301.7949 1625.8195 3.872999 255 255 255
4140.6895 2178.6191 5.8499236 255 255 255
-492.32822 -435.35291 -2.4511425 255 255 255
-2246.3552 -1370.2947 -8.4123707 255 255 255
-2335.29 -989.71423 -7.1113048 255 255 255
2212.2612 2158.0786 3.2222157 255 255 255
1108.941 1018.5524 1.4481031 255 255 255
2281.4751 1996.3312 2.7221169 255 255 255
1075.1946 821.58545 1.2550865 255 255 255
-615.09924 -855.47247 -1.9023137 255 255 255
-423.82703 -217.93456 -1.894601 255 255 255
8825.5537 7574.9209 12.572321 255 255 255
-1323.042 -529.26758 -5.114255 255 255 255
1345.2784 1116.3302 1.7142519 255 255 255
-2025.7692 -3002.9441 -7.5824585 255 255 255
9375.1631 5755.7578 11.193414 255 255 255
507.17117 875.64746 1.65749 255 255 255
-829.00916 -680.61096 -3.8106992 255 255 255
361.09485 347.71957 0.48370561 255 255 255
827.42322 905.58624 2.0545058 255 255 255
793.03595 521.69916 0.93296212 255 255 255
356.60037 815.68353 1.4796673 255 255 255
-571.72302 -390.72952 -2.7903016 255 255 255
-1276.2935 -611.1828 -2.8254077 255 255 255
1078.7983 2925.6653 6.3175116 255 255 255
8436.8535 3171.8044 9.9663143 255 255 255
4130.0249 3004.093 5.1952767 255 255 255
4061.4333 2979.2573 5.1463895 255 255 255
-376.72086 -310.01181 -1.7245538 255 255 255
3530.8745 1761.6912 7.4103079 255 255 255
544.76343 1418.0719 2.0227916 255 255 255
4044.3613 2967.9922 5.1310043 255 255 255
200.94505 694.93146 1.263945 255 255 255
3405.1575 2701.04 4.6232815 255 255 255
-1541.1093 -966.94434 -3.336937 255 255 255
155.26273 58.55167 0.21442279 255 255 255
755.89069 976.01788 1.9880908 255 255 255
16624.861 25306.896 38.291073 255 255 255
3307.4438 2869.3372 4.4718676 255 255 255
2423.0144 2177.6973 2.9842381 255 255 255
5006.2261 2749.5422 6.3152366 255 255 255
2087.9148 2222.0869 3.1715348 255 255 255
508.32742 595.96967 0.78698099 255 255 255
-854.58435 -848.43311 -2.7735186 255 255 255
-3676.4182 -883.85297 -11.467023 255 255 255
1597.6144 1123.0653 4.4336987 255 255 255
495.94473 575.10309 0.92600036 255 255 255
2363.5701 2405.2048 7.5594482 255 255 255
254.13394 913.06989 1.4566286 255 255 255
2299.7261 1625.1533 3.8699183 255 255 255
3248.9143 3183.5134 4.7721062 255 255 255
11440.421 3275.0852 13.743556 255 255 255
1554.9778 1485.7695 2.9221344 255 255 255
-1604.9611 -1419.5046 -2.9821994 255 255 255
-3383.0796 -2087.2261 -4.4726262 255 255 255
2281.4736 1617.7498 3.850316 255 255 255
1383.2505 1378.4829 2.7313392 255 255 255
368.62305 640.06396 1.2668869 255 255 255
233.43697 713.42004 1.3020031 255 255 255
1284.9154 681.69165 3.1597795 255 255 255
263.47128 928.95837 1.4835341 255 255 255
-2731.2686 -3523.9268 -10.142993 255 255 255
3537.1907 2745.0847 4.7295351 255 255 255
-1112.9155 -825.05908 -2.9411807 255 255 255
768.64838 920.69495 1.9851538 255 255 255
-605.32202 -540.13055 -2.5661273 255 255 255
3512.7678 2946.9924 4.6372547 255 255 255
9071.6123 2286.9097 13.121037 255 255 255
418.02322 431.91196 1.3047185 255 255 255
1414.3793 1495.6013 2.7544725 255 255 255
1697.7421 1720.0659 3.3945861 255 255 255
1646.3136 1766.2214 4.6317468 255 255 255
-3650.2627 -1663.9836 -10.982087 255 255 255
742.79657 937.75677 1.9601811 255 255 255
748.85144 907.37354 1.9548244 255 255 255
3612.9326 2771.6484 4.7932963 255 255 255
-373.26065 -101.6025 -1.4013023 255 255 255
40.531971 695.45758 1.2132255 255 255 255
762.03101 287.29596 1.0583279 255 255 255
734.34949 962.60779 1.9581964 255 255 255
567.97131 550.95123 1.600459 255 255 255
18881.541 5925.854 21.504301 255 255 255
1186.4062 1891.0181 3.1776483 255 255 255
795.96259 1246.1705 2.1243725 255 255 255
768.6178 1348.7094 2.5068538 255 255 255
957.40503 815.24591 1.2561058 255 255 255
-28757.289 -59721.414 -122.99058 255 255 255
480.14774 471.16046 0.68273073 255 255 255
505.55252 874.11609 1.6539838 255 255 255
2092.085 550.07904 2.6151991 255 255 255
3773.4817 2829.7085 4.9283667 255 255 255
-2350.7163 -3632.7715 -6.4819441 255 255 255
7366.8711 4633.3047 20.537254 255 255 255
787.04266 817.66406 1.985773 255 255 255
1205.4841 852.45026 1.4799224 255 255 255
554.5354 1428.9926 2.0305262 255 255 255
570.98376 578.24091 0.81785923 255 255 255
5771.0503 5470.0942 8.0554123 255 255 255
-576.89838 -545.75018 -2.0717983 255 255 255
418.21335 772.25293 1.2135475 255 255 255
-2287.1057 -3521.7188 -7.4730024 255 255 255
-1554.9153 -2112.8293 -5.6869836 255 255 255
595.01678 767.16455 1.7033342 255 255 255
643.86279 695.06732 1.7538679 255 255 255
1561.5164 1492.171 2.9400854 255 255 255
-415.51974 -240.8676 -1.9159874 255 255 255
524.2677 545.90472 1.1356362 255 255 255
500.82007 874.13361 1.6502371 255 255 255
-2843.9182 -4037.3723 -6.9132128 255 255 255
369.18848 646.24847 1.3601961 255 255 255
587.08105 434.7027 0.80730522 255 255 255
4144.3037 3021.7981 5.2106328 255 255 255
426.80496 882.66693 1.5878696 255 255 255
544.28058 622.06775 1.5788615 255 255 255
781.28827 659.93579 1.9860616 255 255 255
3675.7637 2344.2197 5.1098833 255 255 255
3655.6023 2338.9907 5.094954 255 255 255
643.59595 881.95801 1.8180678 255 255 255
10537.816 7821.9429 13.329484 255 255 255
-634.28357 -910.19275 -2.5668387 255 255 255
342.87344 966.07428 1.7700597 255 255 255
-1400.3052 -1137.1199 -3.3942556 255 255 255
977.20917 579.5827 2.4149277 255 255 255
1237.3118 2007.5331 2.2635691 255 255 255
4838.7275 1760.0878 7.5314169 255 255 255
993.98712 991.24152 2.2901995 255 255 255
3031.9546 2711.0115 4.437572 255 255 255
-343.75827 -372.55942 -1.5765586 255 255 255
851.79449 691.69244 2.1021752 255 255 255
641.16766 695.73468 1.7502723 255 255 255
4052.8862 2989.2754 5.1286249 255 255 255
-1195.3865 -1776.8677 -3.6468718 255 255 255
6848.6362 4078.7271 7.1858082 255 255 255
203.28766 707.83533 1.2784308 255 255 255
1772.9183 1496.7426 2.0792041 255 255 255
3111.9531 2589.7253 4.3697805 255 255 255
3558.9675 2890.0515 10.582582 255 255 255
4040.019 2988.9236 5.116466 255 255 255
-1096.3167 -773.99121 -3.0684168 255 255 255
-354.12357 -268.10556 -1.5473666 255 255 255
6447.146 2139.3525 9.2612772 255 255 255
-646.078 -1093.1223 -2.8071742 255 255 255
6920.4688 4111.9492 7.2296162 255 255 255
583.93848 782.20276 1.6993781 255 255 255
-2634.0872 -900.28784 -5.6349621 255 255 255
2990.3835 2545.2451 4.2662277 255 255 255
6513.3198 2159.8674 9.3374825 255 255 255
-2585.7375 -1749.3816 -8.5180435 255 255 255
1847.1058 2186.3152 6.416378 255 255 255
-1972.3694 -1715.3849 -5.6124864 255 255 255
-656.48218 -410.46222 -1.9020559 255 255 255
-749.039 -695.66821 -3.62098 255 255 255
382.44595 611.81104 1.3732647 255 255 255
-671.02686 -615.92767 -2.5356495 255 255 255
-1129.4694 -610.16284 -4.1999984 255 255 255
-21439.57 -70449.164 -103.98215 255 255 255
6482.249 3424.0122 7.2896895 255 255 255
234.74701 726.04968 1.3153464 255 255 255
-8036.7954 -13126.185 -20.568527 255 255 255
-3062.3564 -744.93652 -5.7485728 255 255 255
-186.76952 -117.18717 -1.2092639 255 255 255
-1934.0255 -674.17639 -5.5868044 255 255 255
-5592.9067 -5321.3296 -19.860611 255 255 255
1494.4569 1438.2488 2.842052 255 255 255
622.70837 368.51367 0.71732676 255 255 255
4157.7612 2181.8533 5.85923 255 255 255
661.92542 1103.371 2.0879066 255 255 255
6484.3345 3335.543 7.4141088 255 255 255
-39006.855 -51384.664 -90.071022 255 255 255
-500.32401 -463.96448 -2.0323329 255 255 255
2512.041 1053.532 3.8964171 255 255 255
2794.4651 2469.0305 4.0916266 255 255 255
-2107.2896 -1319.558 -5.3966765 255 255 255
356.07663 567.65106 0.92664903 255 255 255
1255.2241 653.9339 3.0908551 255 255 255
1051.1064 911.07623 1.2836043 255 255 255
1241.186 1800.9531 3.7129922 255 255 255
787.54901 894.36273 2.0017767 255 255 255
14464.975 10936.684 38.635853 255 255 255
2641.4402 2291.6091 3.9765584 255 255 255
2734.9758 2448.6084 4.0434527 255 255 255
-901.08356 -782.57782 -3.4327817 255 255 255
-794.3761 -408.61102 -2.7159681 255 255 255
7561.4307 4343.6514 7.5781789 255 255 255
775.81915 669.60229 1.9759704 255 255 255
2368.4409 2223.9683 3.4700565 255 255 255
-14101.145 -29486.219 -58.343582 255 255 255
4125.6426 3156.53 5.8141522 255 255 255
304.09482 152.46132 0.34688491 255 255 255
-84632.797 -109649.23 -190.32611 255 255 255
9822.1523 3808.76 10.480803 255 255 255
819.00049 1366.2745 2.2029407 255 255 255
3016.2791 3191.0415 9.3373537 255 255 255
70.923523 700.66327 1.2211471 255 255 255
-563.93311 -61.376373 -1.6292491 255 255 255
226.74097 86.806725 0.76874441 255 255 255
2559.374 2380.9409 3.8889771 255 255 255
1169.4043 890.37384 3.2475216 255 255 255
378.67157 504.54211 1.2763697 255 255 255
415.70856 872.0141 1.5712775 255 255 255
-731.22418 -1037.6005 -3.0331702 255 255 255
-1940.6433 -656.3396 -5.6936941 255 255 255
890.65442 955.62402 2.4918261 255 255 255
2449.481 2333.4219 3.7890956 255 255 255
4029.4741 3042.7603 5.0841808 255 255 255
-520.03015 -338.81784 -1.7368493 255 255 255
4041.0229 3050.7793 5.0942698 255 255 255
678.51611 318.87195 0.90968299 255 255 255
3522.1057 2474.2793 4.8469839 255 255 255
3499.9961 2465.5137 4.8281636 255 255 255
-1304.0096 -1227.3031 -3.5939636 255 255 255
358.29065 659.68848 1.3580694 255 255 255
85.683067 676.42761 1.1985511 255 255 255
-3027.647 -3680.9897 -11.410617 255 255 255
209.0601 755.90778 1.3259795 255 255 255
-1469.5366 -1033.5525 -4.2788682 255 255 255
3359.4734 3178.0203 10.625499 255 255 255
2395.9089 2315.8828 3.7447541 255 255 255
4122.8457 3091.8049 5.1546297 255 255 255
-580.44006 -290.87521 -1.5580773 255 255 255
6126.3818 1815.5057 9.5895081 255 255 255
4678.2271 3851.9246 15.818949 255 255 255
1101.6897 461.74109 1.2157596 255 255 255
5629.5811 2627.5156 7.2195907 255 255 255
2299.4504 2277.0095 3.6598587 255 255 255
-10843.601 -5403.418 -14.281816 255 255 255
9053.6436 9645.8271 27.779985 255 255 255
1921.4812 2120.8625 4.4276938 255 255 255
-1068.3175 -1462.0369 -4.3103771 255 255 255
2164.114 1760.5149 3.642622 255 255 255
573.5639 780.95306 1.6900491 255 255 255
809.68854 1345.9004 2.1838808 255 255 255
-807.82312 -511.90805 -2.1243424 255 255 255
-1671.2139 -1057.0652 -5.9890499 255 255 255
911.79352 771.45618 2.5183003 255 255 255
108.08499 684.45349 1.2136241 255 255 255
-306.73331 -104.03195 -1.3672632 255 255 255
470.6434 162.85478 0.52056432 255 255 255
1298.4675 1879.2959 2.1860347 255 255 255
4036.0288 3070.8499 5.0831385 255 255 255
5240.5586 2566.5203 6.8196836 255 255 255
6511.6689 3446.6653 7.2837272 255 255 255
6151.4131 1809.9932 9.6221085 255 255 255
648.95502 945.17133 1.8512566 255 255 255
4708.9829 2123.5295 6.6967077 255 255 255
142.29187 696.77759 1.2392629 255 255 255
4728.6494 2128.4397 6.7099905 255 255 255
1112.7983 574.07056 2.7187846 255 255 255
2035.0681 1415.4596 2.3372202 255 255 255
-3545.356 -1971.3843 -5.844398 255 255 255
-394.64438 -251.21977 -1.7190763 255 255 255
-4294.0293 -4539.1294 -8.113389 255 255 255
1784.4608 1868.3558 3.6705525 255 255 255
-6016.1006 -3536.9243 -14.431333 255 255 255
-652.48291 -760.93237 -2.4157619 255 255 255
-382.91272 -172.396 -1.7393486 255 255 255
581.23267 820.36414 1.7128381 255 255 255
674.2702 878.74402 1.853394 255 255 255
4181.6621 2846.2175 4.8038192 255 255 255
1191.8998 595.54779 2.8575652 255 255 255
1502.0022 1516.0713 2.84496 255 255 255
-1677.7405 -1320.5277 -4.909585 255 255 255
-2346.0078 -2068.4912 -7.3415651 255 255 255
1791.7231 1240.8724 5.1781464 255 255 255
-4140.7583 -5970.082 -15.150798 255 255 255
10262.323 3377.8613 11.814327 255 255 255
1102.6404 1014.5286 2.9052713 255 255 255
4011.1313 1275.1476 7.1991124 255 255 255
-682.59973 -450.65402 -1.8676761 255 255 255
320.18304 938.37079 1.5664046 255 255 255
541.69745 830.7713 1.6912297 255 255 255
10006.61 3243.2593 11.871163 255 255 255
6252.1216 1819.9125 9.7885742 255 255 255
1310.196 890.33496 3.5350194 255 255 255
17544.061 14244.37 47.415535 255 255 255
55.07692 680.31256 1.1987596 255 255 255
966.6955 646.5033 1.1416094 255 255 255
5162.5947 3405.9182 14.709697 255 255 255
-907.33441 -1223.7341 -3.3709905 255 255 255
507.96649 892.57971 1.6676779 255 255 255
-3547.5347 -4578.5576 -12.587799 255 255 255
745.78662 926.16449 1.9603459 255 255 255
47.117378 711.82684 1.2316084 255 255 255
491.7876 1325.6901 1.9309341 255 255 255
2906.4878 947.75922 5.8524327 255 255 255
229.62628 280.46506 0.45835274 255 255 255
-29109.949 -41712.297 -113.72763 255 255 255
9213.1152 20519.59 33.316662 255 255 255
1220.8756 831.44067 1.6343876 255 255 255
603.06494 860.8974 1.7591519 255 255 255
181.37523 177.35107 0.69593579 255 255 255
2351.178 2625.1011 4.0159135 255 255 255
-1030.3263 -1187.0701 -3.6241729 255 255 255
29.489834 617.43347 1.1208199 255 255 255
606.08197 473.88443 1.6739243 255 255 255
1764.1084 2385.3394 6.7099962 255 255 255
-1115.2085 -833.25879 -3.5321531 255 255 255
-677.43085 -1135.0635 -2.4604266 255 255 255
751.07086 929.06775 1.9645271 255 255 255
-991.72992 -1082.0012 -2.8062363 255 255 255
