ply
format ascii 1.0
comment PCL generated
element vertex 1109
property float x
property float y
property float z
property uchar red
property uchar green
property uchar blue
element face 0
element camera 0
property float view_px
property float view_py
property float view_pz
property float x_axisx
property float x_axisy
property float x_axisz
property float y_axisx
property float y_axisy
property float y_axisz
property float z_axisx
property float z_axisy
property float z_axisz
property float focal
property float scalex
property float scaley
property float centerx
property float centery
property int viewportx
property int viewporty
property float k1
property float k2
end_header
-18136.211 -34040.176 -66.821655 255 255 255
1615.7433 653.28693 3.7383971 255 255 255
3686.7273 3605.8711 12.663223 255 255 255
423.45547 483.71851 1.3715471 255 255 255
-156.32674 -332.48779 -1.3428044 255 255 255
1470.1401 1153.0978 3.0130887 255 255 255
4882.252 3413.8445 5.80794 255 255 255
3535.0571 4267.7168 5.8819199 255 255 255
1069.6237 1128.5929 2.4727516 255 255 255
1667.2509 1245.7479 3.2727637 255 255 255
4891.0186 3416.1782 5.815073 255 255 255
-3937.9443 -2239.1528 -5.7827573 255 255 255
6209.9512 9497.9521 18.526028 255 255 255
-152.75403 -374.92969 -1.3929387 255 255 255
690.02362 844.66486 1.9184798 255 255 255
23683.576 12337.974 29.969051 255 255 255
1593.8497 625.40015 3.7403951 255 255 255
-565.69299 -497.57849 -1.8266532 255 255 255
1746.3865 1312.2689 5.6308813 255 255 255
473.69397 326.11414 1.2874537 255 255 255
9565.9678 3163.5342 11.204799 255 255 255
1737.0848 743.59631 3.8316851 255 255 255
668.15906 523.5166 1.8267065 255 255 255
1687.3507 662.79669 3.869108 255 255 255
6497.1826 4039.4929 6.8729029 255 255 255
690.82227 1209.2029 3.0598826 255 255 255
931.64368 1019.1641 2.0291574 255 255 255
-820.08429 -934.75061 -3.2139997 255 255 255
1465.1487 1152.3284 3.0057795 255 255 255
487.51801 742.63019 1.6131445 255 255 255
1128.2484 2417.439 4.286068 255 255 255
953.41223 821.15808 2.7851601 255 255 255
5838.7334 3156.7463 6.9046845 255 255 255
570.15747 349.14777 1.6727515 255 255 255
458.79709 494.39716 1.437408 255 255 255
536.55243 135.39766 0.54101014 255 255 255
3446.9504 1484.9839 8.5631084 255 255 255
625.25702 482.70471 1.7473238 255 255 255
807.93317 704.64722 2.0682185 255 255 255
770.71118 546.93384 2.0232763 255 255 255
-165.41577 -161.26297 -1.2399974 255 255 255
872.3501 941.07562 2.1992815 255 255 255
-908.76733 -1232.885 -4.1146255 255 255 255
-471.37576 -487.21826 -1.9164922 255 255 255
6470.939 3637.2649 7.1218333 255 255 255
-164.88841 -264.33511 -1.517543 255 255 255
2034.3237 1188.6318 4.2996573 255 255 255
-1875.5634 -2635.6228 -7.6595006 255 255 255
9753.4785 3474.1375 25.813051 255 255 255
452.49475 283.70282 0.52265328 255 255 255
-1159.0764 -651.67535 -2.4003677 255 255 255
1113.564 521.62006 2.7904694 255 255 255
1648.8522 1198.3805 3.2647762 255 255 255
428.69785 915.10254 1.6784642 255 255 255
32858.621 29495.82 96.64357 255 255 255
-3372.23 -2433.7209 -10.282064 255 255 255
-753.8396 -322.24854 -1.9349947 255 255 255
464.40289 405.37918 1.4210935 255 255 255
663.39093 738.16394 1.8458557 255 255 255
626.43707 484.40039 1.7479262 255 255 255
-319.2981 -309.77533 -1.4599034 255 255 255
2024.4691 2141.3538 3.249809 255 255 255
924.03308 633.04993 2.2933731 255 255 255
-824.37738 -935.29718 -3.0663524 255 255 255
-9038.8037 -10448.952 -31.015335 255 255 255
-217.56396 -349.90311 -1.6481562 255 255 255
198.27943 285.2153 0.85842299 255 255 255
16220.59 9810.4336 19.388523 255 255 255
828.00385 699.71991 1.1690488 255 255 255
13236.038 3434.0552 15.229775 255 255 255
18151.562 4165.2764 19.315687 255 255 255
782.9483 900.94147 2.0668249 255 255 255
418.72302 545.71771 1.40318 255 255 255
-474.03842 -489.86288 -1.9245373 255 255 255
5259.8174 3267.791 6.2273016 255 255 255
15643.559 4206.5542 15.987143 255 255 255
785.04297 604.64386 2.0360224 255 255 255
9404.1982 3116.6255 11.079059 255 255 255
-17615.18 -16088.143 -35.097885 255 255 255
2081.1846 2751.4795 3.6182148 255 255 255
-2780.2993 -1313.8787 -8.1380329 255 255 255
563.26361 634.90002 1.6611707 255 255 255
3158.9624 5575.5713 10.345431 255 255 255
2583.9104 2213.283 4.0539179 255 255 255
13278.074 3964.5452 13.809193 255 255 255
-5483.2861 -8598.7598 -14.919749 255 255 255
-615.02893 -342.10437 -1.700047 255 255 255
802.92676 707.37048 2.0614283 255 255 255
1368.6434 2159.6172 4.4311976 255 255 255
1218.2101 1462.2596 3.3689697 255 255 255
-10984.804 -10288.519 -36.698246 255 255 255
855.88867 1169.5281 2.2373011 255 255 255
1650.0616 1238.1882 3.2484026 255 255 255
5851.2603 3157.8118 6.922863 255 255 255
10675.651 3560.1228 13.290337 255 255 255
-259.39053 -532.11761 -1.8155093 255 255 255
1136.1825 1265.7889 1.7109294 255 255 255
3288.9468 2351.9551 9.2593002 255 255 255
450.71106 1411.5874 2.0546265 255 255 255
6652.5186 15453.398 27.223196 255 255 255
-1877.3661 -1709.7539 -6.8769226 255 255 255
629.00177 1287.3729 2.0819552 255 255 255
2705.1575 2112.1016 4.2220545 255 255 255
195563.66 178653.41 609.99542 255 255 255
-162.39055 -158.34476 -1.2397263 255 255 255
-593.12775 -657.30188 -2.5446839 255 255 255
579.83398 294.27487 0.65534675 255 255 255
2365.7881 2060.7405 3.1425176 255 255 255
-732.30377 -369.08066 -1.887512 255 255 255
2610.8972 2227.1655 4.0789204 255 255 255
-6614.3916 -5761.9658 -20.074942 255 255 255
-1397.051 -1305.6239 -3.5852973 255 255 255
4828.0171 3413.2388 5.7557902 255 255 255
964.75464 1091.4592 2.3360839 255 255 255
-246.56982 -400.96576 -1.7167203 255 255 255
799.46808 1492.2014 2.3319154 255 255 255
2070.9895 2621.1279 3.9588974 255 255 255
-880.40027 -611.14233 -2.484545 255 255 255
-919.80005 -723.94641 -2.5967157 255 255 255
-816.75665 -856.48499 -2.5837622 255 255 255
-13762.214 -14341.865 -47.645935 255 255 255
877.21649 957.89777 2.206733 255 255 255
971.32666 805.22766 2.337301 255 255 255
2556.4878 2247.9707 4.0162854 255 255 255
22871.957 15949.648 66.073578 255 255 255
-715.30621 -366.45963 -1.8607568 255 255 255
591.1532 438.46259 0.73961526 255 255 255
919.85944 626.77069 2.2862246 255 255 255
3832.7195 2221.29 5.4696159 255 255 255
728.896 722.52979 1.9420613 255 255 255
986.04755 827.58667 1.227897 255 255 255
-14450.188 -12274.924 -42.141163 255 255 255
-809.04462 -571.19067 -2.2976441 255 255 255
3854.1086 2229.7578 5.4860382 255 255 255
725.97052 796.0116 1.9532548 255 255 255
489.86386 742.34088 1.6188002 255 255 255
-61.078384 -157.41663 -1.223483 255 255 255
1277.2723 782.27356 2.8406177 255 255 255
-78.934631 -183.87578 -1.2612771 255 255 255
19208.514 4383.0986 19.943729 255 255 255
176052.62 166496.08 558.72687 255 255 255
-112143.1 -116897.02 -377.04916 255 255 255
693.5658 781.51862 1.0201995 255 255 255
-329.87442 -794.88251 -2.2092526 255 255 255
952.19696 939.94019 2.3003297 255 255 255
8108.0684 12179.548 30.048386 255 255 255
10797.558 5617.2461 13.37716 255 255 255
-7894.1621 -3439.6055 -12.229718 255 255 255
425.07352 813.03705 1.6003903 255 255 255
-199.15634 -180.06752 -1.2863063 255 255 255
886.9964 580.71057 2.2469451 255 255 255
-715.00037 -853.21906 -2.5037558 255 255 255
-78.339684 -144.22121 -1.1634886 255 255 255
897.11884 521.54358 2.251292 255 255 255
-701.62518 -768.7655 -2.4629567 255 255 255
420.09738 524.21466 1.3916554 255 255 255
453.71725 330.09546 0.54354101 255 255 255
478.85938 1038.2986 1.8070552 255 255 255
8.3971148 38.577663 0.13561316 255 255 255
766.87946 584.39154 2.0054431 255 255 255
1345.3754 584.39612 3.2422733 255 255 255
-4025.0161 -2183.1226 -12.733677 255 255 255
-1271.573 -1912.9797 -5.8184218 255 255 255
579.20312 658.35175 1.3025086 255 255 255
-902.39941 -1061.6903 -2.9546432 255 255 255
859.5694 971.07135 2.1884658 255 255 255
2515.7451 5858.5762 11.602295 255 255 255
-2040.955 -2477.9524 -6.7355666 255 255 255
13910.909 3789.0066 14.995828 255 255 255
1679.0692 673.1377 3.8332546 255 255 255
610.71039 497.36884 1.7143955 255 255 255
509.73041 1003.5051 1.8069519 255 255 255
10650.687 3663.1765 11.46221 255 255 255
995.46332 1200.9982 2.3965998 255 255 255
1377.9534 2048.8018 4.7448392 255 255 255
879.30023 827.19269 2.2000258 255 255 255
10660.303 4134.6499 10.6448 255 255 255
244.66568 299.3606 0.95176017 255 255 255
961.81628 630.74152 1.2640529 255 255 255
858.43127 932.44684 2.1792607 255 255 255
19980.273 14511.366 48.416344 255 255 255
5356.6978 3225.4661 6.3553243 255 255 255
847.45984 1738.7026 2.4777989 255 255 255
-655.70764 -335.25363 -1.8577796 255 255 255
-261.15677 -355.29416 -1.7141947 255 255 255
796.31433 1585.4689 2.3763537 255 255 255
-69.355629 -182.0257 -1.2552339 255 255 255
809.20312 615.50562 2.0798905 255 255 255
-1928.9359 -1357.7817 -6.0803452 255 255 255
-4844.438 -4851.168 -16.084282 255 255 255
892.67462 1019.4493 1.2611797 255 255 255
3550.8533 6896.9097 12.403885 255 255 255
472.16803 447.52338 1.4445238 255 255 255
816.33478 884.74927 2.1108646 255 255 255
794.33789 592.95581 2.0561974 255 255 255
1654.8497 1178.7131 4.4264903 255 255 255
468.98914 446.30212 1.4381906 255 255 255
1724.2581 758.26648 3.7811291 255 255 255
-578.44452 -498.25012 -1.7961335 255 255 255
780.3465 602.8927 2.0242214 255 255 255
-1493.4896 -1376.2708 -3.0062191 255 255 255
1291.3251 590.6676 3.1092346 255 255 255
7007.3838 15283.998 29.426649 255 255 255
1111.9302 973.88782 1.4419907 255 255 255
6335.9155 3123.9387 7.470171 255 255 255
907.2962 587.82281 2.2825508 255 255 255
-2095.2847 -2115.6458 -6.6998701 255 255 255
3401.3479 2543.3308 9.4134264 255 255 255
4699.124 3510.8755 5.5989332 255 255 255
8148.8027 5880.9048 23.108704 255 255 255
-744.46313 -563.36334 -1.9513985 255 255 255
-644.4007 -878.97119 -2.5127974 255 255 255
1533.4766 1299.4731 2.3207181 255 255 255
-2476.3101 -3550.1135 -8.9922266 255 255 255
927.18726 667.57904 2.2853522 255 255 255
1338.5406 638.79315 3.1448131 255 255 255
861.45538 588.14661 2.1899354 255 255 255
631.26361 485.16699 1.7606782 255 255 255
5521.2461 3950.7354 6.1074758 255 255 255
9786.8164 3776.5679 10.213652 255 255 255
469.6593 922.51428 1.3145281 255 255 255
2266.8167 5776.9604 10.707814 255 255 255
-1766.9828 -932.22217 -3.4759185 255 255 255
4086.7085 2448.5164 5.2282338 255 255 255
824.96252 886.25934 2.1238041 255 255 255
-31371.725 -30671.803 -101.07713 255 255 255
739.62793 677.00879 1.9532459 255 255 255
684.49323 446.51566 0.8244347 255 255 255
547.70502 1155.8889 1.9393255 255 255 255
-1716.2764 -2694.5674 -6.1469798 255 255 255
875.94458 905.81451 2.197628 255 255 255
1684.5109 2289.6719 7.0352387 255 255 255
1628.8931 2749.4326 4.7809334 255 255 255
-1000.0853 -825.55945 -2.4368589 255 255 255
2525.2332 6328.9097 10.503323 255 255 255
-2094.0349 -2547.1855 -6.8264256 255 255 255
-891.49829 -378.13669 -2.2716923 255 255 255
1074.9198 2947.6428 4.7670822 255 255 255
-5179.6763 -3058.6294 -14.052421 255 255 255
903.87878 516.10913 2.2745914 255 255 255
471.02094 628.87665 1.1468446 255 255 255
-2923.1565 -4227.4863 -10.374171 255 255 255
15362.373 3752.8655 16.997635 255 255 255
678.14813 1632.3345 2.3161378 255 255 255
794.16791 1580.5594 2.3710248 255 255 255
872.34406 605.5946 2.2044322 255 255 255
1003.8646 1207.1731 2.4087381 255 255 255
-14460.941 -18687.674 -47.368679 255 255 255
-1528.7417 -3986.7268 -8.5061207 255 255 255
-72.703316 -146.1232 -1.1517652 255 255 255
874.08691 981.06024 2.2059979 255 255 255
-1755.6539 -2093.8948 -6.3654895 255 255 255
514.7912 714.02112 1.6305866 255 255 255
730.29181 752.35602 1.929341 255 255 255
-1534.937 -2147.7866 -7.0562277 255 255 255
-178.12558 -168.17287 -1.2600896 255 255 255
607.66333 293.82486 0.76130778 255 255 255
-1498.7427 -1740.7539 -5.0058975 255 255 255
819.33185 538.4845 0.91520965 255 255 255
793.5354 589.84619 2.0562704 255 255 255
850.92194 1734.1981 2.4777431 255 255 255
782.77155 714.36072 2.0301485 255 255 255
419.82178 556.52728 1.4099108 255 255 255
3936.9509 2296.4705 4.3694673 255 255 255
3174.2246 2486.5659 4.5735135 255 255 255
-179.10579 -159.03044 -1.2586066 255 255 255
-1174.0062 -1089.865 -3.5625706 255 255 255
215.43706 977.39447 1.267817 255 255 255
500.2966 176.88393 1.2512442 255 255 255
-1392.4854 -922.15509 -4.2577858 255 255 255
1672.9264 739.87616 3.7030711 255 255 255
662.61469 511.89258 1.8174978 255 255 255
644.16693 448.18924 0.78422576 255 255 255
1397.9587 1394.5918 2.8136511 255 255 255
-2296.0654 -3617.4634 -8.2549295 255 255 255
-466.18015 -353.17584 -1.6081405 255 255 255
-735.86652 -672.9588 -2.3103182 255 255 255
4335.2461 2160.3125 6.1702385 255 255 255
-685.60931 -445.23456 -1.9774617 255 255 255
443.54285 748.29938 1.8575128 255 255 255
-1270.0839 -952.46906 -2.5791452 255 255 255
566.13342 425.34091 1.6329945 255 255 255
104166.3 36296.727 145.51993 255 255 255
500.6134 920.39221 1.7457083 255 255 255
651.31323 1064.6432 1.9751261 255 255 255
545.30035 636.89386 1.6357119 255 255 255
493.13379 433.48712 1.4842458 255 255 255
-1147.819 -1094.1885 -4.1213474 255 255 255
1015.2366 1183.8057 2.4163775 255 255 255
919.5639 1009.6138 1.3919113 255 255 255
2707.0334 2102.947 4.2258244 255 255 255
974.32623 580.20819 2.4256074 255 255 255
-15278.772 -5721.1064 -39.023621 255 255 255
673.47998 523.06592 1.8365753 255 255 255
142542.19 88469.32 366.57144 255 255 255
-11708.218 -9178.4385 -31.996304 255 255 255
972.70526 1457.2299 2.7712626 255 255 255
-36143.512 -20215.695 -43.09544 255 255 255
954.63531 1199.593 2.3530929 255 255 255
391.91815 301.33313 0.45512021 255 255 255
734.24347 850.80609 1.9817637 255 255 255
-7087.6914 -5223.811 -21.130657 255 255 255
539.2962 518.31323 0.69248044 255 255 255
431.67142 795.42322 1.5932823 255 255 255
1013.7166 976.18341 2.3891799 255 255 255
1092.6602 997.12756 2.500088 255 255 255
-1059.183 -1814.7241 -4.4333234 255 255 255
-890.09412 -1069.2844 -3.0899332 255 255 255
7166.292 2794.9563 7.5178995 255 255 255
3539.3789 1525.6407 3.4991798 255 255 255
365.29651 171.6545 0.40301472 255 255 255
-301.71204 -297.49222 -1.5337726 255 255 255
511.54453 634.39917 1.5837601 255 255 255
-4476.5522 -1738.405 -7.4168329 255 255 255
-3507.0354 -3133.9109 -10.176924 255 255 255
690.82141 1701.0052 2.3604629 255 255 255
-1657.8457 -1952.8845 -3.6339631 255 255 255
1066.1252 1131.228 2.4710004 255 255 255
-806.29218 -907.96973 -2.2026067 255 255 255
529.15765 1141.9392 1.9167901 255 255 255
115.00497 910.99976 1.514645 255 255 255
-1041.3566 -976.69214 -3.0743341 255 255 255
460.65967 899.51495 1.6955688 255 255 255
1942.7913 1543.0052 2.4682426 255 255 255
940.09515 852.59393 1.1957291 255 255 255
1019.8712 920.90833 2.3946393 255 255 255
457.65543 497.42816 1.4373612 255 255 255
529.24664 2277.4072 3.5812082 255 255 255
500.11807 1245.7665 1.9668047 255 255 255
-1053.7828 -971.16461 -2.4255469 255 255 255
912.20428 523.41492 1.0851922 255 255 255
-711.6792 -705.24908 -2.1717553 255 255 255
6309.8062 2157.0051 8.940196 255 255 255
898.63867 928.43903 2.2289152 255 255 255
429.24655 249.31616 0.48248374 255 255 255
-822.99536 -1954.0231 -3.8354592 255 255 255
818.67871 852.79358 2.2972968 255 255 255
2599.0066 1122.7329 6.9481244 255 255 255
-23726.896 -25933.994 -77.720711 255 255 255
-307.17569 -480.35791 -1.9300619 255 255 255
446.547 999.76489 1.7544247 255 255 255
671.7774 1342.2025 2.1460001 255 255 255
663.35004 698.64935 0.94505107 255 255 255
28.622414 44.222942 0.17125984 255 255 255
3387.7463 2359.4578 4.8574586 255 255 255
8.1655149 544.13501 1.0814506 255 255 255
857.92163 785.85309 1.1124603 255 255 255
-863.69257 -547.00574 -2.3110688 255 255 255
424.89621 526.35577 1.3990823 255 255 255
-1270.7943 -588.27673 -2.4061007 255 255 255
3368.4126 3400.1907 9.944828 255 255 255
733.80786 654.77905 0.91293728 255 255 255
2994.4365 1216.9875 3.187813 255 255 255
21116.055 6195.1465 23.159746 255 255 255
912.15393 933.88593 1.2356037 255 255 255
455.32352 227.00179 0.54382825 255 255 255
878.7395 612.72998 2.2142448 255 255 255
873.61584 901.51733 2.1949689 255 255 255
981.09351 2693.2561 4.3397903 255 255 255
-840.70593 -867.10211 -2.7194655 255 255 255
1024.9849 1249.0435 2.4426844 255 255 255
1671.699 2055.5417 5.3461571 255 255 255
-13733.338 -7381.1636 -36.708385 255 255 255
237404.92 63344.406 268.73102 255 255 255
696.97473 456.54462 0.93020934 255 255 255
-3821.2224 -2864.6609 -12.095981 255 255 255
-679.83923 -399.62646 -1.7849803 255 255 255
-682.81012 -928.4353 -2.4454024 255 255 255
-1514.848 -2234.3743 -5.870575 255 255 255
1091.9266 2436.2966 5.7705488 255 255 255
455.90778 353.80676 0.55209118 255 255 255
-1147.5406 -779.92053 -2.3937306 255 255 255
-1041.2144 -430.32486 -2.4255078 255 255 255
-793.28925 -312.84888 -1.8904573 255 255 255
-1149.5227 -1179.1598 -2.7173588 255 255 255
-51328.012 -27053.182 -148.23927 255 255 255
-550.79913 -873.33044 -2.4322622 255 255 255
831.82922 701.77753 2.1101477 255 255 255
727.37769 723.12708 0.93074811 255 255 255
1097.7799 1003.1262 2.5064631 255 255 255
2349.6499 1655.061 7.2537322 255 255 255
-4409.8853 -987.77716 -12.926369 255 255 255
-1762.8887 -1979.5853 -6.3284163 255 255 255
-61675.207 -38418.148 -166.32767 255 255 255
-545.95294 -377.25229 -1.6774118 255 255 255
981.19147 1140.579 2.3645298 255 255 255
-132024.14 -78702.391 -416.67862 255 255 255
-1044.7072 -413.35309 -2.4261906 255 255 255
5308.9429 1313.3262 5.9965963 255 255 255
556.2395 594.37378 1.6373664 255 255 255
-2043.3289 -1471.9027 -6.6182775 255 255 255
-4312.7847 -7760.2339 -14.657269 255 255 255
431.94702 382.45398 0.51060468 255 255 255
792.54559 1526.2141 2.3416362 255 255 255
-65.129677 -145.8575 -1.1864415 255 255 255
-4314.8438 -2242.6377 -12.062373 255 255 255
1115.7483 1021.0596 1.4235744 255 255 255
203.13043 788.90515 1.4180533 255 255 255
644.52905 458.97046 1.7914573 255 255 255
934.99274 1188.6329 2.7265234 255 255 255
-95.263451 -161.96873 -1.2034823 255 255 255
759.62543 815.69727 1.0147314 255 255 255
955.59686 736.72253 2.3177061 255 255 255
-6028.6846 -4428.3306 -8.7147598 255 255 255
-83.410843 -264.46664 -1.8119535 255 255 255
-6207.0312 -3234.2205 -19.674795 255 255 255
959.0481 833.98157 1.3498362 255 255 255
2517.5974 1855.1394 4.114624 255 255 255
2528.7195 2320.7029 8.1451883 255 255 255
685.22705 794.30615 1.8938251 255 255 255
-1265.4069 -1279.9615 -2.9566836 255 255 255
665.77521 456.87854 0.79786831 255 255 255
282.62741 191.24942 0.39515337 255 255 255
738.79657 538.71362 0.84957606 255 255 255
755.22083 1088.2242 1.1052381 255 255 255
721.14764 436.68433 0.94640404 255 255 255
313.05945 231.24225 0.3576889 255 255 255
808.3103 1532.7428 2.3546708 255 255 255
4040.3584 1916.4076 4.1919436 255 255 255
645.61401 572.96094 1.8478786 255 255 255
4976.1001 1162.9557 5.5160623 255 255 255
415.58951 684.05243 1.4918745 255 255 255
-40.708412 -178.32886 -1.3244234 255 255 255
2390.1211 2223.0264 3.8498712 255 255 255
2346.2124 1435.6932 4.1409526 255 255 255
807.1095 865.87103 2.095027 255 255 255
6736.124 5251.9502 18.457684 255 255 255
1487.0522 2014.0688 5.0776396 255 255 255
518.54144 635.20703 1.2653365 255 255 255
2234.0378 2558.2112 8.6894579 255 255 255
-1733.6945 -1479.6284 -3.1166229 255 255 255
-2788.313 -1977.5448 -7.8809175 255 255 255
931.00531 684.52026 2.2855527 255 255 255
965.07599 1228.5283 2.3698568 255 255 255
-1218.2985 -1916.1056 -4.6730385 255 255 255
-431.13773 -731.6189 -1.8563441 255 255 255
875.59131 644.66705 1.0405349 255 255 255
800.2229 1211.3409 1.245898 255 255 255
2957.6682 1665.1215 9.0347223 255 255 255
627.06738 464.59756 0.85428864 255 255 255
-1000.2112 -2709.5703 -5.7832141 255 255 255
1531.92 931.06458 3.1820228 255 255 255
921.237 732.0484 2.261425 255 255 255
-211.42458 -168.34566 -1.3235732 255 255 255
426.89841 507.60052 1.3929542 255 255 255
1304.1801 1282.9066 3.8010483 255 255 255
3529.4768 2711.2051 7.9078288 255 255 255
1133.2075 826.35095 3.0831079 255 255 255
299.69308 412.35538 0.46121052 255 255 255
788.66449 744.16742 2.0410514 255 255 255
877.33124 688.987 1.5592217 255 255 255
1455.7328 1150.286 2.9922991 255 255 255
6097.2422 2570.1978 7.9289365 255 255 255
702.2475 934.05103 1.9688219 255 255 255
762.64594 704.75824 1.9942516 255 255 255
758.24677 928.01953 2.747683 255 255 255
-386.68637 -423.91824 -1.5988243 255 255 255
2443.2305 2433.4141 3.8773403 255 255 255
999.29413 1005.7615 2.249893 255 255 255
34250.387 34723.039 69.278206 255 255 255
4666.4536 3528.4678 5.5583539 255 255 255
860.59076 1118.5505 2.1514115 255 255 255
168.14919 277.06467 0.80261159 255 255 255
8995.6113 3998.3237 9.2010536 255 255 255
1055.8286 1014.2072 1.4523916 255 255 255
5128.2515 3580.5212 5.9250569 255 255 255
-276.46759 -204.49228 -1.3522942 255 255 255
570.8761 441.13788 1.6405871 255 255 255
896.28186 668.00189 2.2296286 255 255 255
-1694.8776 -2756.6614 -7.7762198 255 255 255
992.51117 1123.5758 2.3781354 255 255 255
630.7467 1310.9783 2.0966511 255 255 255
-834.84418 -752.97235 -2.4690018 255 255 255
-382.90277 -273.23828 -1.6119292 255 255 255
635.89471 322.36743 0.71598595 255 255 255
-2886.1802 -1523.1616 -4.4261475 255 255 255
550.21057 393.62991 0.65598798 255 255 255
-828.50653 -531.36572 -2.2976673 255 255 255
1104.4243 1006.9575 2.5139894 255 255 255
431.19525 272.28131 0.49723509 255 255 255
477.09036 646.09564 1.1487619 255 255 255
1053.0795 1376.593 3.818258 255 255 255
957.45044 1395.6929 2.416616 255 255 255
1831.7449 1788.0173 5.5109515 255 255 255
5528.4595 5468.7886 17.04178 255 255 255
792.97314 1585.8149 2.371521 255 255 255
1886.3242 960.17041 4.9240723 255 255 255
1673.7378 1592.3483 2.1252189 255 255 255
1462.089 1240.1057 3.9248469 255 255 255
-456.93582 -444.29669 -1.6694963 255 255 255
899.00458 738.12811 2.2231257 255 255 255
-975.71252 -824.1723 -3.4791908 255 255 255
2332.6594 1671.981 5.8831549 255 255 255
2544.707 2680.1497 3.5133653 255 255 255
5467.1973 1938.8425 5.8673048 255 255 255
737.59045 610.92493 1.9455991 255 255 255
771.50385 903.9455 1.0984654 255 255 255
1012.8442 1157.0603 2.4088759 255 255 255
1304.4316 1430.1052 3.7034845 255 255 255
831.2605 830.68097 2.1242149 255 255 255
289.62967 89.23674 0.28773376 255 255 255
-1695.9701 -1925.3352 -5.3271847 255 255 255
2458.3091 1755.2557 6.6865411 255 255 255
424.47852 812.13989 1.5981096 255 255 255
482.2121 382.69754 1.4562265 255 255 255
468.13031 445.73346 1.4361422 255 255 255
760.65924 550.13214 1.3188221 255 255 255
15181.62 14258.591 46.472126 255 255 255
608.2229 1000.7452 0.98147368 255 255 255
-1023.9219 -1102.0109 -2.3719854 255 255 255
-518.88458 -570.06531 -2.1820765 255 255 255
-15829.266 -8398.3779 -18.966257 255 255 255
10617.606 3651.7549 11.423505 255 255 255
-58.110096 -157.17267 -1.2181616 255 255 255
-34595.793 -27043.143 -97.66291 255 255 255
1547.2742 942.09442 3.1999266 255 255 255
1280.0671 781.65961 2.8494644 255 255 255
-649.22217 -543.70245 -2.1859577 255 255 255
2548.9783 2258.8586 4.0059009 255 255 255
461.99936 854.05872 1.6635438 255 255 255
477.26422 524.02686 1.4784061 255 255 255
471.94107 447.19711 1.443734 255 255 255
1178.7498 1152.4132 3.5537162 255 255 255
4546.0688 3827.3748 6.8069944 255 255 255
-723.50696 -976.59698 -2.8920567 255 255 255
15704.642 4221.6821 16.058016 255 255 255
-403.54865 -268.85941 -2.2818978 255 255 255
1665.3885 1243.8702 3.2675323 255 255 255
-4449.3984 -6575.5186 -12.497265 255 255 255
5374.2393 3221.6697 6.3757696 255 255 255
2760.4551 1381.2887 7.2180338 255 255 255
1653.7821 1239.9658 3.2547157 255 255 255
879.87048 951.68396 2.2087202 255 255 255
2164.3152 931.89398 5.0757308 255 255 255
-77.315292 -144.25131 -1.1607875 255 255 255
1531.3569 930.56769 3.1809182 255 255 255
-64353.621 -45934.219 -183.24367 255 255 255
199.60347 286.65195 0.8628763 255 255 255
1461.5696 1156.4854 2.9961922 255 255 255
-1956.0813 -2249.5962 -7.0764933 255 255 255
619.45221 519.71704 1.7316107 255 255 255
-971.84344 -289.23492 -2.0668132 255 255 255
1347.542 669.6131 2.9608145 255 255 255
446.55865 1000.0443 1.7554823 255 255 255
-605.41248 -572.24829 -2.2015851 255 255 255
559.82306 1547.0006 2.0986431 255 255 255
5363.3452 3223.6069 6.3621039 255 255 255
-705.29974 -256.94751 -1.7875252 255 255 255
838.80267 880.92853 2.1429665 255 255 255
-266.59003 -165.64041 -1.3199747 255 255 255
-1135.0629 -966.3537 -3.2163789 255 255 255
15452.276 3774.498 17.098818 255 255 255
636.7428 1144.7639 2.0073333 255 255 255
5513.4868 3945.2839 6.0982833 255 255 255
1088.2467 822.42871 1.2843122 255 255 255
20149.594 4540.0503 20.647943 255 255 255
9439.2393 3128.8254 11.121165 255 255 255
1870.7 1537.9434 2.2320459 255 255 255
-3526.615 -2068.0369 -5.4416227 255 255 255
4337.4487 1970.0516 11.203323 255 255 255
538.23627 921.64307 1.3496081 255 255 255
449.45886 424.14828 1.3952297 255 255 255
1625.0886 1478.9498 2.1224151 255 255 255
1011.7984 938.06952 2.3863466 255 255 255
849.87323 1732.9241 2.4755189 255 255 255
839.76385 885.35492 2.1444178 255 255 255
-497.98801 -508.02591 -1.9971954 255 255 255
676.86346 1629.3801 2.3121901 255 255 255
468.08273 1523.9703 2.1413693 255 255 255
6234.4751 2903.6519 9.4682693 255 255 255
2562.3228 2251.9946 4.0261102 255 255 255
2553.9768 2246.1433 4.0160031 255 255 255
905.65869 782.45966 2.2383029 255 255 255
869.39301 569.82104 2.3208606 255 255 255
2343.9919 1434.5752 4.1367393 255 255 255
689.49146 956.33606 1.1011364 255 255 255
2298.5337 1292.3186 5.0713463 255 255 255
-1174.1761 -1790.4775 -4.6094308 255 255 255
9564.8643 8016.5698 26.850323 255 255 255
2658.2673 3081.2517 4.4242773 255 255 255
5906.1538 3994.1555 6.397943 255 255 255
6452.1479 3626.29 7.099896 255 255 255
4693.8696 3505.3247 5.5921769 255 255 255
2709.7336 2105.802 4.2310715 255 255 255
482.76669 1020.5365 1.7984989 255 255 255
436.20319 984.52808 1.7360814 255 255 255
-3603.8931 -4533.7549 -13.887675 255 255 255
784.27911 614.22644 2.033273 255 255 255
-1911.8748 -1813.7684 -3.3582189 255 255 255
794.93976 1581.442 2.3726263 255 255 255
8.3604307 38.545486 0.1354463 255 255 255
-1086.1552 -944.38989 -3.7461243 255 255 255
1703.5031 2260.7732 2.5778248 255 255 255
485.67947 1194.9717 1.9218241 255 255 255
5130.147 3582.3025 5.9279599 255 255 255
107293.88 37427.824 149.09203 255 255 255
1518.7059 1196.8073 4.6709256 255 255 255
446.28033 1338.7513 2.001487 255 255 255
6465.4302 4019.114 6.8403769 255 255 255
-1134.6479 -2321.4043 -5.2956276 255 255 255
7388.7524 3794.7407 7.861558 255 255 255
1845.8287 1823.8875 3.3658094 255 255 255
3169.272 2483.1443 4.5641203 255 255 255
4907.208 3257.5413 5.885077 255 255 255
446.32184 993.24048 1.7500056 255 255 255
4820.3516 3408.1628 5.7470999 255 255 255
10839.202 3465.6877 12.05698 255 255 255
4837.8979 3412.2234 5.7681527 255 255 255
7754.0659 3956.6514 8.0712538 255 255 255
795.89014 1266.759 2.3257647 255 255 255
1069.2435 1157.5165 2.4756892 255 255 255
19666.686 4418.1646 20.396582 255 255 255
4896.9111 3422.9165 5.8242502 255 255 255
826.94281 1517.0026 2.3619685 255 255 255
544.00946 536.93433 1.596393 255 255 255
8121.3833 3206.5588 9.3802423 255 255 255
1455.5054 1149.4026 2.9921923 255 255 255
907.27216 587.4942 2.2827082 255 255 255
-16237.879 -13639.935 -23.5893 255 255 255
5308.1079 3228.4504 6.2978487 255 255 255
6403.1665 3115.7751 7.5444255 255 255 255
434.55374 497.54218 1.39889 255 255 255
567.91003 349.45859 1.6649603 255 255 255
865.25854 782.70654 2.6362889 255 255 255
487.81274 1289.9128 1.9891344 255 255 255
5259.1885 3495.8523 6.0736942 255 255 255
713.42706 717.48358 0.93849581 255 255 255
1467.9496 1151.2528 3.008081 255 255 255
-580.44025 -266.06012 -1.7918582 255 255 255
229.88046 1173.0585 1.7891219 255 255 255
-821.22852 -494.62164 -2.0432801 255 255 255
-1324.2229 -1515.1371 -3.0021241 255 255 255
6029.1787 3481.875 7.7538314 255 255 255
19038.33 4410.5752 19.645197 255 255 255
-3927.2998 -2100.6724 -5.6797566 255 255 255
7963.3911 3657.7942 8.5285301 255 255 255
-941.20123 -734.01874 -2.2087805 255 255 255
6822.9331 2187.0457 9.6723967 255 255 255
647.22076 1269.7024 2.0855424 255 255 255
5685.3564 3160.1221 6.728682 255 255 255
782.88391 901.08466 2.0661898 255 255 255
861.71912 609.27295 1.9783981 255 255 255
3189.0479 2492.9065 4.5816102 255 255 255
694.86859 462.12592 0.85762185 255 255 255
582.54919 466.55042 0.72366256 255 255 255
1051.624 1213.2491 2.4651926 255 255 255
660.0354 279.94904 0.66374606 255 255 255
-368.6156 -262.08896 -1.4743309 255 255 255
6757.0874 2166.8928 9.5983582 255 255 255
793.14838 591.99908 2.0531828 255 255 255
1648.3539 1198.0946 3.2638226 255 255 255
2700.783 2114.0071 4.2192321 255 255 255
963.10101 232.39586 2.0078411 255 255 255
-160.11107 -152.36212 -1.2275875 255 255 255
713.79919 275.74521 0.78543752 255 255 255
-1414.6992 -966.13171 -4.309473 255 255 255
466.25928 978.35199 1.7543297 255 255 255
1740.791 744.89795 3.8412795 255 255 255
-1559.0352 -1857.691 -5.2405505 255 255 255
-745.8808 -639.93555 -2.6276121 255 255 255
596.18475 271.97916 0.64323461 255 255 255
810.27594 1189.3735 2.2030017 255 255 255
462.32214 999.64862 1.7651139 255 255 255
-894.31989 -1149.4375 -2.9977193 255 255 255
893.85449 522.24237 1.139045 255 255 255
-246.67438 -401.00757 -1.7167455 255 255 255
548.06268 1156.1906 1.9398546 255 255 255
721.49756 687.22211 1.9248323 255 255 255
1375.1667 960.6944 4.0066957 255 255 255
416.69507 312.72824 0.49307299 255 255 255
1074.5217 993.92285 2.4732063 255 255 255
-774.86859 -871.93323 -2.5676036 255 255 255
803.72174 654.81488 2.0624211 255 255 255
-821.40222 -504.80768 -2.2985017 255 255 255
799.47571 1492.1543 2.332047 255 255 255
1300.7939 1429.5968 4.4848156 255 255 255
528.75909 361.33932 1.5666105 255 255 255
656.63666 1265.0358 2.0888889 255 255 255
493.92676 433.71368 1.4849153 255 255 255
-5658.7681 -6179.1812 -17.510983 255 255 255
444.79636 425.73856 1.3862799 255 255 255
-875.39215 -994.47955 -3.0765984 255 255 255
61997.492 20674.141 68.296249 255 255 255
700.09216 888.15387 1.8560779 255 255 255
102538.78 35948.184 143.40604 255 255 255
-620.23169 -290.3985 -1.7427521 255 255 255
-401.49341 -727.10779 -1.8328259 255 255 255
-1348.5061 -1628.5044 -3.8741586 255 255 255
2575.0696 2210.9609 4.0462475 255 255 255
1660.1367 1202.0465 3.2804227 255 255 255
1137.6556 1028.6763 3.8957033 255 255 255
971.9306 1060.6693 2.3065376 255 255 255
654.24219 1258.8148 2.0821576 255 255 255
778.40234 719.85126 2.0214548 255 255 255
-4602.1094 -4867.7026 -16.514717 255 255 255
563.53522 653.19647 1.2056247 255 255 255
-1463.8186 -5378.3101 -10.846778 255 255 255
457.29123 290.15945 0.53783959 255 255 255
924.95129 768.81445 2.2662082 255 255 255
1003.6364 1140.1262 2.3917103 255 255 255
458.85919 494.32169 1.4373161 255 255 255
-693.30164 -815.98907 -2.3547831 255 255 255
2440.7017 1504.5443 5.754993 255 255 255
4813.2881 3412.4463 5.7389927 255 255 255
578.34302 250.24695 0.62522477 255 255 255
500.35999 919.47437 1.745176 255 255 255
-225.10513 -335.45575 -1.4077739 255 255 255
1798.4745 831.90344 4.0411305 255 255 255
921.61707 634.56946 2.2880015 255 255 255
-2835.9524 -1835.7996 -5.3504605 255 255 255
2122.9458 1523.7097 3.7756085 255 255 255
580.65094 609.16052 1.2517021 255 255 255
879.23749 909.82684 2.2029471 255 255 255
5250.2397 3262.9336 6.2171454 255 255 255
1040.0085 1474.7665 1.7682353 255 255 255
840.52124 645.3075 2.1314492 255 255 255
-1030.9518 -854.24768 -3.0700536 255 255 255
807.46545 865.14386 1.1387568 255 255 255
872.66266 605.72998 2.2049909 255 255 255
439.1041 455.76843 1.387484 255 255 255
-263.10315 -317.50995 -1.6459106 255 255 255
885.76294 771.12494 2.2054102 255 255 255
2565.5449 2218.0615 4.0328269 255 255 255
501.84045 431.16446 1.5010245 255 255 255
596.77399 356.27878 0.71153438 255 255 255
1878.6036 2003.7594 2.7480614 255 255 255
1087.9584 1010.0677 3.2928314 255 255 255
4248.5815 12022.719 21.486385 255 255 255
3079.4578 1847.5328 8.6577396 255 255 255
968.07898 693.08215 2.3533154 255 255 255
451.29388 1411.9142 2.0562108 255 255 255
204.49898 792.34802 1.4240582 255 255 255
8042.481 3843.4841 8.5685711 255 255 255
-851.90527 -1361.6304 -3.5277805 255 255 255
660.87988 510.32312 1.8120321 255 255 255
-2129.0681 -2983.9448 -7.5968518 255 255 255
-833.67084 -761.38483 -2.6129692 255 255 255
1615.0077 747.77405 4.6266422 255 255 255
441.24579 1714.626 2.4530189 255 255 255
809.34509 705.68567 2.0718467 255 255 255
1112.6761 521.22919 2.7897575 255 255 255
-936.47687 -1091.7587 -3.2736809 255 255 255
1032.7457 1130.1313 2.4279718 255 255 255
7.5630407 35.950466 0.12700358 255 255 255
805.58618 658.43036 2.0645764 255 255 255
799.95691 705.14935 2.0536776 255 255 255
-152.37053 -295.42648 -1.5353267 255 255 255
-609.80188 -437.75735 -2.6940408 255 255 255
1075.6072 972.13586 2.4737146 255 255 255
515.61749 715.23425 1.633031 255 255 255
-1087.4946 -1141.6462 -3.7418737 255 255 255
680.6488 424.70383 1.8887058 255 255 255
712.40637 551.48804 0.90123284 255 255 255
5848.3335 3155.616 6.9187417 255 255 255
-852.0592 -854.08746 -2.5718246 255 255 255
-1321.6663 -1132.5951 -3.8530715 255 255 255
4670.8159 3531.3193 5.5646534 255 255 255
1226.0803 1078.0878 1.7334425 255 255 255
-1850.3069 -1337.0399 -3.269675 255 255 255
650.65051 324.50632 1.9493297 255 255 255
-736.11871 -672.66058 -2.3111145 255 255 255
664.81512 739.82117 1.8500017 255 255 255
437.8316 1029.8475 1.7698555 255 255 255
-422.58148 -1223.7975 -4.6929545 255 255 255
1644.3562 2209.3228 4.6992593 255 255 255
1567.0529 1731.088 4.2808299 255 255 255
409.94229 545.84528 0.82880074 255 255 255
509.37347 598.94458 0.72395223 255 255 255
-1508.5774 -1651.2435 -5.2188959 255 255 255
532.84827 443.53345 0.67203534 255 255 255
856.51807 1169.5789 2.2379558 255 255 255
-4060.0195 -1959.6848 -5.0922432 255 255 255
-1537.0942 -1750.5261 -4.8899789 255 255 255
503.91724 802.29407 1.1851608 255 255 255
325.27121 183.33922 0.43971574 255 255 255
-259.3403 -532.18726 -1.8155454 255 255 255
685.48816 952.65961 1.5050858 255 255 255
859.2262 970.5553 2.1871793 255 255 255
433.97058 510.83521 1.4064372 255 255 255
355.03128 553.67877 0.92759711 255 255 255
6586.0713 6298.0488 19.772379 255 255 255
8014.2275 3862.1897 8.4145727 255 255 255
-228.1185 -188.38406 -1.3297588 255 255 255
808.48468 856.26703 2.0937338 255 255 255
658.56158 837.05347 2.2103422 255 255 255
740.95013 325.21606 0.79375547 255 255 255
6370.5415 3114.5012 7.5132694 255 255 255
-1039.2826 -1999.3778 -4.7718992 255 255 255
748.24084 716.98956 1.971835 255 255 255
761.1748 703.29034 1.9895629 255 255 255
1676.8137 1205.4287 3.3043664 255 255 255
864.32642 936.15112 2.1878076 255 255 255
495.05127 304.55029 0.54170024 255 255 255
866.57855 901.43445 2.1842816 255 255 255
2418.7358 1663.5942 7.2584538 255 255 255
-151.6387 -162.26111 -1.4598662 255 255 255
-969.9386 -1119.6382 -3.3042622 255 255 255
563.35626 634.74817 1.66089 255 255 255
1953.6335 1792.783 5.5950108 255 255 255
1839.1538 1271.0793 5.0881882 255 255 255
364.70712 127.35837 0.40572771 255 255 255
-850.99237 -591.3136 -2.083235 255 255 255
14246.334 9155.9756 39.812939 255 255 255
1488.1921 1373.7413 1.9251504 255 255 255
11226.621 3396.0669 12.701369 255 255 255
-694.6297 -485.31607 -1.9511105 255 255 255
1562.4122 936.92798 3.2197647 255 255 255
884.95264 914.99994 2.2056901 255 255 255
-2307.3279 -1227.5509 -3.6355417 255 255 255
-83.13076 -264.18985 -1.8115573 255 255 255
873.16217 901.43768 2.1938765 255 255 255
5847.6963 3162.2422 6.9156933 255 255 255
6465.9141 3627.2041 7.1189284 255 255 255
6847.4268 3610.2139 7.5225701 255 255 255
7676.1416 3155.0859 11.382848 255 255 255
17151.535 33034.496 65.896797 255 255 255
104134.32 38227.633 143.75246 255 255 255
6189.5708 5995.6704 18.664164 255 255 255
635.03693 381.30115 0.73966753 255 255 255
227204.52 121174.02 260.26117 255 255 255
430.01053 325.53183 0.56220317 255 255 255
-729.14087 -1037.0676 -2.1512024 255 255 255
-558.80682 -602.16925 -2.6925938 255 255 255
1647.6505 885.7511 4.6893911 255 255 255
810.85553 1281.9666 2.2425666 255 255 255
775.37854 568.0863 2.3691754 255 255 255
114.88921 909.84753 1.5127423 255 255 255
629.74329 1024.2598 1.9339961 255 255 255
-20654.016 -12640.819 -66.338676 255 255 255
8316.125 3908.6956 8.6432619 255 255 255
-161037.11 -55339.07 -178.94945 255 255 255
-2198.4272 -900.80713 -9.262475 255 255 255
-2421.0876 -3397.8218 -7.8827524 255 255 255
681.48535 530.74622 1.449147 255 255 255
717.60638 452.12497 2.1480131 255 255 255
609.97607 342.44165 1.7766293 255 255 255
-1815.9691 -1318.9529 -3.6154737 255 255 255
1288.5994 1425.0238 3.4109192 255 255 255
7571.0688 3156.8816 7.917881 255 255 255
829.35315 1194.9432 1.3011953 255 255 255
7114.4517 2184.4758 10.111807 255 255 255
-159.37704 -370.01343 -1.384781 255 255 255
468.17886 983.23212 1.758906 255 255 255
-1483.1888 -1015.5873 -4.8280106 255 255 255
3412.2703 2370.5605 4.8804564 255 255 255
565.23273 799.76978 1.6826013 255 255 255
-1688.2279 -4335.7065 -7.3739672 255 255 255
673.16919 523.18896 1.835137 255 255 255
-5501.0459 -8626.5596 -14.965442 255 255 255
459.83978 310.55133 0.89862114 255 255 255
-10376.729 -5767.8506 -30.752819 255 255 255
-2622.1987 -4518.125 -10.382032 255 255 255
-70.089386 -150.44647 -1.1842188 255 255 255
-1824.4901 -3627.0161 -6.8024087 255 255 255
1113.2777 1352.774 1.6601372 255 255 255
5375.5132 2089.9597 5.3106074 255 255 255
-670.64691 -904.44989 -2.8201375 255 255 255
856.16302 934.07001 2.1760168 255 255 255
16894.701 4227.1504 17.513823 255 255 255
1328.762 1067.1586 1.8626057 255 255 255
511.77264 499.11209 1.7033083 255 255 255
-337.34082 -153.03372 -1.3672907 255 255 255
1849.5375 1458.8877 4.1530218 255 255 255
-369.11838 -455.53598 -1.8949952 255 255 255
8391.333 2916.1648 8.2037325 255 255 255
28.683184 43.970272 0.17053387 255 255 255
436.20273 457.55585 1.38247 255 255 255
1081.7915 1375.291 2.9611208 255 255 255
3389.6523 2361.3691 4.8602262 255 255 255
-153.43195 -239.28082 -1.4672468 255 255 255
-383.56049 -234.02637 -1.4456574 255 255 255
662.38269 491.87415 0.78117079 255 255 255
750.26312 1156.6938 1.1389383 255 255 255
-245.85362 -375.20648 -1.6929952 255 255 255
696.72607 608.05109 1.874565 255 255 255
818.4256 1648.7986 3.1061251 255 255 255
10701.497 4150.7114 10.687993 255 255 255
870.56085 940.37671 2.196888 255 255 255
619.4516 480.89362 1.7354717 255 255 255
428.99008 914.99207 1.6778827 255 255 255
3822.738 2214.9912 5.4552412 255 255 255
-1683.5106 -2861.3047 -5.9085293 255 255 255
-766.51965 -1172.4005 -3.2317059 255 255 255
340.66858 150.00354 0.35095406 255 255 255
-559.06659 -901.38831 -2.7681262 255 255 255
781.68781 712.85248 2.0263374 255 255 255
-365.54953 -177.03737 -1.9652599 255 255 255
-2960.689 -1680.9629 -8.5813227 255 255 255
-9789.9395 -7559.6133 -29.771729 255 255 255
-1146.9707 -1374.1538 -3.9310656 255 255 255
-2762.5901 -2704.4897 -8.2652845 255 255 255
-23994.979 -8425.3887 -27.343573 255 255 255
-325.37161 -315.86304 -1.6152091 255 255 255
1208.7424 954.43811 2.6847882 255 255 255
689.85559 391.92032 0.88773817 255 255 255
533.51086 546.1217 1.0028254 255 255 255
-543.69995 -197.06622 -2.8176007 255 255 255
787.5094 957.74139 2.0933292 255 255 255
7756.3101 3961.2898 8.0615635 255 255 255
1039.1653 1142.2703 2.4381189 255 255 255
606.80109 1117.8151 1.8784959 255 255 255
36893.328 12495.457 39.736717 255 255 255
1330.3353 1176.3662 2.770273 255 255 255
828.62811 1240.2834 1.2721486 255 255 255
872.59076 979.91699 2.2027748 255 255 255
-488.05414 -566.82526 -1.9293424 255 255 255
710.88483 1121.3691 1.0999533 255 255 255
1089.3663 1099.8873 2.4952168 255 255 255
-1084.6252 -1064.5857 -3.8572357 255 255 255
487.18863 264.04733 0.5670265 255 255 255
-2755.052 -3973.9465 -8.7664499 255 255 255
793.28644 1006.066 2.02074 255 255 255
-1085.0289 -750.70312 -3.6218317 255 255 255
635.90887 856.3501 1.8420924 255 255 255
-665.3493 -895.83563 -2.6672809 255 255 255
781.35437 1106.5979 2.1405141 255 255 255
983.47589 1148.2845 2.3679471 255 255 255
2134.5349 1528.408 3.7849941 255 255 255
-1534.743 -9782.2891 -15.788939 255 255 255
-1995.3895 -3823.9109 -9.2417278 255 255 255
-1203.8802 -783.87939 -2.5235534 255 255 255
1401.755 1384.6775 1.8578438 255 255 255
-5408.0996 -2340.2312 -9.7091951 255 255 255
425.88278 506.67017 1.3902882 255 255 255
504.53442 619.00836 1.65311 255 255 255
-7782.1875 -4513.7729 -21.267696 255 255 255
-880.74469 -897.58661 -2.9916852 255 255 255
-1009.3376 -1345.2329 -3.4331403 255 255 255
-256.55954 -276.86743 -2.1728163 255 255 255
570.24493 759.09424 1.8820834 255 255 255
-1510.9417 -1926.6716 -5.1690803 255 255 255
-410.64423 -517.9516 -1.9697315 255 255 255
5483.8696 5390.5615 18.73765 255 255 255
-2187.7529 -1337.3247 -3.5840588 255 255 255
2977.9321 1340.927 5.2158771 255 255 255
2998.7314 1251.0621 8.5951033 255 255 255
-1330.0687 -1136.9346 -2.8242064 255 255 255
-823.84528 -879.36237 -2.7262115 255 255 255
2976.9827 2712.291 4.3095865 255 255 255
3327.6282 2416.7183 9.2723961 255 255 255
1018.5004 1266.4988 2.6604614 255 255 255
482.14066 261.79425 0.55363864 255 255 255
1018.2221 1150.9637 2.5541916 255 255 255
1115.6881 1012.2161 2.5299733 255 255 255
-935.70563 -1254.7582 -3.2107871 255 255 255
-1780.3419 -2304.5493 -6.655889 255 255 255
906.42566 763.47375 2.2406311 255 255 255
1334.9801 1409.3525 2.1318657 255 255 255
-6834.7837 -10126.436 -26.1399 255 255 255
6326.7891 13247.809 18.933752 255 255 255
-1785.7936 -1623.2767 -6.1049929 255 255 255
-25355.938 -28199.418 -84.567314 255 255 255
-971.84155 -590.24634 -2.349272 255 255 255
-160.80896 -168.9978 -1.2699752 255 255 255
425.06134 485.54758 1.3781791 255 255 255
1591.1843 624.94946 3.7330954 255 255 255
10842.881 3464.7859 12.063797 255 255 255
470.16458 406.78683 0.59921122 255 255 255
-863.7489 -922.26874 -2.7015653 255 255 255
751.927 502.88748 0.96206319 255 255 255
-671.60052 -1184.4181 -2.7777798 255 255 255
2563.2229 2253.5691 4.0296574 255 255 255
870.73969 940.68634 2.1975112 255 255 255
-96.242332 -180.20049 -1.2024685 255 255 255
1960.1387 1168.8875 3.4837809 255 255 255
-224.45299 -334.77747 -1.4067576 255 255 255
10664.805 5783.1753 26.257555 255 255 255
8090.9087 3195.7812 9.3430939 255 255 255
-8125.2178 -4853.1465 -9.7204409 255 255 255
986.14386 696.08929 2.3871834 255 255 255
-230.84599 -186.15884 -1.3115014 255 255 255
3000.2468 2726.332 4.3333769 255 255 255
-200.64725 -167.34886 -1.2778013 255 255 255
19447.268 6182.2637 20.663357 255 255 255
4818.6978 3406.0994 5.7432923 255 255 255
1738.2252 742.97131 3.8344879 255 255 255
332.06842 332.11713 0.42518491 255 255 255
998.59302 1423.0768 1.6649408 255 255 255
-25.763737 -523.40851 -1.9293902 255 255 255
477.85431 524.87653 1.4818546 255 255 255
772.44061 301.26318 0.98329496 255 255 255
5637.6353 2134.5066 7.9905772 255 255 255
-21177.895 -17498.26 -60.239498 255 255 255
550.54584 359.31476 1.6189994 255 255 255
2590.4976 1148.2478 2.6541617 255 255 255
-1678.6538 -2365.2932 -5.7878542 255 255 255
1613.2927 2541.2764 6.2909846 255 255 255
1475.7693 1154.2031 3.0200424 255 255 255
-1138.8324 -1725.5876 -4.4550643 255 255 255
839.77429 644.59448 2.1285753 255 255 255
7940.624 3646.8958 8.5030479 255 255 255
512.85205 462.30658 0.75723332 255 255 255
4511.4346 2720.4644 5.8365989 255 255 255
18223.361 4153.165 19.380819 255 255 255
467.96234 445.12619 1.4349996 255 255 255
-847.2948 -1278.1531 -3.8512647 255 255 255
679.15436 423.63028 1.8832208 255 255 255
1572.5103 913.2793 3.2556756 255 255 255
808.83374 1490.5862 2.3369925 255 255 255
489.42053 219.93855 0.52739954 255 255 255
5612.624 2126.2793 7.9708481 255 255 255
4809.7559 3411.0005 5.734715 255 255 255
-1415.9364 -1088.3262 -3.4898806 255 255 255
426.36914 479.47134 1.3761466 255 255 255
754.43225 599.8703 0.9091208 255 255 255
1067.999 1126.5211 2.470365 255 255 255
438.18106 862.78552 1.6477166 255 255 255
21995.246 13902.767 62.771786 255 255 255
576.77527 654.41412 1.6048982 255 255 255
2123.2832 1732.0806 2.5167575 255 255 255
5372.0649 3219.3457 6.3716741 255 255 255
805.1192 863.29028 2.088666 255 255 255
7752.8867 3955.5813 8.0687895 255 255 255
20093.084 4528.5522 20.587543 255 255 255
-5043.7197 -10188.653 -17.007149 255 255 255
-146.71191 -235.05086 -1.4576634 255 255 255
569.9176 562.39142 1.7815089 255 255 255
1280.8896 781.73431 2.8494973 255 255 255
10631.165 3657.4539 11.437867 255 255 255
859.73352 971.5351 2.1892428 255 255 255
-997.66974 -706.16644 -3.4692545 255 255 255
828.26117 727.83667 2.1043775 255 255 255
-672.18964 -683.80273 -2.3931727 255 255 255
-633.65784 -1293.1873 -2.8538272 255 255 255
-175.60289 -161.82402 -1.2505337 255 255 255
570.61182 792.87305 1.1911235 255 255 255
815.60565 883.86292 2.1098106 255 255 255
780.19763 721.21399 2.0258763 255 255 255
2710.6201 2106.0791 4.2326398 255 255 255
1873.1776 695.44257 4.2076054 255 255 255
630.28076 487.35834 1.7566155 255 255 255
1028.2112 1268.1251 2.6584334 255 255 255
857.2431 935.19794 2.1779652 255 255 255
-806.84979 -1326.681 -3.0741699 255 255 255
28.822067 43.709076 0.17002511 255 255 255
5367.6948 3225.7966 6.3667192 255 255 255
486.48581 1196.9805 1.92527 255 255 255
-1175.6252 -858.26703 -4.5706253 255 255 255
-70388.297 -62101.953 -214.14238 255 255 255
666.11261 520.62042 1.4203073 255 255 255
-761.41357 -768.15204 -2.5401218 255 255 255
7977.6538 4316.4385 20.409069 255 255 255
570.30774 453.05627 0.71595246 255 255 255
15511.129 4189.0273 15.88322 255 255 255
499.45312 432.02811 1.4963845 255 255 255
2125.9919 3534.5803 6.2752495 255 255 255
2350.3848 1436.6359 4.146215 255 255 255
-1091.6344 -820.46271 -2.66552 255 255 255
704.47253 346.71674 0.74016821 255 255 255
738.52313 621.21912 0.91610712 255 255 255
11263.357 3405.0398 12.7398 255 255 255
528.47876 360.70697 1.5652179 255 255 255
-261.06247 -103.88693 -1.4098428 255 255 255
6745.8188 2160.7292 9.581892 255 255 255
-586.4281 -463.35455 -1.7619939 255 255 255
-24337.6 -13342.593 -55.868805 255 255 255
999.68103 1204.1217 2.4023364 255 255 255
-277.66071 -424.86636 -1.7694321 255 255 255
924.77148 768.79108 2.265589 255 255 255
1475.4418 1435.8615 2.9840839 255 255 255
644.28906 1268.8546 2.0835049 255 255 255
589.17963 287.10321 0.68533564 255 255 255
15624.437 4206.1025 15.971807 255 255 255
462.8194 404.06125 1.4175193 255 255 255
753.33136 489.91653 0.99451327 255 255 255
880.65576 911.20392 2.2059064 255 255 255
8.4739046 38.157837 0.13444372 255 255 255
795.47662 1582.7047 2.374563 255 255 255
5332.3843 1749.6079 8.3138142 255 255 255
608.23553 1152.4458 1.1123196 255 255 255
-151.25304 -329.85168 -1.3311567 255 255 255
1150.6165 746.76892 3.2055647 255 255 255
-675.2265 -743.98309 -2.456708 255 255 255
6684.6958 3107.2278 7.874918 255 255 255
-639.86902 -330.80856 -1.8493505 255 255 255
811.14166 1193.1152 2.2056065 255 255 255
1924.3365 1695.7664 3.4710855 255 255 255
2122.4148 1522.5186 3.7735138 255 255 255
-152.73885 -295.858 -1.536397 255 255 255
1175.9364 911.53845 3.7709126 255 255 255
928.39734 1121.84 1.3137047 255 255 255
856.35468 1168.05 2.2360392 255 255 255
1038.1047 729.29547 1.2633138 255 255 255
6293.8965 3725.2983 6.892447 255 255 255
-1997.8993 -3149.7063 -7.1822839 255 255 255
-664.57336 -911.55194 -2.6059556 255 255 255
7247.0103 3508.3398 7.6502075 255 255 255
581.97302 620.99249 1.6868901 255 255 255
3854.574 2228.8003 5.4866896 255 255 255
911.15326 667.53088 2.2555449 255 255 255
-1528.762 -1279.4205 -3.8170311 255 255 255
-1194.9568 -951.09576 -2.986397 255 255 255
-8415.1924 -1591.5278 -23.882948 255 255 255
6286.3433 2151.9346 8.9063425 255 255 255
1689.408 1209.8623 3.3171313 255 255 255
8752.6611 3628.958 9.3630142 255 255 255
544.21436 536.9776 1.595446 255 255 255
-378.86749 -392.31085 -1.6224409 255 255 255
14060.519 7446.8784 15.942568 255 255 255
250.91145 1074.8198 1.7084576 255 255 255
796.27881 667.57245 2.0475521 255 255 255
2060.8423 1717.2789 6.0821176 255 255 255
622.77814 1346.3065 2.1118536 255 255 255
-726.36365 -801.40479 -2.5796528 255 255 255
-213.49899 -278.96616 -1.5585222 255 255 255
2082.2834 2463.6206 6.2694044 255 255 255
-309.22839 -344.48874 -1.7680279 255 255 255
-3939.251 -5969.0396 -10.739362 255 255 255
1010.3211 940.40668 2.3840199 255 255 255
