ply
format ascii 1.0
comment PCL generated
element vertex 1107
property float x
property float y
property float z
property uchar red
property uchar green
property uchar blue
element face 0
element camera 0
property float view_px
property float view_py
property float view_pz
property float x_axisx
property float x_axisy
property float x_axisz
property float y_axisx
property float y_axisy
property float y_axisz
property float z_axisx
property float z_axisy
property float z_axisz
property float focal
property float scalex
property float scaley
property float centerx
property float centery
property int viewportx
property int viewporty
property float k1
property float k2
end_header
1391.3949 1251.678 1.7782744 255 255 255
-357.24173 -193.93425 -1.4011512 255 255 255
-258.67581 -236.53842 -1.3440026 255 255 255
-744.87585 -705.65637 -1.9346927 255 255 255
848.60394 1527.5397 2.4643016 255 255 255
127.33504 230.18593 0.69588667 255 255 255
-5000.1938 -4771.3687 -10.673166 255 255 255
6844.4976 3787.802 8.2113914 255 255 255
149.55016 304.91721 0.8313154 255 255 255
594.75879 804.26068 1.8365241 255 255 255
9208.248 4440.7061 9.9427786 255 255 255
-934.27606 -564.67267 -2.8311589 255 255 255
-198.6785 -367.44052 -1.9429096 255 255 255
1259.6888 2741.9695 4.9322391 255 255 255
7268.2305 6762.9844 12.128336 255 255 255
809.38104 1383.1279 2.3571305 255 255 255
-1030.3815 -1045.6637 -3.797828 255 255 255
1038.7462 1151.6958 1.4475602 255 255 255
1796.666 1572.434 2.2375205 255 255 255
-442.99283 -587.2334 -2.5378056 255 255 255
7324.2061 3636.4133 8.7870359 255 255 255
24622.391 13686.101 27.296345 255 255 255
-259.62231 -1137.4279 -2.6309552 255 255 255
7748.0303 3588.0388 8.2114296 255 255 255
1072.9393 987.03229 1.3815387 255 255 255
2511.8772 3210.9768 6.7900863 255 255 255
-14371.812 -22710.711 -52.861774 255 255 255
1504.0881 1348.7253 2.433924 255 255 255
-488.00818 -600.89221 -1.874032 255 255 255
-269.98929 -345.06488 -1.5046803 255 255 255
301.47687 218.15697 0.35354638 255 255 255
1388.5192 1595.432 3.1405945 255 255 255
83.403038 336.12918 0.81086361 255 255 255
-597.30664 -317.5097 -1.6758236 255 255 255
912.08832 1331.0547 2.4253073 255 255 255
1262.4591 2461.0527 3.2992847 255 255 255
837.73792 540.59149 0.9999342 255 255 255
39213.379 6029.7788 42.272423 255 255 255
674.61365 1141.422 2.1099477 255 255 255
9020.2627 4494.8169 9.7072105 255 255 255
967.38715 1360.7284 1.4450666 255 255 255
675.26587 1128.6599 2.1038048 255 255 255
-2350.8154 -1761.5515 -3.8340907 255 255 255
985.61615 854.67102 3.146498 255 255 255
1033.7842 1293.7883 2.4018388 255 255 255
1946.5829 2420.6582 3.664336 255 255 255
1949.7898 2416.321 3.6655457 255 255 255
-20389.014 -12382.797 -23.561298 255 255 255
-516.43732 -619.88098 -2.2678294 255 255 255
174.897 416.53717 1.003147 255 255 255
884.36694 1796.1523 2.6315448 255 255 255
743.23083 457.94022 0.97142774 255 255 255
-280.48956 -424.77692 -1.7334243 255 255 255
425.73907 1331.4612 2.0658386 255 255 255
806.03137 1494.0947 2.4125133 255 255 255
-657.5722 -652.27551 -1.8940743 255 255 255
624.76953 827.20831 1.8895204 255 255 255
-1010.4719 -1778.9299 -4.1599436 255 255 255
1286.5472 1352.0609 4.17068 255 255 255
331.90482 517.04852 1.3014736 255 255 255
1264.8048 1276.1316 1.6758454 255 255 255
-2039.2863 -5644.5522 -11.565003 255 255 255
770.32782 904.62299 1.3649071 255 255 255
60.854038 796.33276 1.4183702 255 255 255
970.65247 1561.0975 2.5767016 255 255 255
655.3432 1671.4531 2.4301603 255 255 255
234.00769 741.96027 1.423496 255 255 255
2238.7554 4080.7373 8.7028313 255 255 255
987.3222 888.45282 1.2149124 255 255 255
223.49162 127.55856 0.42308801 255 255 255
657.01221 720.97888 1.8947579 255 255 255
366.86209 882.08344 1.6549757 255 255 255
291.44327 631.23328 1.3574919 255 255 255
731.59424 699.41046 2.0087154 255 255 255
-423.88574 -519.28119 -1.6682911 255 255 255
500.58655 697.19904 1.2788842 255 255 255
-3390.3176 -10964.57 -19.459393 255 255 255
816.25275 1332.8315 2.3385189 255 255 255
-426.60818 -683.18665 -1.7185992 255 255 255
913.66559 1792.0181 2.6462607 255 255 255
6204.6558 3917.1802 7.4230213 255 255 255
6726.3823 3717.8596 8.0627146 255 255 255
-169.25507 -203.33058 -1.2253805 255 255 255
11572.478 4751.3047 11.868469 255 255 255
922.84888 1793.4528 2.6523755 255 255 255
858.44788 729.41461 2.2303336 255 255 255
-760.73035 -1019.601 -2.1875744 255 255 255
-639.34332 -617.71527 -2.03668 255 255 255
26.015011 145.26886 0.42513204 255 255 255
-1099.1775 -1724.5778 -4.6481881 255 255 255
-1649.0189 -1541.3605 -3.1581302 255 255 255
628.77295 876.17108 1.9172862 255 255 255
4850.8784 2612.1392 5.35288 255 255 255
3224.0386 11259.63 15.438263 255 255 255
1554.4219 1853.0319 3.117017 255 255 255
-416.97635 -344.46161 -1.5124869 255 255 255
-53.996906 -99.256752 -1.1271911 255 255 255
-9681.4619 -18742.846 -30.116236 255 255 255
-31734.275 -13331.646 -41.386169 255 255 255
1768.9985 3396.6733 5.9394922 255 255 255
1692.9272 1586.521 3.6654012 255 255 255
13175.12 4769.4082 13.308066 255 255 255
389.1572 931.09998 2.2796052 255 255 255
9043.3242 3449.707 9.1901674 255 255 255
846.05145 1232.5892 2.321157 255 255 255
-684.58801 -408.56104 -1.7995237 255 255 255
1197.3792 1266.2926 1.6041409 255 255 255
18341.381 3985.4275 22.408804 255 255 255
1100.8411 1089.2449 1.4410868 255 255 255
1260.2382 1300.4569 1.6488276 255 255 255
401.25632 427.85977 1.3583734 255 255 255
-41307.449 -23860.166 -47.217518 255 255 255
-164.20032 -268.44098 -1.5977172 255 255 255
814.38141 1410.2914 2.3738751 255 255 255
-526.33826 -1444.1133 -3.1892557 255 255 255
13231.997 3669.1667 16.093258 255 255 255
3338.5691 2497.6626 5.068747 255 255 255
4421.9609 1805.6945 4.6689234 255 255 255
991.0697 1581.0793 2.5996587 255 255 255
6417.5225 3880.6431 7.6490817 255 255 255
386.64377 597.94556 1.4388374 255 255 255
1180.8528 1603.5071 2.7864099 255 255 255
-445.31244 -689.62939 -1.9484755 255 255 255
19978.412 11442.336 21.947392 255 255 255
-2613.0515 -1104.1506 -3.7627187 255 255 255
522.21179 928.15778 1.8275367 255 255 255
11193.967 4194.8394 11.720463 255 255 255
744.32794 1286.1394 2.2504144 255 255 255
881.86353 1042.9841 2.2945507 255 255 255
-690.17218 -894.06104 -2.7099826 255 255 255
-774.25336 -959.14685 -4.8347616 255 255 255
-644.71173 -688.70172 -1.8775376 255 255 255
-2260.1277 -2807.2773 -5.2196312 255 255 255
813.08691 652.0191 2.1574142 255 255 255
842.52319 1193.6102 2.3021364 255 255 255
677.35455 1520.665 2.3427074 255 255 255
680.2326 1521.5736 2.3443739 255 255 255
-1812.543 -1505.5286 -3.1996207 255 255 255
1643.0189 2200.5483 2.5913372 255 255 255
10621.147 4428.1064 11.29123 255 255 255
6831.8955 4306.4707 7.3915253 255 255 255
1280.2528 1369.4966 1.7627316 255 255 255
-7945.1802 -1589.2515 -9.6840019 255 255 255
1437.1647 906.24768 3.2134628 255 255 255
-329.87759 -1293.098 -2.8163249 255 255 255
7737.502 3860.2075 8.9461012 255 255 255
9474.0791 27189.686 58.912926 255 255 255
14621.166 5818.1997 15.348924 255 255 255
-321.86255 -457.88794 -2.0250962 255 255 255
-1696.0598 -2915.3845 -6.299304 255 255 255
-137.08528 -253.48718 -1.4625198 255 255 255
7703.1372 9217.5527 25.241693 255 255 255
22034.857 7382.0166 24.322758 255 255 255
603.36865 404.44409 0.69450784 255 255 255
15219.676 3793.6685 18.562389 255 255 255
-2702.7808 -3339.2131 -10.388239 255 255 255
-80.473419 -205.32283 -1.3373026 255 255 255
905.72308 1082.4105 2.3342633 255 255 255
-475.57748 -231.93585 -1.5278851 255 255 255
6118.436 3907.1382 7.3464289 255 255 255
-512.3399 -1132.4779 -2.8516083 255 255 255
-251.25122 -565.13861 -1.9012264 255 255 255
-1101.9005 -950.61932 -4.4976964 255 255 255
325.15106 1210.0295 1.9174922 255 255 255
871.20123 1642.5133 2.5374615 255 255 255
2622.9019 3455.9607 8.5986748 255 255 255
7063.8979 3688.5469 8.4659786 255 255 255
3867.2283 18595.229 27.553406 255 255 255
3228.9709 2358.8911 4.9859047 255 255 255
861.81586 751.25439 1.1034663 255 255 255
281.04318 247.46797 0.35074753 255 255 255
2683.7024 1624.0588 3.3641689 255 255 255
1871.8656 1157.9902 2.3461919 255 255 255
3653.4773 6456.3555 11.067654 255 255 255
1557.7849 1418.6051 2.0031824 255 255 255
722.16138 838.44226 2.0250864 255 255 255
985.59686 618.42749 1.489634 255 255 255
2895.5232 2843.1067 4.5268106 255 255 255
429.56458 535.18683 0.87885785 255 255 255
10518.739 3593.4863 12.729071 255 255 255
266.4494 366.40787 0.91563326 255 255 255
201.91524 456.77548 1.0814075 255 255 255
913.65649 230.4521 0.97016305 255 255 255
287.58615 543.46484 1.069581 255 255 255
-1482.1389 -2757.8281 -4.3747849 255 255 255
-544.70337 -2544.123 -5.0735064 255 255 255
9261.9014 4457.8882 10.009941 255 255 255
-4737.2319 -2548.7744 -6.3528504 255 255 255
808.95447 1353.9224 2.342555 255 255 255
-1472.007 -2796.282 -5.8683786 255 255 255
211.08751 657.74194 1.3455222 255 255 255
-652.28223 -820.32245 -2.0072894 255 255 255
-524.08252 -860.88916 -2.565732 255 255 255
-231.4435 -1138.5752 -2.9020145 255 255 255
917.46228 1725.1161 2.6134501 255 255 255
-512.44458 -577.37604 -2.2854095 255 255 255
608.1225 729.80121 1.8238878 255 255 255
1003.5972 1113.0609 1.3704857 255 255 255
269.31516 520.32166 1.2250462 255 255 255
-263.89694 -221.02878 -1.3871157 255 255 255
-212.26581 -887.87445 -2.5195067 255 255 255
249.57898 742.43286 1.4338595 255 255 255
7224.6792 4746.8833 7.9596868 255 255 255
1579.8798 1086.3538 4.3143392 255 255 255
503.35706 1288.4614 2.0753472 255 255 255
444.17105 253.52328 0.50634873 255 255 255
751.26569 625.20819 0.95962483 255 255 255
639.0318 693.95013 1.8600391 255 255 255
-7805.8047 -18375.092 -30.065636 255 255 255
-1933.5337 -6238.0532 -12.007753 255 255 255
-861.17474 -1437.191 -4.2495847 255 255 255
-601.40607 -970.57306 -3.1369731 255 255 255
-3201.1008 -6589.7456 -14.300449 255 255 255
632.91504 1146.8698 2.0728323 255 255 255
317.1571 1206.0029 1.9101839 255 255 255
680.12231 550.87885 0.83406669 255 255 255
14161.602 5197.9922 14.422455 255 255 255
-556.47467 -1625.9254 -4.2173195 255 255 255
-6005.1577 -13492.485 -20.054871 255 255 255
1679.4618 1219.5175 1.9693284 255 255 255
568.25299 391.14236 0.66525757 255 255 255
-239.34415 -281.30905 -1.4285538 255 255 255
457.65771 810.19873 1.6792854 255 255 255
750.87878 1325.6843 2.2757788 255 255 255
-2244.8132 -1849.1013 -5.0956335 255 255 255
-10771.49 -5008.0474 -12.571496 255 255 255
1024.4478 1189.1312 2.5101912 255 255 255
644.89832 1240.7704 2.2442636 255 255 255
3306.052 4359.8657 9.6560202 255 255 255
524.33344 377.46432 0.6596483 255 255 255
708.28888 1053.4271 2.0978005 255 255 255
-6278.5869 -15950.785 -27.530598 255 255 255
1167.52 1539.235 2.7592053 255 255 255
219.79654 529.81146 1.1827689 255 255 255
2262.3152 2614.5852 5.7064185 255 255 255
357.54318 447.49512 0.7546466 255 255 255
6210.0854 3906.3108 7.4380207 255 255 255
754.43695 1559.8124 2.4173963 255 255 255
801.59894 1356.7037 2.3393459 255 255 255
850.07104 1620.0852 2.5110488 255 255 255
17560.969 8208.8652 18.682652 255 255 255
790.24316 1156.2014 2.2333958 255 255 255
-2790.4761 -1339.2189 -4.0907454 255 255 255
593.12994 809.32941 1.8383542 255 255 255
618.11914 1070.0609 1.1698406 255 255 255
-78.459297 -240.623 -1.3848273 255 255 255
272.84692 1232.1151 1.9190803 255 255 255
-22489.348 -17249.873 -31.049147 255 255 255
820.86963 1570.7328 2.4655218 255 255 255
811.86743 1027.6187 2.2045426 255 255 255
-385.8313 -493.33191 -2.0934663 255 255 255
-815.59656 -609.66949 -2.0007086 255 255 255
-915.72424 -942.83478 -2.2234764 255 255 255
1064.686 1163.8749 1.4811885 255 255 255
585.48291 1938.7384 3.8051214 255 255 255
-628.99567 -1249.9479 -3.7613971 255 255 255
553.01923 1075.3217 1.9571203 255 255 255
725.26056 741.18457 0.95349032 255 255 255
12382.323 4484.2686 13.260498 255 255 255
893.24103 962.48425 1.1930832 255 255 255
1149.543 1175.6022 1.5355711 255 255 255
-1734.5659 -6188.1631 -10.836549 255 255 255
331.80341 1286.1768 1.9890043 255 255 255
2575.998 4084.0593 10.850382 255 255 255
706.08423 773.19855 1.9834508 255 255 255
29119.658 5547.2651 30.377396 255 255 255
-2433.8347 -1402.2023 -3.6509826 255 255 255
-807.17712 -2961.8682 -5.6248522 255 255 255
1198.5723 1670.8093 3.3207116 255 255 255
9020.4512 3567.6025 10.870752 255 255 255
-662.8443 -698.16785 -1.9225152 255 255 255
661.79785 863.47437 1.954724 255 255 255
755.46155 1193.3065 1.1646805 255 255 255
-1320.708 -2329.468 -5.7419953 255 255 255
-422.92856 -268.0853 -1.5633855 255 255 255
8990.4824 4206.4468 10.076196 255 255 255
-1718.6615 -2609.2554 -6.5135393 255 255 255
7968.6797 6224.7222 10.618773 255 255 255
716.40118 783.80121 2.0017524 255 255 255
-685.586 -1391.3436 -3.7149663 255 255 255
896.53625 731.30902 1.0919116 255 255 255
-819.4646 -2130.6316 -4.597538 255 255 255
11154.007 5045.1606 11.670472 255 255 255
699.82147 1558.7765 3.513763 255 255 255
-374.31314 -331.59286 -1.5014744 255 255 255
-377.56525 -532.89465 -1.7087197 255 255 255
-181.57831 -1011.1713 -2.5058863 255 255 255
-1175.0994 -966.53864 -4.2622414 255 255 255
-327.56995 -956.62659 -2.7830648 255 255 255
-8939.748 -15236.359 -26.340664 255 255 255
2726.6003 6142.1421 9.6220856 255 255 255
445.24951 738.44702 1.6128352 255 255 255
1485.826 2748.8142 4.1733456 255 255 255
757.61987 1350.4835 2.2957695 255 255 255
838.63245 1557.0101 2.4665427 255 255 255
451.87628 292.84818 0.56472433 255 255 255
-55341.09 -30445.727 -62.304199 255 255 255
1878.8514 1849.6989 3.5726478 255 255 255
1243.2827 1139.9719 1.6071117 255 255 255
6427.3374 4669.7119 8.0653906 255 255 255
-870.7804 -781.2879 -2.1035538 255 255 255
-71106.023 -138443.8 -313.36871 255 255 255
591.38983 685.71851 1.5998223 255 255 255
497.76129 1594.3234 2.2983503 255 255 255
-1273.5466 -1736.3267 -2.952287 255 255 255
783.02228 786.69299 1.0650758 255 255 255
1193.0393 1181.6162 1.519791 255 255 255
-1752.1469 -1568.881 -7.3423467 255 255 255
5176.7007 3287.7822 6.6925678 255 255 255
7686.4702 11236.965 21.941845 255 255 255
-895.6709 -761.19391 -2.3621213 255 255 255
206.20706 397.90448 1.0343544 255 255 255
4603.6382 10958.646 17.034876 255 255 255
-2127.5764 -3484.7981 -8.4523125 255 255 255
226.037 744.92535 1.4223456 255 255 255
641.18146 794.18945 1.8968328 255 255 255
819.91455 1476.1036 2.4147506 255 255 255
-190.01187 -225.8412 -1.6326398 255 255 255
-434.53766 -313.74695 -2.1213896 255 255 255
7390.4404 11474.472 23.500738 255 255 255
1062.5413 1466.8821 2.6220427 255 255 255
1956.4327 2361.3923 3.6685362 255 255 255
-2870.2834 -3673.8933 -7.014853 255 255 255
-1314.3029 -2524.2793 -6.6377573 255 255 255
371.62259 574.72693 0.92861205 255 255 255
-685.65399 -1849.7462 -3.4525659 255 255 255
-12373.468 -19245.074 -46.002274 255 255 255
658.1059 1250.5911 2.1578195 255 255 255
534.31616 1390.4694 2.1670201 255 255 255
-2011.3923 -4684.1577 -9.2722654 255 255 255
-889.25427 -1215.0341 -2.8329275 255 255 255
163.46516 239.81026 0.25286728 255 255 255
949.92639 1395.5092 2.488853 255 255 255
-96.218834 -142.08847 -1.3193307 255 255 255
617.32806 1197.7223 1.8375438 255 255 255
-874.31659 -1082.0908 -2.2793329 255 255 255
5701.5864 4067.1533 9.1045284 255 255 255
1815.0187 3224.0488 7.3055048 255 255 255
741.64502 1326.8076 2.272409 255 255 255
1328.5671 1425.1569 1.843217 255 255 255
-242.76695 -449.36508 -1.7106711 255 255 255
3922.1619 1710.134 6.5559125 255 255 255
3202.0547 2197.9663 5.0468917 255 255 255
-148.24385 -195.63034 -1.2478381 255 255 255
-300.38876 -306.02789 -1.6533751 255 255 255
-4685.9536 -9594.5742 -20.502356 255 255 255
-1278.0558 -1931.6649 -5.3070459 255 255 255
-3295.4829 -1037.306 -4.6885657 255 255 255
455.6958 707.01477 1.4014653 255 255 255
5987.6797 4352.1475 7.0369821 255 255 255
-424.25497 -859.50958 -2.3540139 255 255 255
708.88824 1449.7833 2.3192875 255 255 255
1066.624 1350.3605 2.5972548 255 255 255
1157.7437 1926.8221 2.8824229 255 255 255
958.60114 1425.0011 2.5040057 255 255 255
3213.2642 3078.5774 4.811677 255 255 255
689.06512 737.83258 1.9473143 255 255 255
522.14813 384.08203 0.62218386 255 255 255
5530.6909 3372.531 5.9524317 255 255 255
-159.51782 -591.76031 -1.9386348 255 255 255
205.13702 479.41782 1.1110709 255 255 255
1014.9771 792.39423 1.222801 255 255 255
1447.0697 2865.2891 5.7654815 255 255 255
-176.74358 -221.75992 -1.5984992 255 255 255
-1001.915 -1182.8149 -2.3786008 255 255 255
23934.178 7659.8877 27.014458 255 255 255
5101.436 20187.846 29.858561 255 255 255
849.15509 1529.2017 2.4658101 255 255 255
12367.904 4498.043 13.227996 255 255 255
715.42798 1034.851 2.0973837 255 255 255
-6148.1157 -3189.5137 -7.3603864 255 255 255
622.72424 745.40033 1.8520956 255 255 255
16281.183 5032.4155 16.601332 255 255 255
562.75763 770.71851 0.8135311 255 255 255
1192.7964 1232.3896 1.5439812 255 255 255
34686.887 18224.207 38.579079 255 255 255
-21629.072 -45820.844 -112.25235 255 255 255
57.817223 293.75879 0.72644007 255 255 255
-9034.2256 -15520.309 -31.113344 255 255 255
-1041.0057 -1332.9449 -2.9451404 255 255 255
225.29507 221.39374 0.87356704 255 255 255
-189.1062 -355.69382 -1.5391006 255 255 255
-410.79004 -679.11279 -2.0148199 255 255 255
-302.4426 -446.16556 -1.9345517 255 255 255
2134.7288 1021.9328 2.3167615 255 255 255
-217.52312 -283.20023 -1.3960872 255 255 255
1024.1654 1021.6226 1.3864745 255 255 255
1348.1771 1551.8854 1.984647 255 255 255
-263.52902 -1147.5548 -3.09308 255 255 255
12658.229 5225.4248 14.349477 255 255 255
209.94048 408.04483 1.0337758 255 255 255
1081.2627 1061.924 1.657357 255 255 255
811.86713 1284.4043 2.3125441 255 255 255
-630.73822 -643.42444 -1.7946838 255 255 255
398.36929 555.00458 1.4234515 255 255 255
670.45886 731.46973 1.9162153 255 255 255
-9231.4004 -19647.416 -35.319427 255 255 255
96.032379 111.60305 0.13871199 255 255 255
550.8949 1182.0458 2.0294797 255 255 255
721.13306 837.86871 2.0229495 255 255 255
-2212.95 -3913.5825 -7.8407383 255 255 255
424.98264 1331.1115 2.0649323 255 255 255
-691.54559 -1384.5167 -3.3200858 255 255 255
-3171.2002 -2360.9722 -5.4611645 255 255 255
1437.5935 906.62024 3.2147999 255 255 255
-240.40872 -349.52499 -1.6017243 255 255 255
1805.8236 1736.9584 2.4977729 255 255 255
-413.67929 -1157.3665 -2.8996143 255 255 255
1503.692 1700.2452 2.1408334 255 255 255
330.97623 515.71649 1.2998321 255 255 255
2000.0638 2085.9314 2.7397029 255 255 255
-727.59045 -591.64349 -2.2582359 255 255 255
230.73378 736.07208 1.4148587 255 255 255
1127.6786 1735.5203 2.775481 255 255 255
16791.469 13846.839 26.546196 255 255 255
2534.2605 1180.6929 4.9673948 255 255 255
-113945.14 -32060.824 -145.42813 255 255 255
476.09106 667.37982 1.6031743 255 255 255
300.93277 470.77277 1.2181261 255 255 255
-16401.057 -9867.6143 -19.056768 255 255 255
7680.4243 3751.499 9.0645113 255 255 255
324.3226 1208.2627 1.9140625 255 255 255
-194.42935 -212.95741 -1.5934907 255 255 255
7729.4165 2961.6414 7.8733816 255 255 255
-250.18124 -365.85333 -1.8317939 255 255 255
7238.0029 2924.7546 7.3470616 255 255 255
1560.4408 878.65839 1.7068226 255 255 255
839.20709 2323.9478 4.140326 255 255 255
3658.0972 2911.2751 4.4189577 255 255 255
-1086.3044 -390.1058 -2.5291455 255 255 255
7564.8501 2981.7898 7.7576461 255 255 255
-2200.2451 -4582.9233 -12.329058 255 255 255
1374.1417 1378.9604 5.0601468 255 255 255
9803.2822 3084.125 12.846406 255 255 255
688.16461 737.7265 1.9462293 255 255 255
-1203.0156 -1129.8512 -2.916157 255 255 255
1218.3209 1915.0424 4.3528152 255 255 255
-1888.0431 -3107.2998 -8.3039408 255 255 255
309.06647 506.25684 1.2614112 255 255 255
5451.7251 2847.8962 6.0075488 255 255 255
-350.246 -439.49698 -2.8169031 255 255 255
-5901.0522 -8396.1797 -20.358677 255 255 255
1525.807 1781.7935 3.6398122 255 255 255
12776.654 5894.3979 13.288964 255 255 255
-1963.8026 -1093.4025 -3.3900156 255 255 255
38887.707 5972.2666 41.920734 255 255 255
-1108.0043 -3986.1729 -7.4328389 255 255 255
1078.1422 1392.9266 2.6200612 255 255 255
3345.4473 2502.3191 5.0788484 255 255 255
35.580421 263.71436 0.66399986 255 255 255
-236.11272 -314.49539 -1.5064867 255 255 255
1063.043 1065.4153 2.1179335 255 255 255
376.703 59.38023 0.46207801 255 255 255
1732.116 1192.4772 3.4516377 255 255 255
2459.9153 1843.085 3.8341742 255 255 255
-310.54083 -488.97974 -2.0041554 255 255 255
-318.52667 -377.39105 -1.4608954 255 255 255
342.89645 936.47681 1.6823927 255 255 255
-40.441105 -74.538101 -1.1349407 255 255 255
1095.1949 653.85022 1.1929748 255 255 255
-138.70531 -384.98563 -1.7067547 255 255 255
-210.21654 -155.43965 -1.2551322 255 255 255
622.60431 940.56262 2.8506408 255 255 255
-744.73315 -1929.6769 -4.2664666 255 255 255
816.92029 1455.0812 2.3978443 255 255 255
762.19495 606.617 2.0767787 255 255 255
6162.5923 3080.2422 8.0054264 255 255 255
907.63721 1588.613 2.5384514 255 255 255
550.34625 488.73199 1.6627085 255 255 255
-2988.9912 -6008.5425 -10.597636 255 255 255
678.40698 1520.8993 2.342525 255 255 255
448.12692 1404.0405 2.1299057 255 255 255
521.5274 929.40802 1.8283449 255 255 255
572.60059 1464.7705 2.2367477 255 255 255
-455.55038 -437.62903 -2.2148035 255 255 255
2278.7371 1231.4951 4.4435658 255 255 255
3618.1091 2523.2029 5.5801344 255 255 255
-142.12506 -99.947723 -1.2087657 255 255 255
173.80154 368.57217 0.94395757 255 255 255
-657.06696 -3477.7312 -6.6520143 255 255 255
-40.524395 -86.047646 -1.1789472 255 255 255
1159.0334 662.50439 1.8099983 255 255 255
9829.4512 12498.658 21.050322 255 255 255
905.53766 1081.9489 2.333806 255 255 255
-807.05585 -1141.8646 -3.3439264 255 255 255
1664.3066 1959.0497 2.3736839 255 255 255
13656.348 4419.6553 14.737046 255 255 255
1459.8354 1358.9626 1.8683565 255 255 255
-1460.7787 -2269.5154 -6.843348 255 255 255
10518.033 3594.2937 12.732071 255 255 255
-259.74762 -1055.5862 -3.0330279 255 255 255
8417.1396 3271.8325 8.7247534 255 255 255
6813.3345 3706.9819 8.1674109 255 255 255
13824.846 25800.615 46.260212 255 255 255
2167.759 1959.7173 4.0089302 255 255 255
1453.1921 1858.532 3.4016099 255 255 255
592.77698 464.35266 0.72832793 255 255 255
1227.2648 1302.739 1.6368585 255 255 255
1041.9827 996.93152 1.3779488 255 255 255
370.52194 550.65497 1.3819369 255 255 255
-120.40549 -211.0697 -1.3447466 255 255 255
870.66833 1640.9576 2.5346208 255 255 255
149.79156 305.16885 0.83207381 255 255 255
857.16138 584.28259 0.99810737 255 255 255
508.47992 1322.6326 2.1037369 255 255 255
623.08362 1061.183 1.0376941 255 255 255
-1042.2012 -1874.1166 -5.2006216 255 255 255
236.66934 287.86758 0.95702535 255 255 255
784.00049 842.23224 1.0606186 255 255 255
660.30035 863.05475 1.9502627 255 255 255
-404.48965 -682.62933 -2.0175271 255 255 255
595.23907 481.33069 0.76524419 255 255 255
-1333.9211 -2639.9861 -5.1116529 255 255 255
309.67883 417.44159 1.1891308 255 255 255
654.76477 1669.0232 2.4273651 255 255 255
3241.7776 6105.7285 11.217225 255 255 255
-355.84735 -411.26001 -2.3257949 255 255 255
638.22974 693.82483 1.8593458 255 255 255
414.76324 740.49579 1.5799543 255 255 255
897.73633 1040.9246 1.2366134 255 255 255
776.8866 379.88394 0.88406783 255 255 255
62.350563 238.62721 0.63532269 255 255 255
-774.3728 -639.42163 -2.1650429 255 255 255
294.75378 1151.3702 1.85344 255 255 255
-740.10071 -699.61542 -2.496474 255 255 255
-406.57867 -1105.7889 -2.6966352 255 255 255
1291.5212 1292.4451 2.7139142 255 255 255
568.302 246.71059 1.0578887 255 255 255
-2597.8467 -4029.7153 -8.5833759 255 255 255
763.54688 678.28131 0.95609045 255 255 255
-1764.8817 -2097.1626 -3.5428123 255 255 255
862.76691 752.41553 1.1053677 255 255 255
-1422.6779 -1386.8865 -3.9991651 255 255 255
56.631176 361.33478 0.83387774 255 255 255
285.89468 335.70697 0.7369867 255 255 255
7315.2129 3632.1877 8.7779779 255 255 255
3557.2073 2945.7969 4.3510222 255 255 255
49542.391 24555.312 55.674156 255 255 255
359.8847 1098.2129 1.8373905 255 255 255
-292.64987 -1217.2321 -2.8480361 255 255 255
-276.27289 -303.38324 -1.4091462 255 255 255
6813.5903 4757.6177 7.6502151 255 255 255
2004.9072 1076.5261 2.1869597 255 255 255
-6099.3208 -12460.487 -24.036394 255 255 255
-3198991.2 -2040095.4 -3625.9536 255 255 255
676.25763 837.26062 1.9608488 255 255 255
-2618.2358 -1105.2209 -3.7706306 255 255 255
2272.4963 4083.6282 6.4415302 255 255 255
-155.67667 -214.93448 -1.3842947 255 255 255
814.58441 1410.6605 2.3750741 255 255 255
753.76898 426.66022 2.1680524 255 255 255
643.70349 730.05963 1.1700227 255 255 255
203.815 200.5257 0.81207031 255 255 255
401.1582 427.97961 1.3577484 255 255 255
722.04321 1225.6714 2.2020409 255 255 255
1449.9396 1507.0322 1.8782725 255 255 255
1194.3409 1918.8049 2.900665 255 255 255
1214.0826 1571.6715 2.8064539 255 255 255
4248.9282 4282.9434 5.5716677 255 255 255
780.07074 731.77496 1.0128981 255 255 255
-3196.5742 -5474.0786 -10.961935 255 255 255
574.92487 613.4259 1.7315459 255 255 255
337.4285 358.66629 0.44939938 255 255 255
604.94751 1109.101 1.3872184 255 255 255
-684.13745 -1374.8666 -4.1612868 255 255 255
1010.8914 1190.3251 2.288903 255 255 255
856.56207 1283.0688 1.390276 255 255 255
1512.6405 1382.998 1.8899407 255 255 255
692.58844 743.05017 1.9559442 255 255 255
60.506058 304.92953 0.74720144 255 255 255
6396.5703 3869.7212 7.6342669 255 255 255
6404.0396 3874.3472 7.6334133 255 255 255
955.1051 1398.2408 2.4934771 255 255 255
292.00317 523.57959 1.2547066 255 255 255
805.7627 1091.8945 1.9613919 255 255 255
-344.52063 -380.85526 -2.0987186 255 255 255
9353.1201 5266.8828 10.21739 255 255 255
1246.58 1183.8348 1.6036382 255 255 255
-634.09528 -837.13983 -2.002048 255 255 255
288.95078 621.47797 1.3473151 255 255 255
6115.4917 3906.8926 7.34588 255 255 255
925.87543 921.71936 1.2325629 255 255 255
804.39777 1491.8204 2.4075606 255 255 255
780.55884 640.49292 0.9676227 255 255 255
2437.8589 1768.9091 3.7441199 255 255 255
-660.98749 -529.66467 -2.1422582 255 255 255
1442.9377 1490.2697 2.0098028 255 255 255
15840.985 3830.2986 19.334454 255 255 255
1181.377 1605.7341 2.7889392 255 255 255
1231.5221 1141.0226 1.5520751 255 255 255
808.27649 1382.718 2.3557339 255 255 255
-240.24545 -247.07286 -1.5963517 255 255 255
2894.5457 2842.1958 4.5244117 255 255 255
1093.3531 1051.0228 1.4403622 255 255 255
28884.545 5514.6465 30.127193 255 255 255
3090.3376 4758.7407 11.271812 255 255 255
-1331.7986 -2388.6748 -5.1964068 255 255 255
-558.38556 -1207.4698 -2.9373052 255 255 255
894.95465 761.99329 1.1061561 255 255 255
1058.0492 952.72156 1.3273844 255 255 255
-182.63184 -300.91364 -1.7751858 255 255 255
-50.135273 -70.391777 -1.1826357 255 255 255
290.23453 406.16248 1.1474541 255 255 255
2713.4324 3760.2302 9.372983 255 255 255
1024.6143 1424.9452 1.5405102 255 255 255
743.67743 1040.0765 2.1286707 255 255 255
-591.09344 -1350.3867 -3.3280845 255 255 255
3004.356 3953.5063 11.254561 255 255 255
1043.9153 777.50562 1.6967958 255 255 255
1552.1556 1185.6586 2.5319684 255 255 255
6671.7695 2911.4819 14.570312 255 255 255
-407.92191 -459.88446 -1.5663103 255 255 255
-1913.6027 -1304.796 -3.1309562 255 255 255
-972.77594 -796.23999 -2.1932573 255 255 255
-332.94556 -567.11145 -1.5665877 255 255 255
25727.508 9040.6387 27.934282 255 255 255
1083.2704 1294.265 1.4267542 255 255 255
785.52753 852.3194 2.1189485 255 255 255
2259.0408 1226.3169 4.414896 255 255 255
-7953.7329 -3226.5918 -9.323348 255 255 255
775.11566 576.71021 2.1069276 255 255 255
-2656.2847 -3553.9956 -8.8055401 255 255 255
-5442.1685 -5795.6606 -18.12792 255 255 255
-646.78876 -1002.9146 -2.7464497 255 255 255
1979.6239 2917.0315 4.7208261 255 255 255
-1484.7919 -1544.0463 -2.9199529 255 255 255
380.77466 232.40948 0.42703709 255 255 255
495.14984 1090.9979 1.9208566 255 255 255
-6896.7607 -4345.0498 -9.7064848 255 255 255
414.8168 774.47675 1.6076227 255 255 255
26.053579 145.67014 0.42622992 255 255 255
479.74326 1192.3478 1.9495087 255 255 255
-2253.7449 -4983.127 -8.8346024 255 255 255
785.2926 892.97809 2.1279266 255 255 255
448.23355 1300.5155 2.0513864 255 255 255
925.12018 769.40991 1.183032 255 255 255
-263.39087 -759.34094 -2.2449512 255 255 255
-580.77582 -369.73685 -2.0128653 255 255 255
-1811.1354 -1890.3257 -3.5276663 255 255 255
226.17181 658.57343 1.3306897 255 255 255
-3990.1118 -8209.377 -18.282011 255 255 255
-836.8927 -1025.1884 -2.1909282 255 255 255
-632.5282 -604.36145 -1.8499862 255 255 255
971.66791 1355.1958 2.4949741 255 255 255
993.88873 1585.8163 4.1255755 255 255 255
1263.2753 2089.6348 3.7482686 255 255 255
468.0546 668.99963 1.5946946 255 255 255
518.27399 353.50412 0.60049123 255 255 255
306.12247 197.92239 0.36000958 255 255 255
-403.02802 -671.40741 -2.207618 255 255 255
1428.5132 3511.791 6.7150388 255 255 255
-4458.0669 -2356.0815 -5.5562849 255 255 255
845.59094 1709.9631 2.5616035 255 255 255
-604.49005 -688.19159 -1.8540847 255 255 255
-648.14069 -607.78625 -1.8235862 255 255 255
-337.10059 -600.16187 -1.9963933 255 255 255
233.5143 741.37006 1.4217246 255 255 255
750.22607 1326.0698 2.2751906 255 255 255
550.67755 738.43243 1.4693663 255 255 255
665.74335 1272.8055 2.1758251 255 255 255
-680.5401 -785.01367 -2.526644 255 255 255
1253.7811 1495.416 1.7724769 255 255 255
-319.90918 -606.7998 -1.9997239 255 255 255
271.69962 399.69046 1.1090367 255 255 255
2498.4453 1262.7932 4.7903204 255 255 255
797.24976 1477.8877 2.3998065 255 255 255
-4959.4043 -7981.9937 -20.786985 255 255 255
752.9342 1583.0802 2.4288306 255 255 255
975.61847 1068.2152 2.4214146 255 255 255
-591.25018 -1912.7285 -4.2213283 255 255 255
640.15302 836.22205 1.7724961 255 255 255
-491.0267 -1555.2139 -3.9982753 255 255 255
100.54829 337.57834 0.69134581 255 255 255
-6477.4663 -6618.7734 -12.265656 255 255 255
-968.62158 -929.86212 -2.5358076 255 255 255
-1222.8005 -1600.5787 -4.2014933 255 255 255
992.01355 1582.3098 2.6019509 255 255 255
2273.0908 5941.7734 8.7970715 255 255 255
-1138.3873 -1067.2773 -2.8100157 255 255 255
9905.9893 9614.9229 15.166516 255 255 255
16858.254 5594.9663 17.479425 255 255 255
-127.32137 -298.65292 -1.4908882 255 255 255
585.56232 946.41577 1.9062347 255 255 255
3466.4744 2455.6204 5.6753569 255 255 255
-1914.1357 -1671.8516 -3.411736 255 255 255
-739.88275 -900.05591 -2.3417044 255 255 255
2535.8018 2053.4993 4.2507129 255 255 255
-1182.5951 -1113.0967 -2.8704188 255 255 255
2781.3015 1987.9164 4.8234701 255 255 255
852.01349 756.58337 1.0645798 255 255 255
-643.87762 -2452.0466 -6.295486 255 255 255
-27.565651 -246.21239 -1.4004364 255 255 255
-631.9621 -933.95648 -2.3541656 255 255 255
841.66876 1561.2335 2.4747412 255 255 255
8064.2422 4321.2939 8.9971027 255 255 255
1034.7411 1777.0714 2.7200263 255 255 255
1295.3273 1162.0143 1.7877898 255 255 255
112.95057 245.60692 0.69946378 255 255 255
3488.4202 1091.7562 7.1342688 255 255 255
246.29645 388.46973 0.39523718 255 255 255
632.00903 853.48865 1.9111966 255 255 255
1059.0249 1515.1565 4.2423439 255 255 255
389.08728 869.76642 1.6587458 255 255 255
570.41516 529.86969 0.75670505 255 255 255
7424.6108 4535.7026 8.228116 255 255 255
1309.824 1160.4161 1.691438 255 255 255
435.38013 688.94196 1.5667967 255 255 255
1484.4128 3859.5303 5.7381558 255 255 255
1438.3535 1606.1564 1.9805067 255 255 255
1089.6167 996.20959 1.3735088 255 255 255
757.38013 1349.4934 2.293752 255 255 255
823.59558 1659.5819 2.5190585 255 255 255
6208.418 3907.5608 7.4386811 255 255 255
405.33127 1072.2783 1.8425015 255 255 255
8461.4824 2856.7454 8.7972031 255 255 255
826.54333 1540.927 2.4547908 255 255 255
124.41579 256.53992 0.7301957 255 255 255
815.49432 447.16138 1.2128004 255 255 255
-1987.144 -3688.5444 -7.6845579 255 255 255
-2898.6912 -4602.0811 -11.113113 255 255 255
-1735.6868 -5208.2739 -9.3161697 255 255 255
236.96335 1420.2384 2.0803859 255 255 255
407.02322 562.62677 1.1890004 255 255 255
-791.39966 -916.64624 -2.284276 255 255 255
928.47906 691.30371 1.1017284 255 255 255
564.30792 448.71417 0.68239909 255 255 255
-1249.9072 -1745.5323 -3.1880817 255 255 255
-561.30096 -664.5556 -1.8019778 255 255 255
-3748.5781 -6579.8511 -12.037374 255 255 255
614.73645 341.95865 0.69162583 255 255 255
1060.0718 1465.2719 2.6212871 255 255 255
1381.4349 1327.9231 1.9111394 255 255 255
644.23639 593.77142 1.8500397 255 255 255
621.11548 743.43384 1.8470246 255 255 255
309.22406 416.84869 1.1878201 255 255 255
1093.7623 810.10376 1.3075495 255 255 255
728.61102 991.85516 2.0883722 255 255 255
-44.571198 -80.982613 -1.1517687 255 255 255
32757.178 5788.332 34.223919 255 255 255
-204.00926 -1166.0508 -3.3215916 255 255 255
719.10718 835.00732 2.0173814 255 255 255
410.6925 298.48941 0.48333782 255 255 255
937.45935 471.0376 1.1922796 255 255 255
300.82281 470.21695 1.2170788 255 255 255
38.783253 256.02054 0.65162021 255 255 255
5479.7578 5258.3042 8.8143539 255 255 255
-664.67975 -412.23221 -1.7926444 255 255 255
-1685.7988 -1336.3802 -3.1770892 255 255 255
276.52109 229.25911 0.35046208 255 255 255
2624.8098 3018.1797 8.8354692 255 255 255
282555 546975.5 1153.5457 255 255 255
-185.75745 -484.1373 -1.8462603 255 255 255
6931.2427 4662.061 7.7247262 255 255 255
2081.6182 2065.9631 2.9498644 255 255 255
752.71069 1581.8408 2.4278038 255 255 255
-194.66637 -132.93851 -1.2348076 255 255 255
790.01343 777.02106 1.0482947 255 255 255
10056.481 9615.2627 19.958839 255 255 255
9389.2041 4490.2261 10.174275 255 255 255
-32098.104 -13606.86 -41.87804 255 255 255
-53.397419 -64.19519 -1.0752462 255 255 255
456.35889 217.86038 0.53548628 255 255 255
-2620.8674 -3945.9971 -8.407939 255 255 255
1191.4117 1204.5515 1.5885257 255 255 255
1569.86 1418.8153 1.9917575 255 255 255
4826.2104 1740.625 6.8602681 255 255 255
1199.9393 1764.7021 3.0700288 255 255 255
57.474251 294.34851 0.72765994 255 255 255
-207.02502 -371.88431 -1.8778924 255 255 255
-399.68259 -527.15149 -1.6162046 255 255 255
-376.32129 -544.59711 -2.4763718 255 255 255
124.54974 256.89297 0.73049974 255 255 255
-2267.1584 -2774.4993 -5.1516991 255 255 255
-303.92905 -194.83157 -1.4416279 255 255 255
-128.71745 -198.00905 -1.3392481 255 255 255
4788.248 6201.9336 11.305673 255 255 255
-490.05273 -768.44476 -1.7958074 255 255 255
9817.4756 3085.9243 12.869195 255 255 255
18212.428 7554.6118 19.370111 255 255 255
-15465.647 -6976.2319 -17.981895 255 255 255
7327.7749 3637.2883 8.7947369 255 255 255
1375.8805 1916.0059 2.1132278 255 255 255
512.26196 1115.6654 1.9528135 255 255 255
817.51202 1456.7559 2.4013348 255 255 255
-972.28638 -1436.7885 -4.9151077 255 255 255
1639.7189 1831.869 2.4023263 255 255 255
-483.78043 -523.84021 -1.6706945 255 255 255
-1293.4927 -2424.2747 -4.761487 255 255 255
-194.50781 -129.80682 -1.2387245 255 255 255
334.58539 462.1355 0.54502338 255 255 255
1194.4994 784.70367 3.1143472 255 255 255
1157.6281 1167.5853 1.6419104 255 255 255
749.53101 1325.5093 2.2750359 255 255 255
860.55695 1606.2484 2.513222 255 255 255
-205.88721 -398.98776 -1.6479419 255 255 255
330.95081 562.07214 1.3378112 255 255 255
-2260.8606 -4788.353 -9.8476324 255 255 255
80.868904 285.51306 0.72949541 255 255 255
743.05695 1285.9922 2.2486231 255 255 255
294.62772 462.93057 1.2020515 255 255 255
2569.3003 1237.0875 3.7616076 255 255 255
2136.063 1354.8109 2.4714978 255 255 255
1370.1313 1447.191 1.8204032 255 255 255
3465.6528 4104.001 6.4225774 255 255 255
741.21307 1317.0219 2.267755 255 255 255
629.65692 768.3689 1.8701929 255 255 255
2903.9512 2847.5366 4.5349712 255 255 255
-2813.916 -10336.501 -19.999346 255 255 255
392.82132 723.74945 1.541546 255 255 255
208.78169 285.5918 0.9013347 255 255 255
13291.57 4495.7393 14.279403 255 255 255
368.24136 734.30914 1.5253675 255 255 255
574.76324 759.45251 0.84893399 255 255 255
300.60565 524.27472 1.2669619 255 255 255
35.388252 262.62531 0.66166019 255 255 255
-841.94019 -1530.9254 -3.5290155 255 255 255
6851.6367 3727.4419 8.2169209 255 255 255
-7559.8901 -5562.2827 -15.271161 255 255 255
5941.71 3877.1475 7.1834102 255 255 255
-9816.4219 -3948.2119 -10.895512 255 255 255
667.29626 731.58929 1.9158136 255 255 255
2012.8357 4344.2661 6.4860229 255 255 255
917.19891 2491.9255 3.7163901 255 255 255
-332.1875 -444.07242 -2.1083519 255 255 255
1908.578 3097.7019 6.2859397 255 255 255
919.09662 858.34668 1.1746511 255 255 255
2717.9519 1012.4196 5.6661248 255 255 255
790.52856 696.61438 0.98926347 255 255 255
-394.33295 -803.5329 -2.3204513 255 255 255
112.18929 300.98087 0.78160727 255 255 255
586.93103 1385.8292 2.5937469 255 255 255
-312.11899 -716.87714 -1.8544642 255 255 255
1560.532 1324.1458 2.1715832 255 255 255
-1783.0824 -3101.7627 -7.3832378 255 255 255
4954.0381 2342.0271 5.4094372 255 255 255
-327.59662 -639.98639 -1.8914913 255 255 255
780.94342 1383.2076 2.3325846 255 255 255
2288.7942 1205.4996 2.519551 255 255 255
-1380.5018 -1474.5018 -2.9199543 255 255 255
2339.24 1215.7174 4.5636053 255 255 255
406.93118 194.09213 0.42178288 255 255 255
413.79721 772.24359 1.6028364 255 255 255
-34671.637 -15707.243 -39.239674 255 255 255
757.21869 1138.611 1.1422529 255 255 255
873.59576 1646.1903 2.5434017 255 255 255
271.45752 628.65405 1.2496701 255 255 255
345.22516 457.1286 1.2760487 255 255 255
2012.6318 1322.0682 2.3085265 255 255 255
421.58606 677.70844 1.5409043 255 255 255
-713.69342 -1028.6611 -4.0580487 255 255 255
6872.376 4730.6367 7.6783948 255 255 255
-955.5816 -1174.9537 -2.3974342 255 255 255
209.47408 409.1658 1.0358268 255 255 255
6182.168 3888.3167 7.4059505 255 255 255
675.52679 835.76343 1.9576601 255 255 255
549.77307 488.59589 1.6620642 255 255 255
912.95605 990.45471 1.1988795 255 255 255
-1097.2748 -1254.5889 -2.5315807 255 255 255
-29266.873 -62532.816 -101.42749 255 255 255
309.24631 504.91721 1.2588986 255 255 255
-956.19025 -1195.3628 -2.3745823 255 255 255
4478.5742 3528.729 5.5708046 255 255 255
-672.36261 -431.06406 -1.8251371 255 255 255
1396.1356 1175.6863 2.2336688 255 255 255
1391.1934 1458.0276 1.8411896 255 255 255
1429.0746 1418.7931 1.9204181 255 255 255
4664.2676 1904.7802 7.4736929 255 255 255
-1267.439 -943.37256 -2.534533 255 255 255
1233.8767 1163.4557 2.3724403 255 255 255
8075.458 4326.3267 9.0113535 255 255 255
927.65393 1602.9397 2.5587897 255 255 255
-659.9295 -465.48706 -1.8511889 255 255 255
8006.9478 4310.3911 8.9344177 255 255 255
-9628.7422 -18642.34 -29.963432 255 255 255
-564.13672 -655.7196 -1.7466059 255 255 255
2518.6804 1179.5509 4.9338317 255 255 255
9025.6289 3421.1121 9.2364159 255 255 255
9399.085 6843.9922 12.267321 255 255 255
2702.9121 1231.1938 5.2069144 255 255 255
703.22461 614.52899 1.9581797 255 255 255
4651.1772 3544.7925 5.6961942 255 255 255
-700.48773 -860.13019 -2.2902172 255 255 255
858.83203 984.659 1.2069802 255 255 255
1396.5054 1592.8054 2.0149596 255 255 255
764.29742 1202.2491 2.2278233 255 255 255
6342.5586 3839.0601 7.6003804 255 255 255
6168.3115 3080.6868 8.0135298 255 255 255
907.66705 1587.9304 2.5370922 255 255 255
639.17029 1091.6877 2.0451331 255 255 255
669.95331 840.98297 0.93146473 255 255 255
7068.5713 3685.5142 8.4699745 255 255 255
388.30121 366.73883 1.3109862 255 255 255
4507.7173 3312.8362 8.0071535 255 255 255
809.41797 1355.3911 2.3445339 255 255 255
678.43475 1522.058 2.3449187 255 255 255
486.92303 710.51959 1.1424826 255 255 255
-4088.0232 -1529.7297 -5.5946345 255 255 255
917.98083 1341.5813 2.4310739 255 255 255
636.00903 787.10669 1.8882502 255 255 255
-1284.4867 -457.99509 -2.706187 255 255 255
-433.53577 -688.88391 -1.9435667 255 255 255
984.70496 814.76636 1.2051136 255 255 255
5170.2266 3282.7217 6.6839876 255 255 255
788.86383 1069.6923 2.1921511 255 255 255
1498.0759 1523.5554 1.9490781 255 255 255
7030.9463 3686.9229 8.4286776 255 255 255
116.06981 339.22473 0.84275079 255 255 255
-158.41759 -160.95085 -1.282753 255 255 255
-4466.8281 -1457.2544 -5.4949589 255 255 255
6418.7676 3884.5049 7.6527653 255 255 255
5722.6274 1878.6766 9.3129206 255 255 255
-622.87006 -703.17847 -1.9181466 255 255 255
3103.092 7935.8643 13.085072 255 255 255
714.44019 1034.3696 2.0947669 255 255 255
-450.37 -455.04572 -1.6305836 255 255 255
-285.40384 -539.24774 -2.5734408 255 255 255
733.89288 1130.6348 2.1614997 255 255 255
113.67868 346.77982 0.85115582 255 255 255
54.344624 293.16373 0.7240181 255 255 255
124188.06 67797.539 138.67 255 255 255
2266.9299 1225.8663 4.419879 255 255 255
780.74951 1195.7665 2.2327039 255 255 255
225.86763 377.6246 0.57259154 255 255 255
-1073.3759 -745.30188 -2.3047366 255 255 255
-262.91287 -726.32617 -2.3274839 255 255 255
809.82812 1279.9796 2.3092663 255 255 255
1072.7032 2970.6055 4.9011321 255 255 255
727.5907 652.47125 0.91549826 255 255 255
10964.616 4446.519 11.729273 255 255 255
-493.60904 -640.01428 -2.0615995 255 255 255
739.70905 1326.2556 2.2682543 255 255 255
2956.2585 3902.0959 12.433538 255 255 255
4214.2612 1797.5493 6.9254713 255 255 255
2481.1616 852.47314 2.4548824 255 255 255
991.72931 947.17468 1.3016132 255 255 255
636.3399 1165.0276 2.0898154 255 255 255
10221.3 3542.5452 12.391884 255 255 255
-8941.6562 -13236.047 -23.136236 255 255 255
56.587589 194.36427 0.54861039 255 255 255
660.54376 862.17371 1.949054 255 255 255
13510.854 6916.5059 14.787304 255 255 255
-190.34251 -208.4456 -1.6320037 255 255 255
433.84399 686.82831 1.5625322 255 255 255
550.42194 1182.2181 2.0290232 255 255 255
62.398369 238.73248 0.63577878 255 255 255
1181.2142 1605.042 2.7881629 255 255 255
-560.20941 -386.71677 -1.9325927 255 255 255
9052.1914 3448.7651 9.2793303 255 255 255
108.68296 376.21317 0.88982296 255 255 255
346.60455 507.63745 1.3152863 255 255 255
-784.46771 -1127.0201 -2.8014846 255 255 255
-812.82416 -695.9447 -2.0161133 255 255 255
-138.61427 -824.013 -2.3546417 255 255 255
-81663.547 -42077.754 -92.532433 255 255 255
1189.5063 1217.1949 1.5854975 255 255 255
4809.6367 1943.7649 7.6449738 255 255 255
9621.4941 3554.8787 11.626729 255 255 255
2659.1982 923.14575 2.7443855 255 255 255
330.39108 514.94263 1.2976466 255 255 255
-597.59967 -635.74695 -2.1937451 255 255 255
-2847.2837 -2272.4805 -5.2507401 255 255 255
1386.3721 1158.9385 1.9863786 255 255 255
288.85117 618.41974 1.3426691 255 255 255
779.8988 568.13831 2.1515198 255 255 255
852.07379 1533.1949 2.4732165 255 255 255
-438.28015 -706.17542 -2.1317019 255 255 255
7640.1021 6860.2969 12.379895 255 255 255
1078.0137 1394.6167 2.6228862 255 255 255
1313.3809 1588.9561 2.5398207 255 255 255
26787.826 15386.308 29.723688 255 255 255
-37.689678 -74.580086 -1.1287664 255 255 255
60.274445 305.12921 0.74700248 255 255 255
-2392.3147 -1152.0914 -3.6059847 255 255 255
1484.718 1339.8439 2.0717549 255 255 255
623.94452 843.42438 1.8956376 255 255 255
887.49469 1202.9592 1.3690981 255 255 255
24000.443 13993.33 26.991594 255 255 255
-451.18149 -748.27295 -2.437007 255 255 255
-399.88638 -415.19238 -2.1709037 255 255 255
-8099.876 -15023.709 -29.395372 255 255 255
-763.55945 -1169.9741 -3.6195502 255 255 255
-934.2995 -805.58813 -3.4760211 255 255 255
546.50702 675.11584 1.708105 255 255 255
787.56403 1606.6934 2.4682786 255 255 255
280.20227 363.30255 0.84881896 255 255 255
650.56464 1114.0955 2.0688601 255 255 255
-446.3656 -545.12256 -1.9595438 255 255 255
2593.9265 1744.918 4.5201478 255 255 255
6134.7754 3917.6489 7.3703723 255 255 255
-8362.4092 -4318.2188 -9.9889517 255 255 255
2401.8359 2111.126 4.1276412 255 255 255
807.23749 1382.2614 2.3553505 255 255 255
1114.1738 1878.2623 2.8260286 255 255 255
92.956879 191.86531 0.54874384 255 255 255
16264.508 3832.9177 19.852295 255 255 255
116.21329 775.28967 1.3249419 255 255 255
-1091.7966 -1574.1173 -5.7907805 255 255 255
-625.46326 -627.54694 -1.8041323 255 255 255
-31589.301 -10698.246 -35.896389 255 255 255
5233.7607 1825.2478 8.6180573 255 255 255
-1205.6934 -892.50262 -3.3081446 255 255 255
403.64374 626.71667 1.4802499 255 255 255
574.46051 1135.1973 1.8605138 255 255 255
-389.43756 -573.55164 -2.4365573 255 255 255
-70.273407 -128.17361 -1.4569849 255 255 255
151.14122 179.37073 0.6693182 255 255 255
924.55206 1095.5812 2.362391 255 255 255
458.85593 439.8407 1.4746046 255 255 255
-597.00195 -1089.777 -2.1021173 255 255 255
-107.08698 -286.36209 -1.7264594 255 255 255
-1797.5576 -2878.949 -4.8407774 255 255 255
-2662.0115 -5637.3965 -9.9177723 255 255 255
-277.31061 -1615.0688 -4.0256181 255 255 255
2123.7102 5605.8003 8.2936611 255 255 255
1927.9617 1122.571 2.187362 255 255 255
-1378.3629 -1118.6211 -2.7232447 255 255 255
1102.0476 1673.9685 2.7308426 255 255 255
701.77295 1190.6348 2.1629875 255 255 255
32261.746 9019.5303 34.259621 255 255 255
755.98865 1347.3143 2.2890916 255 255 255
38.125992 427.71021 1.082745 255 255 255
2493.8079 1876.0399 4.3199072 255 255 255
1253.246 2598.2659 4.3982244 255 255 255
-936.67761 -1306.8561 -3.4050145 255 255 255
94.579201 1111.4784 1.7582858 255 255 255
3237.1082 2670.4324 4.9059253 255 255 255
468.55997 257.32614 0.5332998 255 255 255
392.98672 724.42529 1.5453355 255 255 255
-2015.8328 -1110.8308 -3.5563159 255 255 255
1921.1001 2031.8256 2.6039667 255 255 255
-3233.1877 -1701.6243 -4.7626772 255 255 255
6394.4468 3872.9492 7.6281509 255 255 255
5719.6782 1878.3344 9.3118658 255 255 255
3288.3196 1351.4486 6.0881314 255 255 255
56.275028 194.61858 0.54950535 255 255 255
-5922.1274 -4384.9961 -11.469449 255 255 255
-23604.627 -25310.209 -42.619919 255 255 255
-1006.0903 -3986.6931 -6.3432255 255 255 255
345.68155 506.06638 1.3116332 255 255 255
3251.0381 1304.9618 6.1193013 255 255 255
5087.4883 2019.0106 7.9416418 255 255 255
712.86975 559.56696 0.90705425 255 255 255
803.1947 667.82452 1.0147394 255 255 255
111.36317 299.22028 0.77735138 255 255 255
47.32132 266.448 0.6747719 255 255 255
-27726.521 -8697.9307 -32.397423 255 255 255
-9935.4551 -6239.7832 -11.528584 255 255 255
-201.59067 -134.35664 -1.2811201 255 255 255
-1700.8564 -1870.3297 -4.5920196 255 255 255
660.79645 860.37268 1.9464127 255 255 255
-325.42511 -366.21341 -1.4557648 255 255 255
865.95148 1280.1161 2.3645964 255 255 255
524.27972 365.51196 0.61828059 255 255 255
6677.2676 4415.5664 10.184778 255 255 255
2415.917 2124.8022 4.1547456 255 255 255
13252.848 4467.4424 14.254569 255 255 255
641.45459 1093.7988 2.0525446 255 255 255
269.50989 518.90082 1.2233534 255 255 255
2888.5081 4741.606 8.5893898 255 255 255
9360.417 5266.6978 10.228907 255 255 255
310.03806 417.71365 1.191085 255 255 255
345.48618 293.0553 0.42135867 255 255 255
-2405.0193 -1180.6262 -3.4007306 255 255 255
489.93002 863.75562 1.7536409 255 255 255
380.36075 285.33395 0.46509382 255 255 255
455.55499 699.6756 1.5973146 255 255 255
433.38446 686.87225 1.5619601 255 255 255
4030.3154 2236.45 4.9846172 255 255 255
7748.46 2876.824 7.808248 255 255 255
537.03186 697.58026 1.3111484 255 255 255
1005.7995 1018.9117 2.034023 255 255 255
660.57507 1040.0634 2.037288 255 255 255
6207.7349 3767.8657 7.4972272 255 255 255
-1287.4741 -1156.678 -2.6150844 255 255 255
204.89095 201.28023 0.81523621 255 255 255
816.34692 1658.3864 2.5143707 255 255 255
1156.6602 1245.5388 1.6124738 255 255 255
464.71115 742.09314 1.6406789 255 255 255
-527.95709 -1202.7931 -2.8999248 255 255 255
380.68222 305.64307 0.7068125 255 255 255
706.30646 817.60559 0.99552113 255 255 255
-451.9559 -726.13129 -1.7144712 255 255 255
242.94408 224.43947 0.91981995 255 255 255
6980.1855 4694.5356 7.7833471 255 255 255
310.03067 503.61377 1.2600793 255 255 255
1356.6801 1001.0822 1.6617997 255 255 255
9671.7607 4137.5107 10.18657 255 255 255
3594.0029 3102.1594 8.625639 255 255 255
375.53088 561.01013 1.3954775 255 255 255
727.10315 990.17371 2.0862889 255 255 255
9690.6055 3572.9009 11.719467 255 255 255
-127.83781 -269.91464 -1.5143346 255 255 255
208.53709 285.03024 0.90022498 255 255 255
746.16705 1501.7158 2.37429 255 255 255
753.84436 1507.9856 2.3853693 255 255 255
905.82458 1326.9238 2.4208758 255 255 255
636.62488 788.8501 1.8863413 255 255 255
-6975.1631 -18321.852 -28.595867 255 255 255
1671.9663 1073.608 2.0971522 255 255 255
-13506.323 -5071.1411 -16.380161 255 255 255
144.53534 105.21627 0.17972267 255 255 255
-10962.396 -6287.6196 -13.838346 255 255 255
2954.9727 2116.5649 3.5019796 255 255 255
48812.086 28276.293 55.868053 255 255 255
1256.2084 664.86035 2.4323411 255 255 255
823.35614 1637.0746 2.5040777 255 255 255
-6379.3301 -1690.0594 -10.588587 255 255 255
