ply
format ascii 1.0
comment PCL generated
element vertex 1094
property float x
property float y
property float z
property uchar red
property uchar green
property uchar blue
element face 0
element camera 0
property float view_px
property float view_py
property float view_pz
property float x_axisx
property float x_axisy
property float x_axisz
property float y_axisx
property float y_axisy
property float y_axisz
property float z_axisx
property float z_axisy
property float z_axisz
property float focal
property float scalex
property float scaley
property float centerx
property float centery
property int viewportx
property int viewporty
property float k1
property float k2
end_header
5743.1997 121.19506 6.7408919 255 255 255
484.34036 343.07626 0.75481641 255 255 255
-5290.416 597.93909 -6.4363842 255 255 255
-5321.6206 579.97247 -6.505856 255 255 255
1839.5582 808.50909 2.6652243 255 255 255
-2617.3691 174.40382 -5.0265322 255 255 255
12576.668 2337.3809 10.584697 255 255 255
-3178.3074 -72.98819 -4.2768512 255 255 255
-44106.227 -248.00954 -36.421421 255 255 255
4431.0034 313.85834 6.6873741 255 255 255
12549.438 -2494.4014 17.452168 255 255 255
-4551.4243 290.93195 -6.7180009 255 255 255
11596.568 1266.3038 18.842726 255 255 255
7365.5762 2060.5332 6.1555185 255 255 255
-1283.9823 9.9462881 -2.085062 255 255 255
-2402.9294 366.03549 -4.0504289 255 255 255
-13127.429 -8931.623 -59.647305 255 255 255
1835.7946 -261.02106 2.3661551 255 255 255
12020.416 2582.1138 9.2010517 255 255 255
-6371.0684 24.255951 -10.128694 255 255 255
8632.3008 1671.8026 8.7082767 255 255 255
3551.7598 875.29578 4.5919461 255 255 255
7735.2236 906.7616 13.416336 255 255 255
-1844.8645 -249.22183 -3.0132339 255 255 255
3119.5742 1306.701 2.3202248 255 255 255
14895.85 2321.7878 13.343109 255 255 255
-5495.3809 14.49136 -9.4517126 255 255 255
5654.6768 -535.53082 7.5574489 255 255 255
-1402.2185 578.90845 -2.5361023 255 255 255
3768.0354 57.805779 4.8770456 255 255 255
-2589.5095 240.04794 -4.6985292 255 255 255
-42.164349 158.97861 -0.53436452 255 255 255
-2127.0972 -52.52494 -4.0562077 255 255 255
-6415.0928 -70.884781 -11.136814 255 255 255
3819.5347 1589.7365 3.4811854 255 255 255
-2798.1907 -490.43665 -4.8592958 255 255 255
-3197.6431 -1976.5548 -9.0383739 255 255 255
-28394.621 -2306.3572 -51.483284 255 255 255
-46.322849 123.1291 -0.74797153 255 255 255
-3365.2268 220.75259 -5.7367821 255 255 255
270.37308 99.874031 0.47786555 255 255 255
2953.5886 957.35596 3.4690993 255 255 255
4369.252 1413.5166 4.3007755 255 255 255
-3768.0256 95.989029 -6.9295406 255 255 255
3816.6775 1593.376 3.4755743 255 255 255
-10008.761 1239.1967 -13.899306 255 255 255
-2432.814 195.84236 -4.6782084 255 255 255
-13623.749 1829.5814 -18.921618 255 255 255
-1645.1705 187.27234 -3.5959702 255 255 255
-6505.6475 -801.64679 -11.783128 255 255 255
9628.6768 -430.3573 15.402432 255 255 255
-4598.2285 123.52245 -7.6684537 255 255 255
4196.6191 1303.7505 4.3178201 255 255 255
-5061.3813 -34.639633 -9.4879684 255 255 255
-136.21007 329.64682 -0.39495462 255 255 255
-3805.5696 430.70624 -5.4387712 255 255 255
-2486.8774 229.17442 -4.6097937 255 255 255
-158.06847 327.37961 -0.57459611 255 255 255
11215.267 2112.45 9.9811459 255 255 255
-4605.9341 126.07101 -7.6588531 255 255 255
-983.31604 -444.53305 -2.0298572 255 255 255
-32128.545 -1804.2114 -46.199596 255 255 255
-3161.4412 125.0086 -6.0031304 255 255 255
3466.3821 -423.78577 4.5387416 255 255 255
-5970.1641 1141.8887 -8.8235979 255 255 255
4609.792 563.91962 9.0278435 255 255 255
16071.317 2330.6372 14.862823 255 255 255
419.80338 196.27666 0.72707832 255 255 255
-47374.281 -6137.9219 -77.048737 255 255 255
-5783.1445 105.46629 -9.5961514 255 255 255
-18.472198 29.648434 -0.95870763 255 255 255
-136.70438 384.13287 -0.45088601 255 255 255
-25383.219 -3843.9534 -21.735418 255 255 255
2041.2699 238.07082 2.1976123 255 255 255
-4666.9004 -972.07697 -5.8031373 255 255 255
-534.70636 -344.0885 -2.0450485 255 255 255
-364.24789 -159.55974 -1.4354705 255 255 255
-429.69461 -248.53305 -1.4423897 255 255 255
5127.4072 599.97705 10.094877 255 255 255
-2447.6499 224.36243 -4.5734425 255 255 255
-16481.346 182.8486 -13.109262 255 255 255
770.25391 561.85016 1.3638288 255 255 255
-2131.9041 87.847885 -3.6449053 255 255 255
-13582.042 -577.85956 -22.406979 255 255 255
1235.5071 498.45038 1.7937875 255 255 255
943.99567 222.6113 0.98040688 255 255 255
876.59106 406.4321 1.3295443 255 255 255
410.59201 224.5222 0.6926195 255 255 255
-914.9729 -9.0695963 -1.7860893 255 255 255
7360.1763 2063.8928 6.1427078 255 255 255
-1291.9156 -264.11066 -2.8061368 255 255 255
-1642.8046 -265.8606 -2.6339076 255 255 255
17506.748 2853.478 13.322441 255 255 255
-1307.3523 -250.22713 -2.5381751 255 255 255
-75743.289 18231.322 -120.18972 255 255 255
31542.42 -3024.405 47.358154 255 255 255
-5275.1265 578.20734 -6.4725199 255 255 255
11839.649 1073.3167 23.996292 255 255 255
-3961.7935 122.08547 -6.981554 255 255 255
-20.364716 36.582775 -0.93416727 255 255 255
9542.3281 2134.9463 8.1124334 255 255 255
3865.8755 -41.392914 5.4242034 255 255 255
387.42715 275.00836 0.63254291 255 255 255
-1824.0988 256.73535 -3.6176913 255 255 255
176.66618 111.63871 0.31340179 255 255 255
203.78949 129.69154 0.35997701 255 255 255
-2196.9524 167.15599 -4.4847436 255 255 255
424.59286 259.30237 0.69815248 255 255 255
-61593.137 3350.7961 -74.697662 255 255 255
419.3746 257.30194 0.69016618 255 255 255
-8914.8037 -6140.9805 -12.338204 255 255 255
17133.18 2491.0005 15.146234 255 255 255
5530.6533 781.15527 9.1311846 255 255 255
535.01044 316.29764 0.84667081 255 255 255
6775.6567 540.96545 9.9493237 255 255 255
-353504.56 -2646.3035 -424.96637 255 255 255
-474.29941 -198.03828 -2.0233121 255 255 255
4308.9233 -1065.5939 5.4182892 255 255 255
1495.3116 609.89301 2.0268703 255 255 255
-5674.8994 -83.693642 -10.644011 255 255 255
-2734.1206 -446.55042 -4.7732882 255 255 255
-7264.7393 1021.5314 -10.051119 255 255 255
2353.6714 291.35382 3.8586886 255 255 255
-2271.3896 220.84016 -4.3547945 255 255 255
-9296.5801 1978.2753 -12.216872 255 255 255
-759.01752 -925.71643 -2.8123393 255 255 255
-55400.227 -2153.1985 -95.943848 255 255 255
4239.334 1306.9281 4.3629637 255 255 255
156.92987 58.305317 0.26176232 255 255 255
-2981.0759 -189.78793 -5.4032202 255 255 255
-15751.538 -2481.6624 -33.651115 255 255 255
-6021.8413 45.825661 -9.6542635 255 255 255
1416.8501 411.43423 2.1192405 255 255 255
16902.18 2469.1289 14.948815 255 255 255
-10458.31 -215.71088 -15.544487 255 255 255
-8060.979 995.28619 -15.287951 255 255 255
12546.871 2520.3733 9.8675461 255 255 255
-4014.6663 526.88361 -7.0850916 255 255 255
1303.6805 14.242372 1.5314898 255 255 255
760.6568 376.74561 1.1862701 255 255 255
16786.789 2375.0513 15.46502 255 255 255
1536.3936 -128.70186 2.0076001 255 255 255
2020.3889 964.49646 3.6362441 255 255 255
12544.498 2517.5469 9.8972654 255 255 255
-1488.4448 317.37784 -3.0006781 255 255 255
3350.9209 188.52795 4.0582662 255 255 255
427.70956 272.78903 0.6964826 255 255 255
25760.691 2106.3779 51.091816 255 255 255
428.5979 161.28418 0.770208 255 255 255
3686.0776 -33.361702 5.2649531 255 255 255
-2464.9355 449.32916 -4.2503791 255 255 255
-192.94292 376.56116 -0.32741895 255 255 255
-47.711201 -28.903126 -1.0629395 255 255 255
2072.2673 779.85345 2.5902355 255 255 255
234.40294 335.53799 0.6064958 255 255 255
-4203.4497 469.21359 -8.2779484 255 255 255
393.19675 259.14294 0.64643055 255 255 255
-2316.3909 162.44434 -4.6806049 255 255 255
5175.373 -683.68311 6.7803016 255 255 255
-3079.4829 194.74663 -5.5122404 255 255 255
16062.521 11046.204 21.381315 255 255 255
-2829.3818 -114.01138 -3.6377907 255 255 255
174.01714 76.163185 0.27414769 255 255 255
1223.8708 120.42699 1.4836549 255 255 255
53480.414 4552.5029 73.788742 255 255 255
417.06906 199.40144 0.71977067 255 255 255
442.01056 295.3515 0.70946276 255 255 255
-1386.3865 -209.83287 -2.1576047 255 255 255
-140.10437 342.26306 -0.48980013 255 255 255
413.66049 239.94637 0.68915045 255 255 255
-2477.7495 223.05183 -4.6209764 255 255 255
12593.272 2508.7681 9.9553747 255 255 255
-530888.12 -34467.137 -569.86963 255 255 255
16419.82 2341.9448 15.242363 255 255 255
-500.33154 -333.83319 -1.5410612 255 255 255
-5338.2397 546.14587 -6.6100702 255 255 255
-1326.4152 284.39441 -2.8450148 255 255 255
-134.60776 -120.59133 -1.2042278 255 255 255
-3155.9348 8.928504 -5.2357287 255 255 255
423.40958 201.46147 0.73030066 255 255 255
-5053.4697 596.26385 -6.2206583 255 255 255
-5649.1108 13.090236 -9.5843945 255 255 255
-2666.2524 127.27913 -5.350637 255 255 255
-19.639492 37.518398 -0.9462443 255 255 255
-2696.1426 220.01265 -4.9178762 255 255 255
-201.75446 415.01028 -0.46342772 255 255 255
2255.9822 851.19855 2.7219994 255 255 255
1822.1853 788.4577 2.2287407 255 255 255
3557.9932 -244.40511 6.2201943 255 255 255
8077.6704 1500.6365 8.7799644 255 255 255
-2486.3835 198.93872 -3.9824524 255 255 255
-968.37152 -609.70978 -2.0087707 255 255 255
5949.6719 1406.0107 6.2220507 255 255 255
381.92203 221.74794 0.64372534 255 255 255
-57.926548 140.41185 -0.24748848 255 255 255
-2521.0537 116.59908 -5.208302 255 255 255
237.18555 124.23959 0.40694287 255 255 255
-541.45996 -294.03915 -1.5842932 255 255 255
864.88605 404.90341 1.3101439 255 255 255
3188.4329 410.03601 4.2653193 255 255 255
885.45532 -90.434669 0.75101262 255 255 255
-10454.889 -3186.918 -18.574167 255 255 255
-8591.0088 -4284.501 -12.802436 255 255 255
-6849.8662 13.520175 -10.615692 255 255 255
-11266.582 -409.95779 -18.74197 255 255 255
-11045.591 -444.05121 -19.470778 255 255 255
-386.142 -305.65555 -1.5606077 255 255 255
-11257.057 160.21756 -8.7030115 255 255 255
1491.501 646.64258 1.9654808 255 255 255
-9676.876 -317.64636 -16.613495 255 255 255
264.091 93.95179 0.46507215 255 255 255
-47.454987 -49.57449 -1.081951 255 255 255
-12436.511 -360.56241 -18.373983 255 255 255
-13796.421 -406.95566 -19.586224 255 255 255
-3210.6038 272.03394 -5.3311644 255 255 255
-13889.296 1500.7949 -20.645674 255 255 255
-239.86781 388.15607 -0.39179751 255 255 255
-371.91278 -261.65793 -1.4614445 255 255 255
-106.47556 277.29739 -0.45291981 255 255 255
2861.9172 941.20575 3.3770237 255 255 255
266.0524 100.28789 0.46960607 255 255 255
260.19659 94.729393 0.45806494 255 255 255
-8612.8252 -1484.7593 -10.997244 255 255 255
-13618.487 -629.54944 -23.779783 255 255 255
2027.1154 627.58203 2.8449204 255 255 255
-5607.7954 -92.17099 -10.660844 255 255 255
2096.3252 742.28345 2.6950512 255 255 255
-648.91833 -129.53781 -2.5099893 255 255 255
-5714.5181 70.164299 -9.1584349 255 255 255
-139.38963 476.93082 -0.4339692 255 255 255
3381.3706 1007.5654 3.9405735 255 255 255
25590.01 2184.3616 47.230919 255 255 255
628.98987 137.84698 0.4838365 255 255 255
-2424.9185 316.45291 -3.7333062 255 255 255
1330.3517 439.51288 2.0713022 255 255 255
-3772.302 -107.58797 -6.5622425 255 255 255
10261.981 1443.7373 12.922557 255 255 255
-802.33868 -431.50687 -1.8025202 255 255 255
391.50507 524.95856 1.0546651 255 255 255
262.43085 96.464394 0.46250093 255 255 255
-1160.0546 -176.47021 -1.9719563 255 255 255
1131.0183 239.50415 2.2056847 255 255 255
-4025.3608 60.434925 -7.4966249 255 255 255
261.45981 98.087135 0.46093532 255 255 255
-455.802 -100.80603 -1.9156892 255 255 255
-98.945816 429.43564 -0.36086285 255 255 255
1213.4722 489.349 1.7736356 255 255 255
-2560.0427 -3296.5684 -6.3715806 255 255 255
-1728.9601 76.225594 -3.2782555 255 255 255
11641.074 447.89108 15.816164 255 255 255
3976.5547 -849.95953 5.7756677 255 255 255
-5855.2139 -19.413651 -10.075129 255 255 255
1252.0383 415.79144 1.9812465 255 255 255
-5245.2314 578.37933 -6.4407463 255 255 255
-6043.3179 -20.792887 -10.253616 255 255 255
-3448.8367 38.262302 -7.0303431 255 255 255
-76395.484 -3968.5571 -80.954369 255 255 255
-1432.2334 571.66296 -2.5757632 255 255 255
-10333.684 87.499619 -12.857849 255 255 255
10798.341 -599.30658 15.645836 255 255 255
-9370.96 -183.01283 -14.471491 255 255 255
167.6407 169.47411 0.31175491 255 255 255
3391.7529 -102.54652 4.3486214 255 255 255
-4456.4956 -293.28439 -9.0327454 255 255 255
529.24841 267.01712 0.87395209 255 255 255
222.58672 142.15356 0.39151344 255 255 255
-146.73784 227.74902 -0.22728501 255 255 255
-4198.7153 314.61154 -6.2477937 255 255 255
-387.35577 -258.25211 -1.5177206 255 255 255
751.32471 255.92227 1.3172246 255 255 255
3338.5166 -56.319309 4.4257855 255 255 255
-3809.9167 -68.232368 -6.8994961 255 255 255
-2474.7893 233.98767 -4.571455 255 255 255
-29.021841 24.899471 -0.96254528 255 255 255
74672.789 5514.0894 60.553242 255 255 255
-191.26147 -138.38672 -1.2101605 255 255 255
-4067.6243 307.00388 -7.7229543 255 255 255
-15901.527 -2024.0516 -15.58607 255 255 255
-36.781918 -12.114285 -1.0260072 255 255 255
3450.9409 682.21533 5.2579312 255 255 255
1219.4258 452.10828 1.8471501 255 255 255
1225.9891 496.56421 1.7857677 255 255 255
303.73627 132.84 0.5382089 255 255 255
16270.051 2329.5078 15.05897 255 255 255
3746.4805 309.36667 5.3197961 255 255 255
-166.2271 368.23816 -0.40468708 255 255 255
-2741.6489 119.89555 -5.5042911 255 255 255
-9087.2949 -105.60733 -13.469306 255 255 255
-135.04471 304.56088 -0.51078498 255 255 255
5977.646 1411.8817 6.2441134 255 255 255
1279.5386 -195.07782 1.2767438 255 255 255
-4163.7358 220.21187 -6.6373291 255 255 255
-1866.52 216.98648 -3.3063405 255 255 255
15487.111 2285.8198 14.344937 255 255 255
-94711.969 -5950.79 -116.63152 255 255 255
-251.40331 446.08148 -0.44202569 255 255 255
1145.636 242.06218 2.2319026 255 255 255
-12562.687 -515.94806 -20.935389 255 255 255
-2946.6936 406.47852 -4.5728664 255 255 255
790.28418 274.59961 2.0374005 255 255 255
367.59952 209.19994 0.62463814 255 255 255
-137.02954 393.74136 -0.3725436 255 255 255
-94.292274 -137.46884 -1.2226954 255 255 255
847.6665 113.87225 0.90730178 255 255 255
-15043.822 -739.99591 -26.218067 255 255 255
-280.7197 481.75748 -0.36032912 255 255 255
6764.2246 1767.3616 6.164535 255 255 255
-21402.805 -1213.4758 -37.227577 255 255 255
-2890.3276 -506.16855 -4.9939175 255 255 255
-39.374382 175.36554 -0.25258189 255 255 255
-5487.8672 -1463.0383 -11.800285 255 255 255
-3457.825 -815.07574 -6.6093974 255 255 255
-1429.1033 576.14258 -2.5676568 255 255 255
-2881.8428 123.70485 -5.6633 255 255 255
1211.9468 478.0629 1.7904745 255 255 255
5390.3647 8403.7656 13.502285 255 255 255
-2228.3472 -85.292725 -3.7634969 255 255 255
-26483.357 4748.021 -37.875721 255 255 255
15129.96 2076.3633 15.61883 255 255 255
10342.448 2296.2664 8.4539976 255 255 255
-2063.2241 446.61377 -3.4626632 255 255 255
9356.9082 1377.3997 11.791781 255 255 255
-37474.629 -407.40799 -63.947197 255 255 255
-12090.4 -532.77087 -21.478434 255 255 255
-8733.0703 -217.13924 -14.570939 255 255 255
-2147.4834 84.034508 -4.8739176 255 255 255
2112.4031 286.92929 4.4868817 255 255 255
-9018.5332 -2229.4495 -15.070247 255 255 255
2066.6248 -29.720915 2.9793878 255 255 255
24109.285 2853.5613 21.776012 255 255 255
-321.84753 -73.365387 -1.3083394 255 255 255
-502.49564 -92.981552 -1.4168851 255 255 255
-278.08279 452.93793 -0.37957576 255 255 255
-456.64911 -375.27051 -1.8501086 255 255 255
4927.1147 -389.3121 5.6366043 255 255 255
-1523.0739 302.17947 -3.0811474 255 255 255
9973.7891 2358.2449 7.9278646 255 255 255
15778.484 2771.0652 12.018341 255 255 255
-11402.396 -16132.884 -28.722713 255 255 255
4349.6245 -38.327583 5.6406441 255 255 255
-452.12103 -259.99139 -1.5547576 255 255 255
-13499.971 -634.77081 -23.742378 255 255 255
3055.1626 1001.5712 3.5142481 255 255 255
-5395.6777 604.43762 -7.710516 255 255 255
-2985.3708 255.01581 -5.1335654 255 255 255
-17737.855 1867.288 -31.566521 255 255 255
-7890.8682 -237.50038 -14.457858 255 255 255
-6457.1294 -143.78587 -12.09551 255 255 255
9571.0137 1397.6359 12.025829 255 255 255
11270.907 -2200.8076 14.03512 255 255 255
2749.8333 276.84436 4.6283374 255 255 255
-174.26814 479.02573 -0.37444335 255 255 255
-1842.2758 -1108.144 -2.9549193 255 255 255
-1854.7661 94.517639 -3.4117773 255 255 255
-4671.8354 -5.299881 -8.805769 255 255 255
1332.8236 438.73105 2.0777373 255 255 255
3677.8042 1095.5319 4.1323557 255 255 255
-3305.7322 -4.6486416 -7.2627587 255 255 255
-3033.6567 330.20221 -4.9101701 255 255 255
181.07687 118.45529 0.32165769 255 255 255
210.88284 117.71906 0.37145287 255 255 255
15729.177 -542.96692 22.543819 255 255 255
-322.72913 -75.015022 -1.3096071 255 255 255
-13854.697 -658.70917 -24.381851 255 255 255
2861.6221 -1.5941899 3.3675771 255 255 255
127.66575 77.943069 0.22530924 255 255 255
-107155 -7557.2095 -187.06021 255 255 255
-2506.3193 -48.49649 -5.0906796 255 255 255
-2229.8699 131.82208 -4.3210931 255 255 255
-1313.2438 -655.80811 -2.4059801 255 255 255
-185.80978 -218.57812 -1.3783046 255 255 255
236.74551 183.74905 0.46353272 255 255 255
-5680.3501 1297.0768 -7.7007442 255 255 255
-2338.5769 188.83264 -4.7553101 255 255 255
-6356.8574 -160.49937 -12.288846 255 255 255
3395.1826 505.95099 4.192852 255 255 255
537.88379 398.41629 0.81135041 255 255 255
9486.1211 343.99466 13.271944 255 255 255
-9669.915 -872.68011 -17.418081 255 255 255
-47988.262 -3192.4604 -84.730286 255 255 255
12480.758 -1003.2307 19.169271 255 255 255
695.61377 376.98105 1.0613265 255 255 255
-2920.8308 177.98351 -5.4047294 255 255 255
2866.7559 859.0946 3.5741079 255 255 255
-45.915657 210.19516 -0.24787584 255 255 255
-45.347485 -38.472233 -1.0643936 255 255 255
-128.47804 242.78918 -0.33786789 255 255 255
44398.09 3892.6709 59.322906 255 255 255
-2125.9871 242.73633 -4.0772233 255 255 255
416.25211 264.2449 0.68182456 255 255 255
-69.21479 364.28928 -0.27556062 255 255 255
-9860.2178 904.86023 -19.494637 255 255 255
-4463.0752 -596.74707 -6.0281024 255 255 255
8921.7119 -1466.5811 11.317392 255 255 255
-9863.4111 -358.43237 -17.47788 255 255 255
267.2655 97.64341 0.47171822 255 255 255
479.68109 341.84299 0.74847752 255 255 255
-6088.6187 -20.751471 -10.323371 255 255 255
-3810.1113 -155.94597 -6.7987962 255 255 255
2141.5603 290.80429 4.5434666 255 255 255
-358.93246 -322.68311 -1.5489101 255 255 255
234.67836 198.32693 0.41120988 255 255 255
3241.5312 1716.6389 6.1373715 255 255 255
-430.49655 -251.11568 -1.4456414 255 255 255
-43675.211 -241.58546 -36.130043 255 255 255
-2229.7471 253.25096 -4.1724572 255 255 255
-43827.82 -238.82286 -36.194885 255 255 255
-3250.3518 60.181568 -4.2409291 255 255 255
1753.1078 71.620552 2.1329744 255 255 255
-3287.3916 -4.0733314 -7.2260251 255 255 255
417.09351 211.35364 0.71186537 255 255 255
-1821.74 394.61145 -3.2734218 255 255 255
13626.225 2494.5776 11.043553 255 255 255
866.14392 405.41589 1.3124584 255 255 255
-155.40396 444.31052 -0.41257417 255 255 255
-9426.9258 -184.00833 -14.55566 255 255 255
11890.118 2695.2625 23.30785 255 255 255
1609.4575 401.83521 2.7254636 255 255 255
14398.832 2700.8896 10.967585 255 255 255
412.42136 209.8213 0.70430237 255 255 255
16820.301 2460.137 14.871968 255 255 255
194.79794 107.38593 0.34294719 255 255 255
3964.9792 835.3288 7.1514812 255 255 255
2167.7231 399.62854 3.5858581 255 255 255
5130.1826 599.27319 10.100945 255 255 255
-3173.9976 547.03754 -4.4863973 255 255 255
-9058.5225 1608.8993 -12.742087 255 255 255
417.45203 199.5777 0.72068739 255 255 255
3820.4375 1593.432 3.4782143 255 255 255
12071.108 1091.6066 24.478096 255 255 255
-2937.814 315.33893 -4.8431954 255 255 255
367.10535 208.32074 0.62356359 255 255 255
13660.393 2496.2378 11.086864 255 255 255
-6010.3452 45.292019 -9.6359138 255 255 255
264.42654 94.131271 0.46556604 255 255 255
1987.0367 678.33105 2.6611402 255 255 255
380.64264 197.55502 0.65411192 255 255 255
-1608.6106 323.78326 -3.1475933 255 255 255
-1829.1691 257.19229 -3.6258211 255 255 255
2800.2952 853.36737 3.4915416 255 255 255
-426.25647 61.582943 -1.3364038 255 255 255
-11843.967 -301.31845 -17.324499 255 255 255
1146.0717 242.15239 2.2332115 255 255 255
-2404.0322 366.21414 -4.051281 255 255 255
-3471.7292 -214.68062 -6.3002443 255 255 255
-54.729355 -54.698112 -1.099279 255 255 255
-1665.0515 454.92136 -2.9782405 255 255 255
984.52472 612.5033 1.2997468 255 255 255
-19489.328 -51.35815 -15.355853 255 255 255
423.27603 201.54813 0.73021996 255 255 255
-394.18591 -22.092945 -1.7107199 255 255 255
9494.7461 1382.9026 11.92813 255 255 255
-5233.4854 590.4411 -6.4060998 255 255 255
-115.44017 260.48331 -0.42981896 255 255 255
-110.82917 325.2619 -0.46058777 255 255 255
-3920.9858 249.94104 -6.2322922 255 255 255
-240.35315 -331.56729 -1.6537143 255 255 255
-18.274574 30.908375 -0.9603588 255 255 255
-46.825924 -4.111249 -1.0340326 255 255 255
-156.97997 326.61533 -0.47219852 255 255 255
974.44861 871.96753 2.1710439 255 255 255
537.65576 398.40399 0.81105548 255 255 255
382.24203 221.68369 0.64431524 255 255 255
-1403.5122 579.1842 -2.5375316 255 255 255
3478.1606 1347.933 2.5875394 255 255 255
533.90576 398.02631 0.80654287 255 255 255
-3625.5317 193.09439 -6.2404771 255 255 255
850.58069 544.81714 0.79622674 255 255 255
-2997.2056 -1061.0242 -3.6558454 255 255 255
-50.784187 200.64836 -0.17236784 255 255 255
-2157.0168 -2242.7217 -4.9517503 255 255 255
-6257.2627 77.679626 -9.615736 255 255 255
10410.983 1464.2869 13.061858 255 255 255
204.96484 245.82959 0.48887283 255 255 255
-22128.453 771.82684 -18.611534 255 255 255
268.3638 96.012711 0.47350594 255 255 255
-5732.5239 71.999283 -9.1857357 255 255 255
236.35985 124.37085 0.41584584 255 255 255
-14774.665 -723.23932 -26.073227 255 255 255
-2973.4758 253.56627 -5.1158814 255 255 255
-1585.5127 11.636478 -2.8369098 255 255 255
-9692.1006 -316.47186 -16.641054 255 255 255
418.94296 196.1118 0.72565633 255 255 255
4186.938 1299.562 4.3072162 255 255 255
64185.492 4794.9961 130.83551 255 255 255
-3091.825 195.26733 -5.53022 255 255 255
-4482.9858 56.548641 -8.0398207 255 255 255
1333.4662 438.94388 2.0783119 255 255 255
624.70129 156.48502 1.2003806 255 255 255
17047.482 2480.7388 15.070827 255 255 255
-2240.5916 -1056.554 -4.4892683 255 255 255
1410.4017 380.35779 2.3884108 255 255 255
8076.2051 1549.64 6.2842679 255 255 255
-1930.4902 233.07381 -3.8457565 255 255 255
-1423.2617 227.63942 -3.1277933 255 255 255
-172.06247 395.62698 -0.48165813 255 255 255
-1697.2046 665.30164 -2.7723141 255 255 255
2152.6499 554.95544 3.2876003 255 255 255
-9874.5625 -449.75272 -17.537811 255 255 255
-3937.8604 328.02594 -5.9224429 255 255 255
-2531.6084 117.10223 -5.2286444 255 255 255
-12148.896 -532.07654 -21.478853 255 255 255
-1193.8475 -720.70813 -2.3184774 255 255 255
4603.1963 1026.5775 5.6881695 255 255 255
-5100.8008 -782.56293 -9.6438293 255 255 255
-14240.07 -677.60809 -24.910336 255 255 255
187.70863 112.65831 0.33182397 255 255 255
-8102.1338 -247.1452 -14.8194 255 255 255
236.6624 130.42043 0.41602093 255 255 255
9529.8594 2128.1267 8.1122494 255 255 255
3632.0769 561.6405 6.4144173 255 255 255
208.25369 126.32151 0.36729527 255 255 255
-1542.7565 -786.71539 -2.6703365 255 255 255
-48.084049 134.38396 -0.80530429 255 255 255
-58.543594 411.73877 -0.44113573 255 255 255
12598.985 2509.1841 9.9594221 255 255 255
1915.1234 -206.26382 2.25038 255 255 255
1308.469 657.85321 1.0895658 255 255 255
2975.3647 -364.83673 4.1230993 255 255 255
10953.777 2078.7048 9.7487469 255 255 255
-1027.83 -640.13568 -2.0668604 255 255 255
-460597.53 -28979.961 -478.26764 255 255 255
8699.4395 1679.2712 8.7823095 255 255 255
1221.3685 452.55716 1.8500305 255 255 255
115.23335 347.89804 -0.16111907 255 255 255
-1913.02 -41.99596 -3.4954419 255 255 255
-257544.03 20007.939 -214.2388 255 255 255
-136.752 430.08853 -0.39955914 255 255 255
-2834.2458 -83.986603 -5.6772962 255 255 255
1292.7333 521.16321 1.8500595 255 255 255
-1431.7091 571.99908 -2.57511 255 255 255
6003.7183 1918.287 5.1134648 255 255 255
-262.43713 -400.5416 -1.6541808 255 255 255
-10514.947 759.2533 -10.39864 255 255 255
16794.439 2380.7947 15.473785 255 255 255
-3443.7273 346.37155 -5.3211355 255 255 255
-3306.916 140.64261 -5.3228102 255 255 255
163.53271 98.564888 0.28924179 255 255 255
-152.70518 470.38184 -0.41790122 255 255 255
-146.50703 387.70673 -0.36155993 255 255 255
17257.811 2487.1807 15.258989 255 255 255
3768.0911 672.08093 5.5717254 255 255 255
5043.0161 -1098.7839 6.3362184 255 255 255
-14096.617 -665.23718 -24.804081 255 255 255
-13703.484 -635.24426 -24.080072 255 255 255
-1268.0103 85.190514 -2.7185631 255 255 255
-3071.4526 128.93353 -5.8709764 255 255 255
-170.17242 297.41382 -0.52148253 255 255 255
-172.59468 455.84494 -0.40509182 255 255 255
12679.275 2325.1082 10.722494 255 255 255
12116.132 2574.2019 9.2758055 255 255 255
-478.24921 -532.20477 -1.9643823 255 255 255
74.600456 105.08877 0.22048949 255 255 255
1467.8785 -58.372131 1.6057178 255 255 255
209.99536 154.42436 0.50229043 255 255 255
-2876.5227 437.38272 -4.4147086 255 255 255
-2881.613 123.45781 -5.6621008 255 255 255
-2155.8428 122.97553 -4.6474929 255 255 255
176603.03 13442.4 298.49991 255 255 255
15939.128 10959.156 21.210199 255 255 255
-2145.0535 84.823257 -4.8683186 255 255 255
16033.68 2324.7964 14.827014 255 255 255
-66301.609 6841.4766 -56.147045 255 255 255
-168.03369 452.53326 -0.40107206 255 255 255
11490.466 -224.04478 13.309928 255 255 255
13337.557 899.92767 22.310474 255 255 255
23619.344 2641.3477 24.55205 255 255 255
13525.286 946.70447 22.574718 255 255 255
-126.78888 484.40735 -0.38528463 255 255 255
-4740.8633 -597.91321 -6.3126063 255 255 255
10567.261 1450.3593 13.346668 255 255 255
-2698.2412 220.59229 -4.9211502 255 255 255
541.84271 317.3504 0.8572672 255 255 255
2214.8757 486.56924 2.7425489 255 255 255
-2608.1724 195.85139 -5.0202913 255 255 255
-120.90539 333.11041 -0.54527617 255 255 255
1308.4177 43.507698 1.4321433 255 255 255
3019.1033 498.3526 3.3246851 255 255 255
12704.855 2541.2874 9.9647236 255 255 255
1236.219 498.49454 1.7945338 255 255 255
-21824.928 2692.0471 -18.524086 255 255 255
12546.538 2523.6653 9.8648634 255 255 255
-14309.673 -617.4176 -23.132233 255 255 255
-573.0567 -768.36377 -2.2572439 255 255 255
420.19135 257.90414 0.69140947 255 255 255
9751.2168 1399.4755 12.319937 255 255 255
-678.0437 -774.17102 -2.5994973 255 255 255
-2744.6335 120.25739 -5.5103898 255 255 255
535.28101 316.45093 0.84670103 255 255 255
-1999.42 300.00439 -3.6192186 255 255 255
-15753.128 -810.21948 -28.036057 255 255 255
-3958.3784 122.24828 -6.9760303 255 255 255
2011.6934 677.36688 2.7002616 255 255 255
-3354.7659 -400.86911 -5.5991635 255 255 255
16318.824 2333.2419 15.139327 255 255 255
-4194.5112 440.77396 -5.8133225 255 255 255
3375.1104 1006.0089 3.934592 255 255 255
-1648.167 258.85129 -3.3665361 255 255 255
180.91174 118.36611 0.32140693 255 255 255
-1427.9341 575.27765 -2.5663927 255 255 255
157.94702 104.28722 0.28172526 255 255 255
16875.482 2371.584 15.650962 255 255 255
-5151.2168 601.4126 -6.2981377 255 255 255
-83.219154 -105.83216 -1.1768817 255 255 255
-2436.7432 196.07458 -4.6849546 255 255 255
15571.062 2302.1775 14.360989 255 255 255
-9826.7793 -13927.783 -24.578712 255 255 255
-31936.314 -1791.2786 -45.9133 255 255 255
-343.87445 90.192627 -1.3734542 255 255 255
-185.36072 288.30035 -0.59534681 255 255 255
306.67297 71.933266 0.25890344 255 255 255
2853.647 904.55432 3.4451778 255 255 255
432.73425 274.63962 0.70412898 255 255 255
15473.354 5332.9326 19.582355 255 255 255
-5348.7808 547.79919 -6.6221576 255 255 255
42581.523 2427.5935 56.137123 255 255 255
-2063.9856 -835.66241 -3.1303186 255 255 255
21332.803 2220.0496 27.745462 255 255 255
2349.3777 -479.14566 3.0854642 255 255 255
-1534.1165 140.38669 -3.6010013 255 255 255
4697.7456 -1000.1412 6.973865 255 255 255
12686.869 -1018.6295 19.494057 255 255 255
11027.884 2096.6326 9.8216953 255 255 255
3917.594 1385.6674 3.842361 255 255 255
-8787.3301 -1589.0923 -8.5079412 255 255 255
-2456.6475 405.44449 -4.0165262 255 255 255
174.22638 76.365868 0.27456522 255 255 255
-3996.0603 309.1153 -7.3245535 255 255 255
10313.387 1460.4487 12.903244 255 255 255
446.87357 297.0556 0.71657711 255 255 255
-1508.124 -99.542503 -2.566159 255 255 255
21165.365 2246.7302 27.409767 255 255 255
2813.4949 -239.08636 3.7939243 255 255 255
10420.628 1445.8422 13.224554 255 255 255
-2778.717 566.78033 -4.0351424 255 255 255
-2044.6135 508.51569 -3.3344932 255 255 255
5517.0811 626.41681 10.897479 255 255 255
441.62296 294.89447 0.70879561 255 255 255
-1893.8481 225.54628 -3.8192627 255 255 255
-2113.853 161.53932 -4.3959613 255 255 255
16096.41 1001.6954 25.59449 255 255 255
-18244.873 -786.21515 -16.757872 255 255 255
15552.256 2290.5847 14.380453 255 255 255
-41.725136 -1.0106844 -1.0512056 255 255 255
214.03333 150.25409 0.50081587 255 255 255
-370.77972 -275.23459 -1.4654152 255 255 255
-542.12024 -786.83624 -2.3643594 255 255 255
-105.85123 432.94861 -0.35673183 255 255 255
-498.3476 -92.348465 -1.4140775 255 255 255
5019.0312 -946.91351 8.5355711 255 255 255
-2807.2344 -490.83963 -4.8710928 255 255 255
-2163.0366 114.87285 -4.7075167 255 255 255
-11195.468 -460.95673 -19.799288 255 255 255
-1536.6768 -120.48299 -2.6860263 255 255 255
-419.26215 -107.99933 -1.7275423 255 255 255
261.30261 97.914383 0.46056211 255 255 255
-5155.1074 -850.40552 -8.5116453 255 255 255
-48.239342 -10.884848 -1.045085 255 255 255
1208.538 468.7453 1.7989359 255 255 255
-4817.1396 113.60416 -7.9775743 255 255 255
-62418.965 -3944.1172 -86.034096 255 255 255
-45.75251 202.84799 -0.15425807 255 255 255
-1034.8802 -638.68982 -2.0904474 255 255 255
-159.44893 429.19858 -0.3963452 255 255 255
2097.5046 742.80908 2.6968877 255 255 255
1818.8705 782.05963 2.2359805 255 255 255
-1346.6846 22.923645 -2.7913694 255 255 255
266.17325 100.21155 0.4697735 255 255 255
874.88818 176.57184 0.86626512 255 255 255
6455.4414 657.33624 8.2756634 255 255 255
-2194.8464 257.15573 -4.1180358 255 255 255
463.68451 318.94522 0.7332269 255 255 255
4521.8315 1717.5684 4.0001373 255 255 255
-569.60736 -75.16655 -2.2442427 255 255 255
459.83945 318.39722 0.7280699 255 255 255
-11277.546 -312.57291 -17.230913 255 255 255
-4984.0786 -1359.328 -8.9487896 255 255 255
-3110.51 -5580.7085 -9.7061663 255 255 255
404.61456 289.92685 0.65398747 255 255 255
-132.13844 -81.789642 -1.3370332 255 255 255
688.48419 293.21661 1.1378859 255 255 255
3015.4358 -236.06564 4.6548476 255 255 255
-1414.3082 -1310.1707 -3.2688613 255 255 255
-121.94443 291.41983 -0.53222156 255 255 255
-4110.1973 456.7395 -7.687551 255 255 255
-159.26489 405.5463 -0.46336997 255 255 255
260.65723 94.973816 0.45899057 255 255 255
-116402.8 -11981.442 -238.95349 255 255 255
3299.3496 1009.3884 3.8212159 255 255 255
10332.603 2286.7844 8.4555445 255 255 255
-314.40286 478.53735 -0.35672355 255 255 255
-2302.783 163.39462 -4.6541376 255 255 255
663.07343 64.673538 0.53423297 255 255 255
-332.83231 -126.14018 -1.3061419 255 255 255
1486.6493 652.33716 1.9511682 255 255 255
-286.48642 414.39093 -0.32016286 255 255 255
-2265.2678 221.33318 -4.3459854 255 255 255
-2681.8728 -3703.5735 -6.882978 255 255 255
26402.008 3014.3813 23.390072 255 255 255
13271.343 2644.0566 10.125154 255 255 255
270.02847 99.592484 0.47702551 255 255 255
-287.7674 -134.51782 -1.4151328 255 255 255
16860.062 2376.47 15.583065 255 255 255
2117.563 287.81479 4.4960608 255 255 255
15771.57 2773.6104 11.999014 255 255 255
484.0347 343.07663 0.75466961 255 255 255
-6442.2388 16.739803 -10.260337 255 255 255
1990.3094 -12.065491 2.3182442 255 255 255
-34783.332 -516.48718 -32.230827 255 255 255
3010.9338 932.09015 3.6033559 255 255 255
-42193.176 -2777.7463 -79.039276 255 255 255
11860.81 -1370.4819 14.80065 255 255 255
201.92873 122.80742 0.35664213 255 255 255
-80960.812 -18889.791 -96.332382 255 255 255
-33802.465 -1646.4774 -42.279381 255 255 255
-5657.1084 14.923344 -9.5989475 255 255 255
-2414.842 177.88821 -4.733696 255 255 255
-1545.1178 -790.8324 -2.6741333 255 255 255
2974.0979 848.27155 3.7610121 255 255 255
5616.4634 1635.354 5.2222309 255 255 255
198.32655 160.38416 0.38965386 255 255 255
18661.18 2336.5305 27.736814 255 255 255
-2836.7854 581.93329 -4.583755 255 255 255
1898.5437 -245.58305 2.3007607 255 255 255
-80.59938 376.30267 -0.50491422 255 255 255
-4619.8662 -4.1627564 -8.7832966 255 255 255
-3729.7231 -2489.5955 -6.6915736 255 255 255
5195.0381 667.71545 9.4594402 255 255 255
-17.381561 32.009926 -0.93854922 255 255 255
11086.351 -1658.504 18.32391 255 255 255
7836.9644 -1449.1746 11.089831 255 255 255
200.83388 151.83742 0.35691336 255 255 255
223.422 141.31873 0.39299813 255 255 255
-2827.2432 274.94846 -4.8572226 255 255 255
-2165.8171 -180.71692 -3.867666 255 255 255
-165.74301 369.8472 -0.53451794 255 255 255
-18702.336 1186.6139 -36.33131 255 255 255
2040.9845 166.5045 2.3571193 255 255 255
-307.6528 -367.29846 -1.7258319 255 255 255
-205.86458 -319.09875 -1.6127065 255 255 255
11684.039 1539.2062 14.85418 255 255 255
882.05212 1030.4399 1.7791622 255 255 255
-174.97327 -94.988342 -1.180715 255 255 255
393.23492 259.50449 0.6466338 255 255 255
3634.3462 -36.981392 3.9521754 255 255 255
15434.354 1478.8992 27.241791 255 255 255
105.59736 97.250847 0.2006717 255 255 255
24498.439 2186.926 41.454262 255 255 255
2899.9624 -274.69693 3.4719446 255 255 255
45278.195 3920.6619 63.30941 255 255 255
-4670.833 -4.3154898 -8.8042459 255 255 255
157.2735 58.432484 0.26235574 255 255 255
3060.7749 1003.5538 3.5210686 255 255 255
227.91156 136.56714 0.40094349 255 255 255
-21078.9 -1194.6302 -36.675716 255 255 255
2608.0466 755.21454 3.4530673 255 255 255
-20087.889 -1051.3656 -32.510239 255 255 255
1542.8112 36.622459 1.7174377 255 255 255
-13514.945 -570.5304 -22.298388 255 255 255
12688.164 2350.2451 10.651882 255 255 255
-3070.0576 340.10098 -4.9170771 255 255 255
5119.6846 -753.12292 8.4978313 255 255 255
-2905.7981 143.16663 -5.5695748 255 255 255
-17664.662 -662.6925 -24.607349 255 255 255
5852.0229 1604.8745 5.5420952 255 255 255
1494.7842 609.37134 2.0265243 255 255 255
-46714.215 -2539.7522 -57.758991 255 255 255
-284.35287 -88.51059 -1.6588235 255 255 255
237.30408 180.38216 0.41487256 255 255 255
130.00259 79.133919 0.22941974 255 255 255
8123.8672 -610.30444 8.8991766 255 255 255
-2706.2834 422.18015 -4.4702711 255 255 255
-5093.2075 138.69553 -8.0931797 255 255 255
3689.8948 -219.22137 6.6500983 255 255 255
-362.64642 -31.052011 -1.3260561 255 255 255
1484.5885 458.11911 1.7231762 255 255 255
102.84772 81.014336 0.18936373 255 255 255
4940.2109 445.62466 6.6817546 255 255 255
-9255.6367 -232.85349 -15.111706 255 255 255
868.38019 352.89807 1.3880998 255 255 255
114.5557 56.473808 0.19407322 255 255 255
194.37445 154.83141 0.34748006 255 255 255
-187.32756 336.9617 -0.53983915 255 255 255
-9473.0645 -7166.876 -16.796928 255 255 255
-554.58441 -309.95889 -2.3831911 255 255 255
3108.2722 -410.43204 4.5178638 255 255 255
-3131.4875 125.36886 -4.9573374 255 255 255
-3460.1074 17.738997 -7.2277393 255 255 255
2654.0801 -355.6785 2.969337 255 255 255
-2392.9783 43.464035 -2.6343751 255 255 255
3000.791 -262.96606 3.2175887 255 255 255
6156.8408 137.00276 8.0705404 255 255 255
866.52484 405.81763 1.3127859 255 255 255
20955.258 2213.3455 27.202387 255 255 255
985.35382 613.21613 1.3011868 255 255 255
-43414.719 -242.13545 -35.869671 255 255 255
-114.59492 -66.338203 -1.2440622 255 255 255
-2077.5061 157.01167 -4.0183325 255 255 255
-80.599785 140.68051 -0.53891957 255 255 255
-18.798349 29.695738 -0.9509123 255 255 255
3962.9302 1393.5944 3.8768187 255 255 255
-5186.9346 583.12897 -6.3732238 255 255 255
74532.969 5510.875 60.543034 255 255 255
-13320.632 -617.6488 -23.426146 255 255 255
-1357.7854 48.60231 -2.8795412 255 255 255
13256.22 2642.4006 10.12805 255 255 255
-3432.9478 345.3511 -5.3080745 255 255 255
1128.4092 238.586 2.2005129 255 255 255
263.59033 94.16346 0.46418989 255 255 255
2139.2129 290.58286 4.5394635 255 255 255
-17.635805 40.474136 -0.94511092 255 255 255
536.93335 398.0704 0.81026375 255 255 255
2828.917 2310.021 11.271962 255 255 255
2647.4773 -521.62659 3.8895481 255 255 255
92570.383 25641.645 164.98598 255 255 255
13138.287 555.43878 16.099703 255 255 255
227.37495 -0.16123058 0.18035765 255 255 255
6403.9355 -476.8436 10.49744 255 255 255
15337.896 1472.0963 27.069962 255 255 255
1875.4854 384.22336 3.3863914 255 255 255
-13696.405 -643.61041 -24.109776 255 255 255
1750.9733 754.91693 2.1811273 255 255 255
-235850.12 17987.336 -196.45648 255 255 255
-5666.0249 -84.303856 -10.627589 255 255 255
-2327.1821 -988.091 -6.8107815 255 255 255
367.01077 208.2959 0.62360406 255 255 255
-299.86346 -44.623245 -1.2775934 255 255 255
1214.1425 484.57773 1.7843574 255 255 255
-5334.8291 5.2620234 -9.3603983 255 255 255
2221.9036 -243.80643 3.1365602 255 255 255
1447.483 1018.0947 2.3819594 255 255 255
-22.504019 35.059128 -0.94938868 255 255 255
10395.52 1442.2537 13.193717 255 255 255
15776.642 2775.6326 12.020911 255 255 255
-3187.9097 -287.01541 -6.3856397 255 255 255
-301.58423 431.22379 -0.40136409 255 255 255
10674.397 1473.1633 13.472676 255 255 255
364.76675 150.19682 0.64827913 255 255 255
1906.2412 -339.89548 2.3290601 255 255 255
-276.89838 400.54626 -0.31422082 255 255 255
7925.1489 -1643.5394 10.443378 255 255 255
-74.280266 388.82257 -0.4872261 255 255 255
209.94106 117.12778 0.36975133 255 255 255
195.40495 107.76801 0.34409443 255 255 255
3826.8325 1357.7751 3.7940671 255 255 255
113.95859 56.229515 0.19305164 255 255 255
3299.271 258.11505 4.4395556 255 255 255
1805.8932 690.83044 2.3620644 255 255 255
2106.4749 601.71954 2.5658648 255 255 255
-37.383553 224.18182 -0.69958377 255 255 255
-3224.1372 310.28574 -5.2020073 255 255 255
-4613.1289 -126.72054 -7.5208626 255 255 255
-2155.7878 143.58173 -2.5441179 255 255 255
-282.24631 -143.00378 -1.4100547 255 255 255
-211.93912 313.58466 -0.51428235 255 255 255
-11186.974 -686.80566 -10.671369 255 255 255
-416.11108 -306.33472 -1.6642884 255 255 255
361.32877 125.67504 0.65080535 255 255 255
221.44949 123.36537 0.38967097 255 255 255
196.36165 107.0064 0.34533617 255 255 255
1333.7491 438.80829 2.078702 255 255 255
206.35179 220.58333 0.80655092 255 255 255
-1149.1268 -585.42273 -3.0057845 255 255 255
1417.9653 411.96106 2.1206033 255 255 255
261.06097 94.8629 0.45965928 255 255 255
1995.274 683.93073 2.6597021 255 255 255
15597.624 2300.1594 14.425282 255 255 255
-372.30896 -235.24483 -1.5265006 255 255 255
-4925.4004 -1027.4463 -8.7249603 255 255 255
-232.48572 -133.23961 -1.4660864 255 255 255
2948.2847 957.29163 3.4634814 255 255 255
687.88275 292.84671 1.1373668 255 255 255
-528.69977 -399.78195 -1.5979612 255 255 255
-19359.029 -53.574532 -15.262245 255 255 255
-26.1588 45.812195 -0.93975723 255 255 255
3460.8369 4128.147 8.038682 255 255 255
122.27196 52.153015 0.20305528 255 255 255
-2380.2539 -2729.7263 -5.7530627 255 255 255
-1124.8248 -377.71344 -3.7405031 255 255 255
-4087.4329 388.79575 -6.8213081 255 255 255
-174.03908 365.03854 -0.2538709 255 255 255
7376.6021 1793.6726 6.7602425 255 255 255
-153.32013 342.40826 -0.4272874 255 255 255
4473.0225 -435.46271 5.6063542 255 255 255
2283.2454 -39.640789 2.7505307 255 255 255
679.80023 291.02753 1.1246442 255 255 255
12688.055 2541.7891 9.9569683 255 255 255
-8999.2246 -543.11926 -16.092308 255 255 255
-28.9764 50.93145 -0.92902839 255 255 255
99141.891 -10690.781 122.53451 255 255 255
5128.0933 419.94653 7.2838569 255 255 255
236.26019 130.16711 0.41530102 255 255 255
113142.18 7845.6138 234.30325 255 255 255
-2267.7937 221.87912 -4.3491745 255 255 255
-154.23953 352.78427 -0.43428093 255 255 255
-594.19592 -926.80719 -2.5399919 255 255 255
2101.1929 -108.49351 2.6402774 255 255 255
234.64632 188.63844 0.41087118 255 255 255
-162.00525 430.4342 -0.50173205 255 255 255
155.41557 102.60896 0.27697998 255 255 255
-3154.7915 -2143.5667 -5.1258349 255 255 255
-41.08289 258.51889 -0.61507982 255 255 255
2038.7394 693.65527 2.7060575 255 255 255
28137.977 3022.616 47.366154 255 255 255
265.36835 -45.412529 0.33699223 255 255 255
-5586.3457 -89.106789 -10.623074 255 255 255
19141.566 2071.1228 24.727665 255 255 255
-5266.5889 577.58423 -6.4634185 255 255 255
-289.65051 418.81284 -0.3630898 255 255 255
261.86481 97.908455 0.46155471 255 255 255
237.34221 129.26794 0.41731963 255 255 255
-1412.5231 -2157.0068 -4.3797455 255 255 255
12542.36 2515.0962 9.9010239 255 255 255
1444.9336 639.31738 1.9088402 255 255 255
6382.9951 -687.72717 8.9963398 255 255 255
-55.290443 297.27325 -0.39524487 255 255 255
2093.5063 742.58948 2.6912067 255 255 255
-4035.8333 360.1311 -6.4892139 255 255 255
6795.3633 -1116.1882 10.493091 255 255 255
-161.39053 433.14886 -0.40056637 255 255 255
16165.571 2348.3345 14.906775 255 255 255
-218.43384 313.97937 -0.38350013 255 255 255
-3233.0652 142.51648 -4.15486 255 255 255
410.72488 224.42877 0.69280887 255 255 255
16801.834 2463.6252 14.861334 255 255 255
-8492.1025 841.58008 -13.376563 255 255 255
-1014.9777 -637.20276 -2.0584126 255 255 255
-571.72998 -351.93658 -2.3081021 255 255 255
9768.2881 1401.2438 12.339105 255 255 255
-3398.7942 681.13531 -5.4977484 255 255 255
2797.3992 852.92694 3.4882207 255 255 255
8168.689 -867.6167 9.1576653 255 255 255
-172.62938 446.08575 -0.39938253 255 255 255
2524.9187 806.38904 1.8687013 255 255 255
-370.87573 21.810961 -1.4941409 255 255 255
39254.543 3222.7192 50.841862 255 255 255
417.64923 199.51044 0.72092628 255 255 255
1426.0842 529.94415 2.0548348 255 255 255
112247.09 8262.2627 230.05246 255 255 255
205.0072 107.01426 0.36054146 255 255 255
12599.153 2512.1528 9.9603004 255 255 255
127.76728 50.06361 0.20978321 255 255 255
-485.09186 -22.637978 -2.0383027 255 255 255
-11435.649 1503.8643 -11.469534 255 255 255
-1662.2072 -3023.0142 -5.5195026 255 255 255
214.22687 183.90796 0.41781878 255 255 255
-132.93346 -107.56464 -1.1821649 255 255 255
163.51697 98.671242 0.28933275 255 255 255
110.31374 58.783363 0.18907405 255 255 255
9683.6475 1406.1301 12.156163 255 255 255
-261.93338 423.66501 -0.47207975 255 255 255
-6558.0234 -10350.415 -17.372622 255 255 255
143.52235 62.840576 0.24307179 255 255 255
160.96355 96.989304 0.28458762 255 255 255
-851.53589 -674.76337 -2.0162184 255 255 255
-3303.9822 47.756527 -6.7564726 255 255 255
-8004.6865 -246.49396 -14.650244 255 255 255
-579.79834 -794.34851 -2.331094 255 255 255
-91.387985 425.26492 -0.36199984 255 255 255
9545.6719 1393.1899 12.001342 255 255 255
1548.6331 84.371147 1.8561596 255 255 255
9393.1455 1380.0948 11.841998 255 255 255
563.5141 324.68307 0.88764602 255 255 255
413.75827 249.7744 0.68392241 255 255 255
-147.8781 -209.33318 -1.4091063 255 255 255
177.42059 110.73014 0.31434667 255 255 255
-130.29414 357.46103 -0.51567316 255 255 255
-26102.605 -2493.9648 -37.827862 255 255 255
8362.1279 542.80841 15.562525 255 255 255
2594.5596 880.40381 3.1373513 255 255 255
-73.87059 367.62173 -0.46160093 255 255 255
223.37273 141.23459 0.39291033 255 255 255
-14713.488 277.90219 -11.44606 255 255 255
-2165.1665 398.39224 -3.6644385 255 255 255
-148.9068 428.77509 -0.40722403 255 255 255
422.91888 201.39104 0.72932112 255 255 255
-94.422066 425.02658 -0.3640928 255 255 255
-3212.2043 -3990.8503 -7.7907195 255 255 255
-3005.291 459.185 -4.8745608 255 255 255
-2691.6035 -371.48071 -3.9844685 255 255 255
-303.24878 -185.0258 -1.33515 255 255 255
4496.5664 -262.50034 6.4104948 255 255 255
1817.7031 781.51044 2.233098 255 255 255
197.50452 125.65868 0.34910005 255 255 255
222.17189 142.11992 0.39086112 255 255 255
-108.2626 316.19571 -0.52583158 255 255 255
1987.0046 686.70782 2.6413476 255 255 255
415.82288 254.21376 0.6856854 255 255 255
1493.0078 647.00916 1.9672856 255 255 255
1685.1639 630.5741 2.284523 255 255 255
-1677.3948 263.99384 -3.3938117 255 255 255
418.54593 241.60036 0.69638753 255 255 255
235.75395 123.98792 0.41469336 255 255 255
423.89203 259.03192 0.69688696 255 255 255
1222.5964 452.66562 1.85212 255 255 255
129.78441 79.168587 0.22913302 255 255 255
-146.86775 433.19385 -0.41007733 255 255 255
-9637.5713 -318.91479 -16.552118 255 255 255
187.58334 120.23496 0.33257297 255 255 255
-124.05767 296.71292 -0.56246996 255 255 255
127.35838 77.843521 0.22485153 255 255 255
536.00018 316.918 0.84811413 255 255 255
-279.58496 447.03104 -0.35437164 255 255 255
2009.0232 676.89185 2.6959713 255 255 255
2039.8099 684.95258 2.7282615 255 255 255
105.85442 65.108856 0.18598856 255 255 255
-1695.9335 664.98541 -2.7710478 255 255 255
-4223.9062 493.1496 -7.5906005 255 255 255
28455.42 3274.1885 22.979805 255 255 255
1128.7517 -87.175232 1.1508768 255 255 255
5969.7192 1409.1818 6.2384582 255 255 255
-1415.7563 579.1651 -2.5505266 255 255 255
9986.4658 2361.8723 7.9374418 255 255 255
13661.2 2499.2407 11.087523 255 255 255
16117.394 2321.417 14.970366 255 255 255
9113.9375 -82.175438 14.422594 255 255 255
428.13541 273.02591 0.69697332 255 255 255
-5325.3374 545.22406 -6.59975 255 255 255
1222.2845 491.42908 1.7892762 255 255 255
8691.2607 -137.52531 13.017846 255 255 255
3719.4414 550.9137 4.4390621 255 255 255
2318.1804 582.60413 3.4980693 255 255 255
-9953.4443 -340.75742 -17.065784 255 255 255
-1991.7076 -62.897713 -3.7655129 255 255 255
4691.3228 567.02075 9.1956358 255 255 255
1648.0486 641.62012 2.209022 255 255 255
16369.258 2347.656 15.166251 255 255 255
-4815.9272 111.14051 -7.9753976 255 255 255
318.03879 -70.902359 0.29020149 255 255 255
379.75269 119.68793 0.69294101 255 255 255
-69.430832 -16.073519 -1.0574274 255 255 255
-46.137154 195.56285 -0.1532584 255 255 255
-264.96109 -44.323193 -1.2189728 255 255 255
9950.4678 2352.5015 7.9010525 255 255 255
-1910.2201 -192.32642 -3.9894452 255 255 255
103.81666 68.46302 0.18469773 255 255 255
19380.531 -3132.8052 26.142738 255 255 255
758.9295 258.16501 1.3296623 255 255 255
2016.0144 604.68268 3.3384502 255 255 255
-75.033897 -17.034525 -1.1308193 255 255 255
-6030.1567 41.993664 -9.6702185 255 255 255
-461.32349 -257.47833 -1.7713405 255 255 255
-1424.5259 228.04672 -3.1293783 255 255 255
-5735.3696 68.766716 -9.1937714 255 255 255
-4088.668 48.748962 -7.9357262 255 255 255
-136.73534 352.65009 -0.53922266 255 255 255
2780.002 -350.74487 3.6816311 255 255 255
174.49376 76.726051 0.2750861 255 255 255
-1429.7236 575.93652 -2.5687914 255 255 255
-3582.6082 509.67923 -4.9934459 255 255 255
-677.15131 -112.23018 -2.314513 255 255 255
-2598.1426 100.6716 -5.3526115 255 255 255
-2939.4822 404.79559 -4.5696392 255 255 255
446.19412 296.44333 0.71537358 255 255 255
-188.30403 -169.64217 -1.3034815 255 255 255
778.91669 460.22113 1.1224209 255 255 255
16913.967 2399.3586 15.594798 255 255 255
-2144.4956 84.662437 -4.8688278 255 255 255
-2870.5183 122.86009 -5.6452699 255 255 255
393.94507 153.96361 0.70398992 255 255 255
441.98663 295.12933 0.70971692 255 255 255
772.99451 459.22543 1.114622 255 255 255
-25194.105 -17827.977 -44.832401 255 255 255
-1946.9545 -665.20868 -3.7950778 255 255 255
-487.00824 -125.31213 -1.6942523 255 255 255
-1532.2648 -1007.7422 -2.6684468 255 255 255
-1429.6606 571.1955 -2.5737917 255 255 255
251.91602 24.394381 0.33579898 255 255 255
200.98686 152.10358 0.35693461 255 255 255
4255.4214 1307.5432 4.3809338 255 255 255
16824.188 2380.6882 15.575048 255 255 255
-38.056561 312.28897 -0.32903495 255 255 255
-1914.7628 107.76848 -4.3607845 255 255 255
910.79358 414.52585 1.3758507 255 255 255
-7665.417 -421.39496 -15.249956 255 255 255
3667.9512 1094.1752 4.1197433 255 255 255
237.36595 180.43599 0.41495919 255 255 255
-498.55972 -92.270378 -1.4140724 255 255 255
-1257.5634 515.44476 -2.4325359 255 255 255
-116.47809 -59.250275 -1.2659165 255 255 255
-20123.535 2637.7102 -32.09481 255 255 255
-15591.358 586.74402 -14.709711 255 255 255
1228.5746 357.62015 2.0770555 255 255 255
4365.311 1414.0768 4.2961178 255 255 255
-1735.6547 345.40573 -3.2676182 255 255 255
894.89832 409.63541 1.3555158 255 255 255
23510.461 2813.7964 21.222006 255 255 255
387.13333 274.78275 0.63232195 255 255 255
7359.0898 2059.7249 6.149682 255 255 255
-2332.4092 -330.99847 -4.2216983 255 255 255
194.57878 154.93741 0.34776539 255 255 255
11108.573 2104.0662 9.8893986 255 255 255
379.16458 196.5519 0.65102816 255 255 255
460.41135 318.61914 0.72893012 255 255 255
