ply
format ascii 1.0
comment PCL generated
element vertex 1078
property float x
property float y
property float z
property uchar red
property uchar green
property uchar blue
element face 0
element camera 0
property float view_px
property float view_py
property float view_pz
property float x_axisx
property float x_axisy
property float x_axisz
property float y_axisx
property float y_axisy
property float y_axisz
property float z_axisx
property float z_axisy
property float z_axisz
property float focal
property float scalex
property float scaley
property float centerx
property float centery
property int viewportx
property int viewporty
property float k1
property float k2
end_header
68.445778 -4.0785308 -0.84180737 255 255 255
44.03392 27.392559 -0.92329866 255 255 255
55.730232 10.070004 -0.87083209 255 255 255
50.427448 15.167287 -0.87249398 255 255 255
-0.72874689 63.651134 -0.91169208 255 255 255
39.054146 31.55752 -0.92022514 255 255 255
46.093891 22.861372 -0.92089379 255 255 255
81.542671 -17.361252 -0.87941051 255 255 255
71.718277 -7.6880341 -0.83366889 255 255 255
40.564404 30.670416 -0.94202423 255 255 255
54.767567 10.162127 -0.84395432 255 255 255
56.684353 9.8570137 -0.86623013 255 255 255
25.349796 39.016273 -0.80560434 255 255 255
49.148754 21.795202 -0.92897528 255 255 255
45.083153 29.087618 -0.92621088 255 255 255
52.484058 16.194588 -0.90898192 255 255 255
38.557068 31.127527 -0.90053856 255 255 255
44.960724 25.624037 -0.92642587 255 255 255
59.542442 9.8140211 -0.92559844 255 255 255
65.015503 10.637542 -0.9048782 255 255 255
50.333645 13.418434 -0.85591745 255 255 255
41.710659 29.657698 -0.93458319 255 255 255
48.11845 21.83639 -0.92962402 255 255 255
60.089806 4.8959045 -0.85215545 255 255 255
60.218853 8.1420765 -0.90817887 255 255 255
46.315266 21.762754 -0.88199395 255 255 255
33.254963 35.796097 -0.90736943 255 255 255
38.5312 29.679785 -0.90170175 255 255 255
37.827282 33.086319 -0.86984658 255 255 255
21.243778 28.858698 -0.60131466 255 255 255
54.052868 12.252075 -0.84770131 255 255 255
79.749634 -16.663572 -0.85465562 255 255 255
54.523746 11.344576 -0.87085783 255 255 255
40.545933 28.758406 -0.91255146 255 255 255
4.9644156 55.876095 -0.88339669 255 255 255
-16.049713 79.964424 -0.91602385 255 255 255
51.388981 15.39433 -0.88126874 255 255 255
49.339493 21.273115 -0.93640143 255 255 255
52.524357 17.643627 -0.90112478 255 255 255
46.425472 23.584826 -0.90606487 255 255 255
25.550007 44.780338 -0.87697244 255 255 255
66.12648 -1.3276229 -0.8896569 255 255 255
44.18074 24.356638 -0.89817321 255 255 255
45.99852 24.011887 -0.92849714 255 255 255
71.670082 -2.9595587 -0.82527238 255 255 255
62.434776 0.95315862 -0.81667542 255 255 255
60.629562 7.8866792 -0.87998515 255 255 255
80.265411 -13.494414 -0.83760607 255 255 255
51.027988 18.293724 -0.90928727 255 255 255
38.542164 29.129221 -0.88871795 255 255 255
-22.685623 77.812004 -0.87618929 255 255 255
33.009296 36.536766 -0.90397042 255 255 255
56.7141 10.295595 -0.91359806 255 255 255
-19.388567 76.79718 -0.85912824 255 255 255
48.88176 18.787493 -0.90272456 255 255 255
37.197708 31.957302 -0.88412422 255 255 255
55.902756 10.912533 -0.90303111 255 255 255
52.22226 17.786745 -0.93691427 255 255 255
37.634529 41.841717 -0.93012619 255 255 255
46.275238 19.10216 -0.87855756 255 255 255
46.127518 23.716085 -0.92928755 255 255 255
51.74881 13.893301 -0.85246414 255 255 255
36.380878 20.220438 -0.71791941 255 255 255
44.876255 25.795952 -0.93070143 255 255 255
90.563683 -20.925442 -0.79593784 255 255 255
42.851227 27.607666 -0.90967929 255 255 255
38.713806 32.925819 -0.93837404 255 255 255
47.92968 21.150394 -0.92996246 255 255 255
47.267548 23.104258 -0.9167608 255 255 255
76.617928 -10.762728 -0.83420312 255 255 255
39.688477 33.760262 -0.93243718 255 255 255
37.589767 29.916334 -0.88400626 255 255 255
62.423885 4.0495949 -0.91170144 255 255 255
37.191109 35.848938 -0.89735228 255 255 255
68.16819 -2.416532 -0.90171337 255 255 255
47.934155 21.544733 -0.92283404 255 255 255
72.732101 -7.3017597 -0.90952086 255 255 255
37.720589 34.510124 -0.9273873 255 255 255
72.956902 -7.7752347 -0.89377344 255 255 255
42.910152 22.364491 -0.86816674 255 255 255
48.833538 18.333122 -0.89634186 255 255 255
63.033211 3.6223052 -0.92409569 255 255 255
43.212681 30.40453 -0.92541629 255 255 255
37.69976 48.840691 -0.89105791 255 255 255
80.506302 10.5794 -0.85473555 255 255 255
51.1012 16.832664 -0.87896782 255 255 255
54.626953 11.456317 -0.87723786 255 255 255
71.715492 -7.325417 -0.83540946 255 255 255
63.543556 0.93662828 -0.81709319 255 255 255
46.983131 16.412733 -0.83178729 255 255 255
44.704098 24.784187 -0.90335059 255 255 255
60.367943 7.9620728 -0.88457531 255 255 255
-64.554527 105.76581 -0.73140824 255 255 255
71.655014 -5.3951244 -0.83713788 255 255 255
-21.36079 84.026581 -0.89360523 255 255 255
42.619251 27.272598 -0.87460357 255 255 255
43.683556 24.234478 -0.85966313 255 255 255
57.504826 9.708147 -0.86639851 255 255 255
44.647202 22.953468 -0.89172941 255 255 255
54.801952 13.640158 -0.84687233 255 255 255
-66.388412 112.6916 -0.72844857 255 255 255
53.523487 12.764823 -0.88180918 255 255 255
41.763508 29.27434 -0.74052316 255 255 255
-49.199951 104.36484 -0.83293682 255 255 255
60.760834 4.5658479 -0.86363512 255 255 255
71.010124 7.8110685 -0.81210738 255 255 255
46.398033 24.116379 -0.90138042 255 255 255
45.172836 26.88806 -0.88693815 255 255 255
34.495113 31.797071 -0.86544406 255 255 255
44.408417 21.946848 -0.87097651 255 255 255
41.319569 32.806137 -0.92138469 255 255 255
46.947334 24.613941 -0.9101817 255 255 255
47.878845 21.736782 -0.89882863 255 255 255
49.809467 26.226274 -0.89262712 255 255 255
60.389503 11.147536 -0.93957412 255 255 255
-16.18721 76.963051 -0.89973336 255 255 255
53.631535 17.1614 -0.92628747 255 255 255
37.099323 31.379408 -0.90464169 255 255 255
55.193913 19.054361 -0.93558288 255 255 255
0.73732287 66.157486 -0.89796954 255 255 255
62.900105 1.5147492 -0.77149713 255 255 255
36.128986 33.151398 -0.92196041 255 255 255
64.898132 -0.27800328 -0.82787299 255 255 255
49.604301 15.018465 -0.86454523 255 255 255
44.888832 25.937445 -0.91786093 255 255 255
30.67198 33.949165 -0.81946754 255 255 255
50.886097 13.225811 -0.81922179 255 255 255
49.289501 16.080521 -0.85739273 255 255 255
39.25 32.557091 -0.93350714 255 255 255
42.010555 27.355103 -0.91057891 255 255 255
62.087509 3.7105119 -0.85512537 255 255 255
65.009514 -1.0297804 -0.82382923 255 255 255
44.193233 23.562025 -0.90321225 255 255 255
50.660053 16.939333 -0.91474724 255 255 255
31.434921 38.610802 -0.91275841 255 255 255
64.387665 1.8144474 -0.89066714 255 255 255
54.697964 12.748485 -0.86329257 255 255 255
45.902088 20.516188 -0.8948251 255 255 255
45.500328 24.703941 -0.88273793 255 255 255
47.278347 23.098612 -0.94216323 255 255 255
39.029522 28.915548 -0.89666569 255 255 255
44.909477 31.657579 -0.92079371 255 255 255
49.923851 19.601419 -0.93045366 255 255 255
71.578079 -1.7475458 -0.8531298 255 255 255
56.61739 13.641518 -0.88957101 255 255 255
41.11763 27.490528 -0.91180593 255 255 255
62.409779 4.4478865 -0.88794792 255 255 255
-1.0017338 66.616936 -0.88132536 255 255 255
44.221855 24.135347 -0.89957511 255 255 255
44.967812 28.332966 -0.93486822 255 255 255
66.686836 0.82986307 -0.88209713 255 255 255
33.885044 36.223572 -0.90184987 255 255 255
59.892063 12.171627 -0.89037561 255 255 255
-29.995354 86.925087 -0.812976 255 255 255
36.953533 30.810844 -0.88839608 255 255 255
32.71928 40.234543 -0.91043049 255 255 255
52.892937 16.494249 -0.8776179 255 255 255
63.301434 5.0903835 -0.88558805 255 255 255
123.48744 -38.408638 -0.72049987 255 255 255
39.030651 32.381947 -0.92862821 255 255 255
43.957912 27.450068 -0.89756101 255 255 255
63.859295 0.12425162 -0.86991262 255 255 255
90.394775 15.792087 -0.83957195 255 255 255
42.344986 30.662306 -0.90863621 255 255 255
44.992313 24.623089 -0.92774838 255 255 255
34.611332 38.485577 -0.93113011 255 255 255
38.987225 27.320395 -0.8849383 255 255 255
47.708603 21.233362 -0.92779917 255 255 255
48.546459 35.995068 -0.89389932 255 255 255
48.992439 18.748259 -0.88253456 255 255 255
49.906567 21.739109 -0.93236971 255 255 255
49.797855 18.89822 -0.90172035 255 255 255
28.567942 42.991631 -0.91596425 255 255 255
28.948658 43.468792 -0.90970391 255 255 255
69.355247 -5.0705504 -0.83988494 255 255 255
45.033546 27.460638 -0.94021571 255 255 255
69.836807 -1.4753093 -0.89799577 255 255 255
15.057648 21.732206 -0.43052498 255 255 255
58.820282 8.2045717 -0.88360745 255 255 255
48.051346 23.584185 -0.92375618 255 255 255
46.808266 20.518578 -0.89248377 255 255 255
49.729065 17.749512 -0.90801072 255 255 255
38.80896 32.133442 -0.91702175 255 255 255
34.916485 30.733555 -0.8627162 255 255 255
75.557343 -8.9617672 -0.86102223 255 255 255
50.279617 15.977704 -0.88021457 255 255 255
51.290279 15.736157 -0.87593055 255 255 255
27.288733 36.456352 -0.79928541 255 255 255
57.399052 9.9972057 -0.93212825 255 255 255
57.892536 13.390014 -0.93159944 255 255 255
66.994171 -2.5443609 -0.84296113 255 255 255
42.919704 24.125984 -0.8838318 255 255 255
-37.762966 99.84182 -0.86937892 255 255 255
62.577995 4.1969309 -0.87695026 255 255 255
56.071522 9.888032 -0.87594122 255 255 255
43.618763 45.121273 -0.91593486 255 255 255
62.985348 3.6736324 -0.92412955 255 255 255
38.534718 33.160961 -0.89867342 255 255 255
51.675106 18.293888 -0.92510331 255 255 255
46.403954 25.179775 -0.93712777 255 255 255
49.761322 18.626574 -0.92797852 255 255 255
52.59333 16.530716 -0.88665086 255 255 255
67.406815 -3.223345 -0.8338111 255 255 255
31.668619 35.788338 -0.86477965 255 255 255
40.29681 29.123486 -0.91096002 255 255 255
74.323143 -9.4873762 -0.82924503 255 255 255
43.295628 24.894855 -0.88359112 255 255 255
67.716736 -6.2848854 -0.81341106 255 255 255
56.578907 7.3683529 -0.86818445 255 255 255
51.790985 16.610712 -0.86769509 255 255 255
39.153748 31.067072 -0.93091065 255 255 255
60.388618 8.1552944 -0.93656665 255 255 255
38.832024 30.615652 -0.92454123 255 255 255
60.938423 6.1505151 -0.86021817 255 255 255
46.428749 23.083008 -0.91067016 255 255 255
50.935619 12.77379 -0.84955984 255 255 255
37.457447 33.806591 -0.92179108 255 255 255
52.677166 15.722804 -0.88474077 255 255 255
21.211187 28.878332 -0.60120648 255 255 255
49.858749 16.247145 -0.88306743 255 255 255
59.546955 7.2989488 -0.91653049 255 255 255
-10.962737 65.241867 -0.82843566 255 255 255
72.275124 -8.4996557 -0.82441223 255 255 255
72.446831 -8.4920034 -0.83181214 255 255 255
24.419508 40.301807 -0.80945885 255 255 255
61.255707 15.22194 -0.86345106 255 255 255
69.96907 1.5497837 -0.86391169 255 255 255
-70.627441 119.74801 -0.71809107 255 255 255
-61.309143 103.15863 -0.74890298 255 255 255
45.12009 23.256121 -0.89921832 255 255 255
54.193275 11.99368 -0.87993813 255 255 255
72.754562 -8.9793186 -0.82482898 255 255 255
42.721489 28.523109 -0.92821419 255 255 255
36.898808 32.555164 -0.92733866 255 255 255
46.945438 24.64707 -0.93244451 255 255 255
54.228458 11.474112 -0.86603814 255 255 255
30.766716 36.540787 -0.8105529 255 255 255
46.2869 24.596556 -0.92376769 255 255 255
-8.5949039 68.324425 -0.882155 255 255 255
54.73518 11.002495 -0.86766273 255 255 255
60.008629 11.272965 -0.8782652 255 255 255
42.73011 24.691643 -0.89200193 255 255 255
43.660816 24.963076 -0.89394462 255 255 255
44.830132 26.381218 -0.94221282 255 255 255
56.177696 26.572058 -0.86447048 255 255 255
52.549881 11.314252 -0.86211067 255 255 255
44.582172 26.892746 -0.94000655 255 255 255
37.506279 32.691635 -0.92900699 255 255 255
47.570374 23.463982 -0.93096459 255 255 255
52.484493 14.842851 -0.85065466 255 255 255
51.352859 21.053537 -0.93570822 255 255 255
68.246346 -4.1426539 -0.83190691 255 255 255
39.687679 28.097136 -0.89427465 255 255 255
47.448189 22.377792 -0.92950952 255 255 255
37.38385 33.060062 -0.92133427 255 255 255
81.555626 -17.378992 -0.87934762 255 255 255
44.193314 26.786325 -0.90034384 255 255 255
53.169281 9.5246086 -0.84116101 255 255 255
42.994198 24.199476 -0.86783284 255 255 255
-98.294281 146.72331 -0.71171594 255 255 255
46.526127 25.085443 -0.93197966 255 255 255
56.051571 16.812311 -0.91488034 255 255 255
62.684093 4.0278854 -0.85013652 255 255 255
49.293598 20.770866 -0.89109331 255 255 255
43.096397 24.394653 -0.89510661 255 255 255
52.363094 14.550599 -0.90247214 255 255 255
26.16004 37.595318 -0.79745305 255 255 255
46.323643 20.907259 -0.87364733 255 255 255
62.608433 0.81102055 -0.80801779 255 255 255
50.283943 17.197319 -0.90991139 255 255 255
66.851448 -8.0178919 -0.78786141 255 255 255
56.11837 9.9820967 -0.87774962 255 255 255
39.451031 45.437714 -0.84683388 255 255 255
56.016373 11.238999 -0.90369344 255 255 255
35.15229 37.562775 -0.9317221 255 255 255
46.299526 22.205027 -0.91159666 255 255 255
39.771744 27.176596 -0.87653029 255 255 255
27.358335 27.766153 -0.71145773 255 255 255
58.759964 4.014051 -0.81821221 255 255 255
-55.603973 105.30735 -0.70632774 255 255 255
51.388336 17.066185 -0.90447128 255 255 255
38.047527 46.66497 -0.90025938 255 255 255
66.902969 -1.1144727 -0.8681764 255 255 255
31.614664 38.926968 -0.9366436 255 255 255
49.509125 17.996714 -0.90840954 255 255 255
43.152679 26.332964 -0.88956481 255 255 255
40.888321 26.186268 -0.88106793 255 255 255
55.121601 10.574645 -0.86736619 255 255 255
68.088387 -0.569067 -0.8352133 255 255 255
40.244122 24.002239 -0.82424355 255 255 255
45.729454 22.550453 -0.87960619 255 255 255
48.758514 18.105942 -0.87790334 255 255 255
35.479042 35.331097 -0.89806503 255 255 255
23.800024 41.720409 -0.82085198 255 255 255
45.410366 21.638519 -0.88375026 255 255 255
55.273457 12.494351 -0.92722261 255 255 255
48.197762 19.65876 -0.91316026 255 255 255
22.57107 41.873173 -0.80125928 255 255 255
55.363056 10.329171 -0.86708862 255 255 255
45.976959 24.910303 -0.88985562 255 255 255
71.028358 -3.708725 -0.88340318 255 255 255
40.989826 42.632641 -0.87697291 255 255 255
71.702911 -9.8916464 -0.8546055 255 255 255
-15.332584 75.606224 -0.90153122 255 255 255
37.236828 37.4268 -0.93031502 255 255 255
56.155003 10.57336 -0.89568371 255 255 255
36.093472 32.890461 -0.8892892 255 255 255
49.492687 21.266308 -0.92943799 255 255 255
61.415916 6.4717436 -0.92429811 255 255 255
54.982296 10.408572 -0.88187623 255 255 255
52.37653 13.212672 -0.87656015 255 255 255
43.766834 43.646698 -0.88749969 255 255 255
39.031189 28.920084 -0.8967517 255 255 255
38.158657 30.644192 -0.90206873 255 255 255
57.237957 7.3618622 -0.84840679 255 255 255
26.191729 40.736046 -0.85411423 255 255 255
42.275921 26.481594 -0.88078433 255 255 255
41.9809 25.438448 -0.8614108 255 255 255
42.573059 29.605896 -0.90512156 255 255 255
46.615993 23.686333 -0.88951367 255 255 255
50.151646 18.543419 -0.90872025 255 255 255
40.520046 26.597176 -0.88904923 255 255 255
60.476871 7.9670987 -0.86086762 255 255 255
53.277832 27.822548 -0.86862302 255 255 255
54.437618 8.929039 -0.85872084 255 255 255
39.041027 31.015638 -0.90861613 255 255 255
40.801262 27.782743 -0.89960462 255 255 255
69.686913 -6.3576021 -0.81594598 255 255 255
-72.582504 115.3589 -0.72931051 255 255 255
55.460953 15.57357 -0.91722417 255 255 255
42.918503 14.373537 -0.74664491 255 255 255
44.861488 24.05389 -0.92862463 255 255 255
69.548096 9.7169714 -0.93743747 255 255 255
54.377728 12.881406 -0.87914371 255 255 255
65.074501 -1.1466924 -0.83402258 255 255 255
39.928452 27.415836 -0.88224196 255 255 255
46.165634 20.616301 -0.88254315 255 255 255
78.327141 -6.8514171 -0.87087667 255 255 255
56.477577 14.053144 -0.888852 255 255 255
-62.716667 112.9509 -0.84315395 255 255 255
59.467007 12.349936 -0.89239258 255 255 255
40.469353 27.437963 -0.89889216 255 255 255
37.64817 36.410465 -0.92354828 255 255 255
68.191933 -2.4421613 -0.9016974 255 255 255
43.477848 26.511105 -0.90891945 255 255 255
45.150219 24.011995 -0.90146965 255 255 255
62.167801 3.6777234 -0.85423303 255 255 255
30.544622 39.051575 -0.91872495 255 255 255
59.360184 4.606595 -0.84264952 255 255 255
45.424915 25.343414 -0.93597686 255 255 255
41.372772 45.341038 -0.91446143 255 255 255
62.659267 12.10736 -0.94234645 255 255 255
48.811222 19.159157 -0.89648044 255 255 255
56.951336 11.32651 -0.90926117 255 255 255
44.785992 44.887527 -0.90913051 255 255 255
46.778652 17.461422 -0.83694744 255 255 255
47.813091 19.421852 -0.87273383 255 255 255
63.748653 0.90583086 -0.84579813 255 255 255
39.928078 31.22274 -0.92786139 255 255 255
-13.637693 69.734024 -0.82847095 255 255 255
70.697556 -8.3092995 -0.86157733 255 255 255
45.103828 24.171741 -0.90939254 255 255 255
55.5746 9.8330545 -0.8593322 255 255 255
22.411137 42.262348 -0.80436832 255 255 255
43.284924 26.538618 -0.92356598 255 255 255
33.937309 33.857079 -0.88385069 255 255 255
37.136147 51.575634 -0.91712099 255 255 255
20.765028 16.828571 -0.48710933 255 255 255
67.905502 3.2855086 -0.85797501 255 255 255
54.272442 14.58375 -0.90686733 255 255 255
-65.795601 121.42086 -0.79302973 255 255 255
-45.884018 109.96634 -0.86414593 255 255 255
44.320221 22.349539 -0.85403031 255 255 255
39.119728 28.75304 -0.89523876 255 255 255
54.427689 16.507532 -0.92500144 255 255 255
69.911545 -3.4694898 -0.93033791 255 255 255
46.373837 22.339354 -0.91148382 255 255 255
36.0737 36.878971 -0.93545365 255 255 255
86.934814 24.748457 -0.89742649 255 255 255
-38.333836 89.984177 -0.82780397 255 255 255
66.920479 -2.1644564 -0.85244399 255 255 255
-34.832092 93.175896 -0.85787928 255 255 255
46.180122 21.985886 -0.89197141 255 255 255
30.253922 33.625717 -0.84421694 255 255 255
47.315968 15.463841 -0.81784201 255 255 255
40.036163 29.781378 -0.92672712 255 255 255
52.88348 16.502848 -0.93215698 255 255 255
72.576447 -7.5225964 -0.82244468 255 255 255
62.352863 4.1243458 -0.91156948 255 255 255
39.810051 28.750364 -0.81819367 255 255 255
53.522705 18.906816 -0.86766291 255 255 255
50.062813 21.101326 -0.91923642 255 255 255
57.508583 14.192642 -0.88435745 255 255 255
47.105404 22.262197 -0.90551436 255 255 255
46.771832 19.883579 -0.88062805 255 255 255
78.0485 -16.376648 -0.81476068 255 255 255
39.880386 27.631145 -0.89650255 255 255 255
53.665936 12.627229 -0.88197529 255 255 255
55.555141 12.427466 -0.89521009 255 255 255
64.476303 0.52868921 -0.85884023 255 255 255
35.971024 35.376259 -0.90174401 255 255 255
64.016724 0.70905763 -0.84868097 255 255 255
28.32799 38.376366 -0.89053619 255 255 255
-26.943186 77.198578 -0.80984586 255 255 255
45.272266 20.61314 -0.86233586 255 255 255
54.386921 19.839678 -0.94461596 255 255 255
59.556683 10.420247 -0.89130104 255 255 255
42.124977 26.828976 -0.90025836 255 255 255
50.100262 17.489588 -0.89941788 255 255 255
45.287251 22.052944 -0.88435715 255 255 255
41.334839 28.845907 -0.91198242 255 255 255
34.59819 36.007755 -0.92634398 255 255 255
56.085758 16.732302 -0.9084357 255 255 255
72.960136 -7.7784543 -0.89375395 255 255 255
-15.038027 76.878098 -0.88809764 255 255 255
54.660637 20.863567 -0.92125058 255 255 255
59.625061 6.2118602 -0.87827122 255 255 255
55.855522 16.092941 -0.88560796 255 255 255
-18.365723 78.826538 -0.90255618 255 255 255
46.621094 15.774592 -0.82888162 255 255 255
54.105362 4.6433954 -0.76633227 255 255 255
43.923874 29.79987 -0.90852475 255 255 255
-17.116091 82.04718 -0.86891955 255 255 255
-33.178478 95.927994 -0.87552291 255 255 255
30.761116 38.785805 -0.85549164 255 255 255
55.393806 13.059908 -0.86682516 255 255 255
39.390003 18.569918 -0.76854283 255 255 255
54.300053 15.27895 -0.87899297 255 255 255
44.308949 24.260904 -0.91379285 255 255 255
64.719925 2.4762344 -0.89034331 255 255 255
48.858288 23.323612 -0.89475209 255 255 255
25.980619 41.56459 -0.88503349 255 255 255
63.892998 0.84883988 -0.84908205 255 255 255
54.201332 11.859184 -0.87596369 255 255 255
55.584343 12.372026 -0.90825897 255 255 255
28.450352 51.545525 -0.86245275 255 255 255
38.374352 31.047514 -0.91318184 255 255 255
55.102543 12.335798 -0.88255149 255 255 255
48.848713 22.890364 -0.91751182 255 255 255
52.199871 17.268864 -0.91132879 255 255 255
58.290142 8.9215288 -0.86136186 255 255 255
41.55703 29.343309 -0.90394878 255 255 255
46.572628 22.618851 -0.91058558 255 255 255
55.072464 10.899466 -0.87475133 255 255 255
39.399792 27.667601 -0.89182347 255 255 255
54.785046 10.909609 -0.86638629 255 255 255
42.518398 24.90003 -0.89159572 255 255 255
40.354198 27.011429 -0.88665289 255 255 255
62.399193 8.088933 -0.9401086 255 255 255
51.509663 17.611898 -0.86747456 255 255 255
12.723766 50.0555 -0.88003194 255 255 255
32.955132 37.605331 -0.87698925 255 255 255
42.870529 26.755468 -0.91013211 255 255 255
61.568169 2.447763 -0.84102678 255 255 255
39.301678 28.601044 -0.89631754 255 255 255
50.504692 19.546375 -0.9052788 255 255 255
44.188808 23.563931 -0.90317112 255 255 255
47.30217 22.785803 -0.9291994 255 255 255
-27.70228 80.714134 -0.89498603 255 255 255
63.771873 17.572884 -0.87147921 255 255 255
51.299332 18.278749 -0.91165823 255 255 255
39.343731 28.853323 -0.90339196 255 255 255
49.655846 17.820156 -0.90071672 255 255 255
57.395496 10.777331 -0.85439414 255 255 255
51.518024 17.65395 -0.90769267 255 255 255
-33.532429 76.441277 -0.89473593 255 255 255
33.984859 37.673706 -0.93051136 255 255 255
60.893505 5.6011949 -0.89075589 255 255 255
-38.732914 86.936211 -0.79006159 255 255 255
51.830936 14.286427 -0.87387526 255 255 255
43.391056 29.530342 -0.88998783 255 255 255
38.530319 29.678717 -0.9016856 255 255 255
38.067852 28.238598 -0.87952501 255 255 255
45.015762 23.390118 -0.87984067 255 255 255
48.55991 20.779533 -0.88216281 255 255 255
50.827591 19.699039 -0.93529874 255 255 255
44.818047 15.689554 -0.79348165 255 255 255
54.132641 15.064381 -0.88377905 255 255 255
61.107662 6.5395589 -0.94652134 255 255 255
50.92688 16.542032 -0.91125166 255 255 255
35.588177 35.484386 -0.92942977 255 255 255
34.020554 34.61245 -0.9007386 255 255 255
38.745655 27.33461 -0.81196696 255 255 255
40.21867 27.069336 -0.88454014 255 255 255
56.19429 14.695014 -0.87912542 255 255 255
62.014202 7.3748693 -0.85981375 255 255 255
47.799389 19.923698 -0.88894033 255 255 255
51.173798 13.608083 -0.8598299 255 255 255
42.922626 24.515074 -0.89282936 255 255 255
60.614708 18.67235 -0.87001973 255 255 255
38.853561 29.408436 -0.90513879 255 255 255
54.687649 12.345232 -0.87772804 255 255 255
46.150021 22.627987 -0.86985153 255 255 255
61.94241 25.236219 -0.82204527 255 255 255
38.850914 28.616152 -0.88147753 255 255 255
71.861755 -4.3412499 -0.86376458 255 255 255
37.456322 32.044228 -0.88776672 255 255 255
55.785042 11.56727 -0.92304903 255 255 255
48.542358 23.309471 -0.92272514 255 255 255
33.448765 38.844604 -0.91164267 255 255 255
59.623554 6.4435501 -0.88610989 255 255 255
59.300674 -0.54232454 -0.76063788 255 255 255
48.478485 24.558405 -0.9497081 255 255 255
-9.6647978 69.848961 -0.89378726 255 255 255
29.887335 40.673424 -0.8949843 255 255 255
53.14917 15.336706 -0.90277022 255 255 255
71.073753 -10.397286 -0.7892915 255 255 255
37.316357 35.401371 -0.93090105 255 255 255
-79.371155 119.80779 -0.7790668 255 255 255
46.682907 21.506268 -0.90598589 255 255 255
43.391552 33.857162 -0.92928147 255 255 255
56.246101 14.923601 -0.87690479 255 255 255
39.458778 28.199667 -0.89098006 255 255 255
35.250961 31.239872 -0.87316024 255 255 255
50.268562 25.91835 -0.92438424 255 255 255
56.676853 7.3188982 -0.84696001 255 255 255
23.679924 42.269993 -0.82765716 255 255 255
36.051052 36.378963 -0.93589115 255 255 255
53.927322 16.252794 -0.91805673 255 255 255
68.206017 -2.451174 -0.90192133 255 255 255
-40.368465 95.87545 -0.8155247 255 255 255
60.920776 22.079296 -0.82068175 255 255 255
68.769836 5.9254513 -0.84810722 255 255 255
-18.555603 79.945465 -0.88875848 255 255 255
43.254013 27.593891 -0.89997059 255 255 255
62.648026 9.4851542 -0.93895859 255 255 255
50.051075 20.684557 -0.91218233 255 255 255
42.307228 24.9128 -0.88665354 255 255 255
38.098667 31.711557 -0.92542201 255 255 255
47.589638 20.569096 -0.87584627 255 255 255
47.180023 18.686592 -0.85785717 255 255 255
-49.530807 98.700089 -0.71207428 255 255 255
-9.5881977 69.637489 -0.8951115 255 255 255
-0.12300833 64.132401 -0.90780318 255 255 255
46.822708 19.875519 -0.88829273 255 255 255
58.269699 10.425314 -0.93631333 255 255 255
50.486431 15.080489 -0.87805957 255 255 255
42.845139 28.834339 -0.93364465 255 255 255
45.195751 25.102598 -0.92349941 255 255 255
35.220943 35.519291 -0.93323314 255 255 255
49.317787 19.640129 -0.92964298 255 255 255
46.418762 20.469219 -0.88529629 255 255 255
45.259106 25.310003 -0.90153718 255 255 255
-14.277047 76.15477 -0.91117603 255 255 255
52.969517 13.347486 -0.8813861 255 255 255
43.265598 30.403017 -0.91140532 255 255 255
62.527653 3.5392139 -0.85747039 255 255 255
39.227558 52.669189 -0.8763628 255 255 255
-22.957846 80.025444 -0.84601778 255 255 255
38.05394 29.773235 -0.8878786 255 255 255
49.982899 20.240814 -0.91897064 255 255 255
39.407352 26.928783 -0.87118423 255 255 255
46.020214 23.17737 -0.87652367 255 255 255
59.838829 6.7400036 -0.87681723 255 255 255
37.983414 32.170055 -0.91745585 255 255 255
59.363789 7.5054584 -0.8801142 255 255 255
40.124603 32.730518 -0.93220228 255 255 255
-38.429573 90.197891 -0.82955736 255 255 255
54.20026 15.355146 -0.9312762 255 255 255
38.677551 30.140423 -0.90954483 255 255 255
51.803593 17.224422 -0.89559489 255 255 255
54.169632 12.519491 -0.89444834 255 255 255
51.919312 16.381184 -0.89712703 255 255 255
33.865566 33.844154 -0.89629704 255 255 255
60.455517 8.070694 -0.93643385 255 255 255
46.629166 23.790344 -0.9198885 255 255 255
72.946411 -7.7634869 -0.89380175 255 255 255
46.548161 24.580532 -0.94277459 255 255 255
28.416655 44.255619 -0.92658305 255 255 255
62.647797 0.75543517 -0.80779904 255 255 255
45.500046 25.210094 -0.90797997 255 255 255
43.759941 23.23321 -0.8876583 255 255 255
-18.386412 75.871529 -0.86568427 255 255 255
41.909641 41.108028 -0.9283486 255 255 255
48.244965 20.846201 -0.90597987 255 255 255
72.775024 -9.0168848 -0.82462609 255 255 255
47.671276 20.16423 -0.91348302 255 255 255
53.21674 14.69105 -0.85761887 255 255 255
27.480892 36.280804 -0.79993677 255 255 255
70.74337 -6.6851935 -0.83323413 255 255 255
38.24353 48.114517 -0.91857386 255 255 255
36.611767 28.458887 -0.87153536 255 255 255
-33.671215 93.619667 -0.87653166 255 255 255
30.61149 33.872391 -0.84746844 255 255 255
61.353291 3.5511098 -0.84846443 255 255 255
46.237045 44.863651 -0.87734097 255 255 255
38.540771 53.030315 -0.90734416 255 255 255
52.78344 15.393552 -0.89627439 255 255 255
52.450558 16.21608 -0.87703788 255 255 255
55.756706 11.478296 -0.84551156 255 255 255
39.368458 33.017078 -0.93942344 255 255 255
42.300797 28.847569 -0.94109064 255 255 255
-66.49572 113.65763 -0.73105133 255 255 255
65.46843 0.027775403 -0.86057723 255 255 255
40.977753 26.99103 -0.87569922 255 255 255
45.716003 26.14856 -0.94319552 255 255 255
44.019348 25.446289 -0.92828232 255 255 255
-18.498732 75.790894 -0.89869291 255 255 255
43.525051 27.95232 -0.88566846 255 255 255
35.806911 37.045807 -0.92011863 255 255 255
-5.8880367 69.114761 -0.91342515 255 255 255
62.321747 11.120524 -0.93245578 255 255 255
41.054222 28.734686 -0.93096858 255 255 255
46.036808 22.865696 -0.87706542 255 255 255
72.58358 -8.615119 -0.83268183 255 255 255
46.105965 15.707126 -0.82122409 255 255 255
42.797779 43.529129 -0.91566747 255 255 255
60.566341 9.0232067 -0.94507587 255 255 255
37.542679 30.766029 -0.90170068 255 255 255
-35.25552 88.966866 -0.83017486 255 255 255
45.212322 26.092255 -0.89631444 255 255 255
48.372101 22.081596 -0.88125002 255 255 255
56.71925 12.090639 -0.85638833 255 255 255
64.093964 5.5094271 -0.85148126 255 255 255
33.624187 35.490993 -0.92337853 255 255 255
43.204762 30.228138 -0.92890924 255 255 255
38.098576 31.81391 -0.88442516 255 255 255
55.769127 14.458593 -0.93840444 255 255 255
1.2765703 59.048912 -0.89775854 255 255 255
-28.329355 89.845917 -0.82953131 255 255 255
46.345013 25.312704 -0.90742409 255 255 255
67.871582 -2.3320248 -0.88960969 255 255 255
46.602379 24.797314 -0.93075258 255 255 255
40.345348 27.682129 -0.90142077 255 255 255
54.726807 12.634995 -0.87734485 255 255 255
56.959869 9.6213951 -0.883075 255 255 255
74.063965 -9.6043501 -0.83529496 255 255 255
39.798931 31.733873 -0.93825597 255 255 255
60.71093 4.618526 -0.86365402 255 255 255
43.592384 23.739023 -0.89165878 255 255 255
38.802597 31.746489 -0.93683261 255 255 255
59.032959 11.772687 -0.9133566 255 255 255
36.80616 21.547056 -0.76110977 255 255 255
48.273006 17.952555 -0.89856941 255 255 255
26.675501 44.005638 -0.90032142 255 255 255
22.131048 41.725067 -0.79101753 255 255 255
42.920834 24.517803 -0.89284003 255 255 255
52.908314 14.046402 -0.89977461 255 255 255
40.885738 25.11902 -0.87880754 255 255 255
44.98138 20.301731 -0.85521936 255 255 255
67.732269 0.58730876 -0.85127282 255 255 255
23.206175 40.672482 -0.79351133 255 255 255
42.3209 28.654116 -0.92288244 255 255 255
24.715176 34.99509 -0.77928847 255 255 255
52.243626 18.554733 -0.92392647 255 255 255
42.506233 27.484941 -0.93724924 255 255 255
44.168663 26.628607 -0.93136334 255 255 255
47.536129 24.16909 -0.89028835 255 255 255
52.67886 16.620556 -0.90830547 255 255 255
54.734138 11.867452 -0.87590748 255 255 255
54.389992 12.359477 -0.89684784 255 255 255
55.4533 13.370628 -0.90782768 255 255 255
33.689564 33.539608 -0.87230939 255 255 255
26.266003 23.852079 -0.65899712 255 255 255
55.644142 13.969273 -0.90755153 255 255 255
66.780968 -1.6208223 -0.84628004 255 255 255
49.699921 19.210451 -0.89335018 255 255 255
40.771027 28.734339 -0.92228556 255 255 255
56.090389 12.104454 -0.8863247 255 255 255
48.697468 13.160775 -0.80051541 255 255 255
38.865932 28.902426 -0.8923021 255 255 255
30.288927 41.205185 -0.91333872 255 255 255
-37.432079 93.484711 -0.86736208 255 255 255
43.799332 22.019993 -0.87070078 255 255 255
54.766476 14.055199 -0.9356696 255 255 255
48.148304 23.406849 -0.92857683 255 255 255
39.945724 29.384508 -0.91333169 255 255 255
-83.575821 131.28329 -0.68101132 255 255 255
-19.326994 77.30172 -0.89801788 255 255 255
81.621353 -17.448696 -0.87927783 255 255 255
47.183159 27.650442 -0.8738178 255 255 255
44.15123 23.234697 -0.88259071 255 255 255
38.370979 30.068916 -0.91017455 255 255 255
55.734081 10.067834 -0.87086529 255 255 255
37.441799 38.265724 -0.91836554 255 255 255
52.860443 15.084633 -0.85957289 255 255 255
34.730255 52.275528 -0.9077068 255 255 255
23.7997 41.713566 -0.82079691 255 255 255
41.777802 27.613308 -0.87529814 255 255 255
52.301357 15.222501 -0.89730591 255 255 255
54.099705 11.675146 -0.89656818 255 255 255
42.726494 24.695433 -0.89198214 255 255 255
42.042561 27.080444 -0.90904289 255 255 255
51.057343 19.445574 -0.92404521 255 255 255
48.267998 22.233915 -0.91346848 255 255 255
58.421371 7.4851394 -0.86181968 255 255 255
48.61182 21.840673 -0.91072512 255 255 255
47.964851 19.954727 -0.88915217 255 255 255
36.817791 34.731098 -0.89253652 255 255 255
39.440022 45.174614 -0.91801375 255 255 255
-8.1783953 67.101204 -0.87482464 255 255 255
61.41061 6.4587159 -0.92449582 255 255 255
49.477608 21.969852 -0.9417277 255 255 255
53.3535 15.059508 -0.90986675 255 255 255
56.079121 11.751246 -0.94210666 255 255 255
56.130676 13.990068 -0.89017636 255 255 255
24.474077 41.008781 -0.82165766 255 255 255
50.099674 21.073017 -0.91919088 255 255 255
70.149239 -4.3087134 -0.8745029 255 255 255
49.120708 19.87842 -0.90101331 255 255 255
-11.482241 71.830688 -0.89113039 255 255 255
62.400425 4.0731559 -0.91165787 255 255 255
54.538425 13.979591 -0.89450347 255 255 255
-30.541592 85.569588 -0.83384645 255 255 255
60.181454 12.357785 -0.88864148 255 255 255
38.977959 31.111395 -0.92118645 255 255 255
33.260151 37.581875 -0.93083364 255 255 255
64.549004 0.41151145 -0.83903688 255 255 255
-49.391453 101.65044 -0.80371243 255 255 255
57.631065 8.0886278 -0.7366116 255 255 255
47.745132 37.536339 -0.86278003 255 255 255
36.916435 33.914978 -0.93561751 255 255 255
47.653877 23.929398 -0.88108647 255 255 255
-2.5563021 66.110413 -0.9009667 255 255 255
55.965122 10.451001 -0.86439985 255 255 255
-14.197191 70.046059 -0.84642673 255 255 255
64.577995 0.62802511 -0.86694574 255 255 255
50.322556 17.261238 -0.88476288 255 255 255
58.687065 7.955689 -0.87513238 255 255 255
37.349331 35.893715 -0.93906075 255 255 255
46.183685 23.609581 -0.91419995 255 255 255
54.078293 9.2109556 -0.83697653 255 255 255
65.560097 12.520867 -0.86213237 255 255 255
79.57811 -12.987743 -0.91319585 255 255 255
-2.3513513 63.452564 -0.88075125 255 255 255
51.399097 19.48991 -0.89999831 255 255 255
48.648621 20.123802 -0.88806295 255 255 255
47.342266 22.031603 -0.94095874 255 255 255
39.094421 35.363041 -0.90276718 255 255 255
36.749836 31.95685 -0.91605306 255 255 255
64.3461 14.531157 -0.82604152 255 255 255
53.997158 26.557489 -0.88928902 255 255 255
49.569038 21.860247 -0.9355616 255 255 255
71.810738 -5.8919964 -0.86520243 255 255 255
51.553951 13.403526 -0.86078554 255 255 255
33.732342 29.239269 -0.83162707 255 255 255
37.246944 29.640791 -0.89008659 255 255 255
27.293741 43.437943 -0.90169942 255 255 255
47.675747 24.77762 -0.9049803 255 255 255
47.020462 22.682486 -0.87090075 255 255 255
37.872543 31.180513 -0.90830123 255 255 255
36.824104 34.680458 -0.93406051 255 255 255
47.07518 23.961685 -0.90543455 255 255 255
36.065556 44.409706 -0.83074915 255 255 255
52.530407 21.385672 -0.91763443 255 255 255
23.845039 45.173225 -0.88069731 255 255 255
48.925991 18.276928 -0.87742591 255 255 255
39.313633 28.250471 -0.8745988 255 255 255
48.544838 18.764183 -0.89147866 255 255 255
41.732555 16.028109 -0.76190859 255 255 255
59.995121 6.6075492 -0.87709367 255 255 255
45.421249 22.961597 -0.91139328 255 255 255
39.490158 29.180771 -0.91324574 255 255 255
61.180984 2.9636867 -0.84148264 255 255 255
59.692909 4.9446607 -0.85018188 255 255 255
63.448643 5.4812703 -0.86756158 255 255 255
46.765831 20.925962 -0.88919187 255 255 255
23.770147 41.815464 -0.819309 255 255 255
94.656799 -32.652813 -0.86444646 255 255 255
39.870907 29.8398 -0.91045105 255 255 255
50.744286 16.797991 -0.89496696 255 255 255
39.503841 28.562906 -0.88556486 255 255 255
31.386343 41.951313 -0.92504925 255 255 255
67.736084 -0.62267703 -0.88114685 255 255 255
44.84798 26.128151 -0.93799174 255 255 255
50.162785 16.761374 -0.89307135 255 255 255
42.743061 28.426746 -0.94002098 255 255 255
58.082893 6.3717394 -0.83466637 255 255 255
48.054989 24.66958 -0.89128381 255 255 255
-15.872076 73.569817 -0.90538633 255 255 255
59.57655 7.2685132 -0.91652983 255 255 255
31.18664 36.967999 -0.87215251 255 255 255
60.209648 11.42802 -0.86066067 255 255 255
68.428185 1.6065937 -0.84706753 255 255 255
28.530241 39.952229 -0.88825011 255 255 255
31.185759 39.659191 -0.91489416 255 255 255
47.307384 20.921137 -0.8925119 255 255 255
24.644461 39.114777 -0.84372509 255 255 255
72.741959 -7.3112993 -0.9095068 255 255 255
31.288143 42.511768 -0.92452687 255 255 255
64.742271 0.90457058 -0.82806993 255 255 255
50.209991 20.41275 -0.89792925 255 255 255
60.159447 5.3844013 -0.87005007 255 255 255
57.55101 5.6363268 -0.84242362 255 255 255
58.392586 9.0745878 -0.89056319 255 255 255
69.991936 -7.407249 -0.83040196 255 255 255
53.462582 15.444766 -0.91360748 255 255 255
51.9799 31.246731 -0.86021882 255 255 255
53.102314 13.590206 -0.84681571 255 255 255
48.164341 23.01025 -0.92637914 255 255 255
-38.756397 95.134941 -0.8870452 255 255 255
43.085754 25.200983 -0.91473156 255 255 255
39.146801 30.732965 -0.90817177 255 255 255
40.48579 27.425947 -0.89894271 255 255 255
47.999664 22.104494 -0.91323882 255 255 255
55.645874 11.007401 -0.8648994 255 255 255
58.98951 10.164304 -0.9101131 255 255 255
54.727337 11.012369 -0.86768651 255 255 255
-46.53212 102.25688 -0.85850263 255 255 255
34.821205 36.480724 -0.93611836 255 255 255
58.755051 12.80004 -0.88303286 255 255 255
66.408089 0.026316334 -0.93208307 255 255 255
39.487755 34.507313 -0.9359743 255 255 255
40.946457 28.398775 -0.91402698 255 255 255
38.954254 34.532978 -0.92365611 255 255 255
46.464481 20.822052 -0.88172144 255 255 255
50.332272 15.270261 -0.8776961 255 255 255
30.912241 37.017838 -0.88970751 255 255 255
46.171963 20.614107 -0.88252932 255 255 255
72.988747 -7.8135848 -0.8938902 255 255 255
30.034216 42.798962 -0.92403316 255 255 255
52.740513 14.530359 -0.89644742 255 255 255
47.19537 23.58499 -0.9432525 255 255 255
61.458832 5.5509458 -0.9341498 255 255 255
43.576431 25.181328 -0.91505146 255 255 255
77.578918 -12.630072 -0.86298269 255 255 255
49.445759 19.632936 -0.91649765 255 255 255
47.12204 23.385616 -0.904414 255 255 255
53.180779 10.692492 -0.85280532 255 255 255
48.928017 9.6030502 -0.80600184 255 255 255
43.122944 24.092516 -0.88780254 255 255 255
45.698708 25.563978 -0.94298041 255 255 255
41.910244 29.471172 -0.94044107 255 255 255
48.628498 20.180693 -0.91802084 255 255 255
58.65247 9.7146635 -0.88567013 255 255 255
55.89608 16.363935 -0.89069843 255 255 255
72.382004 -7.1230407 -0.85957885 255 255 255
43.814953 28.571049 -0.94859105 255 255 255
53.734318 22.0627 -0.91728073 255 255 255
79.917107 -15.260139 -0.90974337 255 255 255
59.511494 8.3388176 -0.90235001 255 255 255
39.534325 30.78949 -0.94195753 255 255 255
72.721611 -7.7965899 -0.85481799 255 255 255
48.72279 18.495832 -0.89842242 255 255 255
56.14632 19.448639 -0.93289846 255 255 255
43.763145 25.423313 -0.91228908 255 255 255
47.130116 30.995457 -0.91755337 255 255 255
37.583965 35.725956 -0.90679425 255 255 255
-13.246463 72.737335 -0.89740384 255 255 255
81.674065 -15.325125 -0.87270683 255 255 255
58.91003 8.2902508 -0.91339546 255 255 255
45.747322 21.902132 -0.90383571 255 255 255
32.066475 39.506596 -0.92736441 255 255 255
82.602478 -13.723327 -0.78417289 255 255 255
-53.443394 105.66834 -0.84187877 255 255 255
39.498444 30.418196 -0.92344338 255 255 255
44.18475 23.56946 -0.9032225 255 255 255
54.431774 12.910337 -0.84560388 255 255 255
-61.438084 120.86213 -0.83542597 255 255 255
47.969654 21.613451 -0.86787361 255 255 255
50.906742 17.748737 -0.91272765 255 255 255
52.296299 14.366045 -0.8857761 255 255 255
61.742043 9.4995708 -0.86623573 255 255 255
37.419586 34.30423 -0.91261703 255 255 255
30.205885 40.348103 -0.89236623 255 255 255
-6.7108169 67.58625 -0.88836992 255 255 255
49.710842 19.168238 -0.91721022 255 255 255
28.890053 38.455887 -0.89521086 255 255 255
56.45866 12.144457 -0.86655039 255 255 255
47.473888 25.276318 -0.92182839 255 255 255
57.204052 13.010386 -0.88840842 255 255 255
61.295017 3.8022869 -0.82607126 255 255 255
54.117729 20.480768 -0.92363364 255 255 255
39.058014 31.760815 -0.9401595 255 255 255
41.385365 27.524008 -0.90993708 255 255 255
29.175169 35.838406 -0.86621684 255 255 255
43.495209 28.993134 -0.9118948 255 255 255
23.657606 42.285938 -0.82754278 255 255 255
50.471191 19.021063 -0.88179696 255 255 255
23.434086 43.489689 -0.92995352 255 255 255
41.148716 29.588934 -0.92942876 255 255 255
29.550884 40.98481 -0.9294976 255 255 255
62.381237 4.0917521 -0.91158056 255 255 255
50.797504 15.471948 -0.89417481 255 255 255
36.593006 28.481895 -0.87151694 255 255 255
-31.400688 85.520386 -0.8147999 255 255 255
39.747974 30.231359 -0.91730952 255 255 255
59.153378 11.573503 -0.8843621 255 255 255
35.70451 33.324368 -0.91171962 255 255 255
39.708797 31.000919 -0.90201265 255 255 255
61.588486 5.4879508 -0.92382246 255 255 255
35.53793 32.933483 -0.87003547 255 255 255
35.179676 36.969242 -0.9310537 255 255 255
56.631168 12.441682 -0.89601165 255 255 255
50.625942 17.396334 -0.89686686 255 255 255
50.622131 19.785488 -0.93363869 255 255 255
45.349449 24.280346 -0.91440141 255 255 255
52.771446 16.807117 -0.90672266 255 255 255
50.236488 17.987696 -0.89631188 255 255 255
44.487732 25.443848 -0.93145567 255 255 255
-15.407966 77.661995 -0.87390816 255 255 255
70.684723 -6.6190166 -0.83380646 255 255 255
54.153709 12.536823 -0.89445597 255 255 255
44.492455 26.700407 -0.91963238 255 255 255
54.705532 15.347574 -0.89462787 255 255 255
49.774136 17.691763 -0.90783852 255 255 255
41.202274 33.553158 -0.93291938 255 255 255
49.551426 21.885794 -0.93556774 255 255 255
42.398746 29.115847 -0.8983165 255 255 255
55.682156 24.278095 -0.82478201 255 255 255
42.599834 35.388683 -0.92758369 255 255 255
37.600384 33.423534 -0.90549099 255 255 255
50.86898 19.541307 -0.93698901 255 255 255
69.723587 -2.4030564 -0.88112712 255 255 255
71.034355 -5.182086 -0.92738175 255 255 255
55.32156 13.093756 -0.94150424 255 255 255
52.98373 18.145107 -0.89584315 255 255 255
54.381523 13.826847 -0.88294899 255 255 255
55.214443 15.862979 -0.89440668 255 255 255
63.767975 0.96452767 -0.84862059 255 255 255
63.344193 4.2303629 -0.89421409 255 255 255
50.024677 12.986783 -0.84985185 255 255 255
-19.055 81.599426 -0.88483053 255 255 255
52.878868 11.126774 -0.85710746 255 255 255
71.909035 -5.7016606 -0.88008302 255 255 255
44.449829 22.876421 -0.89277852 255 255 255
83.187111 -14.875702 -0.79996789 255 255 255
48.428474 21.835945 -0.94144058 255 255 255
45.049088 24.724752 -0.91163868 255 255 255
55.178909 18.071732 -0.94028747 255 255 255
61.283348 5.6463976 -0.92956418 255 255 255
51.035233 16.190563 -0.89987725 255 255 255
61.264797 17.041807 -0.8237561 255 255 255
39.340828 28.851265 -0.90335566 255 255 255
45.861374 27.210709 -0.92992413 255 255 255
46.979473 22.665926 -0.88666821 255 255 255
39.919682 24.660322 -0.85325414 255 255 255
37.664459 34.912743 -0.92244864 255 255 255
37.669518 31.243011 -0.87800145 255 255 255
-24.064346 82.802261 -0.86729318 255 255 255
54.399574 12.357791 -0.8969323 255 255 255
45.42424 23.475674 -0.90286905 255 255 255
45.404911 23.872486 -0.90474534 255 255 255
61.216381 13.354295 -0.84473544 255 255 255
63.167221 4.1497316 -0.84544837 255 255 255
60.092762 2.7415652 -0.85247481 255 255 255
35.269001 34.552479 -0.92859048 255 255 255
26.969191 38.989601 -0.84256512 255 255 255
43.275551 39.530483 -0.87581515 255 255 255
51.531712 21.483768 -0.92393368 255 255 255
68.484917 -4.115025 -0.84159386 255 255 255
44.857281 22.96821 -0.90145677 255 255 255
68.716881 -5.5732374 -0.80552667 255 255 255
-16.306919 74.083488 -0.90742832 255 255 255
-17.971773 69.354813 -0.81220984 255 255 255
27.603519 43.007015 -0.89397758 255 255 255
45.293686 43.341751 -0.91345495 255 255 255
45.535858 21.722815 -0.88332629 255 255 255
63.163151 3.5605307 -0.86479169 255 255 255
48.663746 20.26071 -0.9208352 255 255 255
73.570847 -7.6842608 -0.85611057 255 255 255
29.122696 40.673996 -0.93146074 255 255 255
35.018436 34.512463 -0.90498894 255 255 255
44.484062 25.916492 -0.92471588 255 255 255
55.750374 10.045032 -0.87085176 255 255 255
44.712193 46.257988 -0.92010385 255 255 255
49.44915 19.882418 -0.93265694 255 255 255
29.990599 37.352791 -0.88325697 255 255 255
24.151983 41.25177 -0.81963444 255 255 255
37.551922 33.52763 -0.92761189 255 255 255
64.312546 2.3205798 -0.93028474 255 255 255
67.344536 -2.9261477 -0.84247327 255 255 255
53.778015 15.968188 -0.92073238 255 255 255
61.864418 8.1171894 -0.89826077 255 255 255
48.802284 17.81559 -0.88773996 255 255 255
63.388489 2.9245915 -0.84430641 255 255 255
38.231758 48.105618 -0.91862398 255 255 255
48.858421 23.477188 -0.88343477 255 255 255
78.826149 -15.191003 -0.82225257 255 255 255
52.859398 15.598224 -0.89550549 255 255 255
42.831886 23.445702 -0.89891487 255 255 255
47.927273 21.797842 -0.91837162 255 255 255
-9.8841877 68.990891 -0.84188646 255 255 255
-24.925842 83.877289 -0.8966186 255 255 255
59.308952 5.1054063 -0.83573043 255 255 255
53.438 14.243312 -0.92711306 255 255 255
59.591751 7.2502007 -0.91645139 255 255 255
87.50634 -24.381035 -0.86836326 255 255 255
46.740658 19.913187 -0.88054329 255 255 255
54.412827 9.4170437 -0.8487764 255 255 255
46.33886 24.209034 -0.93653965 255 255 255
39.125404 32.267963 -0.93518376 255 255 255
44.403328 42.228695 -0.91341084 255 255 255
62.824421 4.1646104 -0.86975265 255 255 255
66.406677 5.2015738 -0.92981082 255 255 255
59.106869 8.330658 -0.88252723 255 255 255
47.027996 35.405865 -0.8653025 255 255 255
42.717121 39.745846 -0.86624599 255 255 255
62.349758 5.9223199 -0.85444528 255 255 255
42.741234 26.091555 -0.89012867 255 255 255
70.962784 -6.8152723 -0.83784437 255 255 255
32.006966 36.553074 -0.89844316 255 255 255
49.916878 25.991909 -0.88066334 255 255 255
77.067513 -19.145342 -0.80904412 255 255 255
25.273123 43.351494 -0.91215384 255 255 255
44.340809 26.265848 -0.9330458 255 255 255
49.726456 19.085566 -0.93507856 255 255 255
50.232094 16.673246 -0.89282459 255 255 255
86.665024 -20.584539 -0.7922861 255 255 255
75.245499 -11.104033 -0.8728435 255 255 255
56.204426 12.072362 -0.92700821 255 255 255
44.48315 27.306707 -0.93803078 255 255 255
-10.470146 72.800369 -0.91887867 255 255 255
-12.43436 74.37574 -0.85040236 255 255 255
53.419628 14.260287 -0.92698997 255 255 255
39.893349 31.438457 -0.88084465 255 255 255
35.324409 35.260159 -0.90796143 255 255 255
60.334045 11.630483 -0.85113662 255 255 255
47.568272 19.748627 -0.89879388 255 255 255
61.364632 4.3797851 -0.83138353 255 255 255
-49.342857 105.78847 -0.79998857 255 255 255
49.071655 22.166937 -0.94332969 255 255 255
38.499146 29.506025 -0.87280905 255 255 255
40.821686 30.677652 -0.91178495 255 255 255
57.10117 8.8003922 -0.86704117 255 255 255
56.189411 9.4068699 -0.86546534 255 255 255
39.973206 28.468378 -0.87259382 255 255 255
51.783028 15.879123 -0.89149457 255 255 255
41.919277 30.202553 -0.90053344 255 255 255
41.197495 27.996208 -0.89993602 255 255 255
52.543224 16.210642 -0.89510876 255 255 255
81.588341 -17.414391 -0.87936485 255 255 255
38.969482 43.91555 -0.85535675 255 255 255
41.495903 26.78491 -0.90333992 255 255 255
49.290016 35.963493 -0.8422159 255 255 255
60.165901 2.7998056 -0.82755172 255 255 255
55.926525 10.127931 -0.86946046 255 255 255
48.3885 19.48698 -0.88760704 255 255 255
47.061672 21.078239 -0.88696074 255 255 255
56.534519 8.7991247 -0.8419351 255 255 255
49.560406 17.945717 -0.90840876 255 255 255
75.318047 -11.730086 -0.82352227 255 255 255
55.919197 11.712305 -0.89724821 255 255 255
22.140625 41.707161 -0.79085791 255 255 255
53.140778 16.489386 -0.90524453 255 255 255
79.33046 -12.507685 -0.88152748 255 255 255
37.095764 31.376312 -0.90454561 255 255 255
45.435646 27.406569 -0.93043107 255 255 255
56.948772 9.5276566 -0.87726974 255 255 255
44.668228 25.119839 -0.90956205 255 255 255
-60.031433 113.04807 -0.8475588 255 255 255
47.293934 24.547287 -0.93572658 255 255 255
54.622471 15.529854 -0.86925662 255 255 255
37.685993 31.553076 -0.91215742 255 255 255
49.338444 19.326069 -0.91364259 255 255 255
39.84576 34.529297 -0.93912977 255 255 255
37.939423 29.640148 -0.8636862 255 255 255
58.959335 8.6343412 -0.9455514 255 255 255
35.688587 35.333523 -0.91994584 255 255 255
43.809799 26.406067 -0.90159661 255 255 255
43.997849 28.676115 -0.93603134 255 255 255
73.235962 -6.9347496 -0.93637717 255 255 255
43.738884 30.48843 -0.93324739 255 255 255
55.001678 14.904297 -0.90016365 255 255 255
57.060772 18.764521 -0.85710269 255 255 255
45.987106 25.276127 -0.90123558 255 255 255
37.412949 35.872353 -0.91193974 255 255 255
43.231407 24.378384 -0.89564371 255 255 255
55.768997 12.204558 -0.87846738 255 255 255
47.34811 24.409168 -0.93961191 255 255 255
49.333641 14.787615 -0.85273546 255 255 255
54.927387 11.955001 -0.89180547 255 255 255
58.162239 9.1308327 -0.86368889 255 255 255
49.69109 18.536217 -0.8925029 255 255 255
38.189629 34.989147 -0.93109137 255 255 255
44.147415 28.174545 -0.92199558 255 255 255
45.764748 27.371519 -0.93493241 255 255 255
72.575249 -8.7647896 -0.82636088 255 255 255
-35.267715 92.442322 -0.83078396 255 255 255
56.374229 9.6847858 -0.88135087 255 255 255
49.377674 20.891455 -0.92513949 255 255 255
38.052536 29.448633 -0.88496661 255 255 255
52.143585 25.000484 -0.87074167 255 255 255
57.760334 7.4952631 -0.84938478 255 255 255
57.33337 10.02948 -0.88614607 255 255 255
-12.890718 74.621246 -0.92022562 255 255 255
43.044518 24.190767 -0.88819343 255 255 255
33.376007 32.924774 -0.83259684 255 255 255
