ply
format ascii 1.0
comment PCL generated
element vertex 1108
property float x
property float y
property float z
property uchar red
property uchar green
property uchar blue
element face 0
element camera 0
property float view_px
property float view_py
property float view_pz
property float x_axisx
property float x_axisy
property float x_axisz
property float y_axisx
property float y_axisy
property float y_axisz
property float z_axisx
property float z_axisy
property float z_axisz
property float focal
property float scalex
property float scaley
property float centerx
property float centery
property int viewportx
property int viewporty
property float k1
property float k2
end_header
-314.98074 -384.4895 -1.9794326 255 255 255
849.0061 313.16568 0.92884839 255 255 255
1417.9695 808.49707 3.3033659 255 255 255
2683.7498 1298.0188 5.1338639 255 255 255
648.62543 890.74146 1.9371433 255 255 255
12092.306 3774.1702 13.117221 255 255 255
1771.6862 1328.9093 4.4310851 255 255 255
-3903.0381 -5424.5654 -14.126273 255 255 255
2455.2454 1335.3579 4.6680522 255 255 255
2157.4944 1865.0692 3.8745332 255 255 255
-1436.4097 -916.31488 -3.983824 255 255 255
1143.3881 969.26733 2.6816986 255 255 255
3717.2383 2468.6824 5.3951788 255 255 255
297.0798 462.96945 1.204053 255 255 255
2515.0098 2242.1084 7.3112779 255 255 255
-779.85504 -698.07568 -3.0505319 255 255 255
1396.5433 1515.1549 2.7887704 255 255 255
3408.5293 1357.7069 3.3059082 255 255 255
3717.5437 2381.3682 5.4725962 255 255 255
-22033.885 -15945.352 -57.30558 255 255 255
1345.1089 1228.075 2.9515197 255 255 255
626.75781 440.87204 0.78943843 255 255 255
995.67194 701.58252 2.5259223 255 255 255
1367.7548 1692.3992 2.9804568 255 255 255
40236.57 32639.104 61.132782 255 255 255
861.45795 612.59076 2.054132 255 255 255
795.45557 790.02051 1.8091353 255 255 255
1412.1967 914.20435 3.1887827 255 255 255
5522.8589 1861.8131 5.8447242 255 255 255
-940.39252 -996.4953 -4.9981604 255 255 255
-397.0282 -263.37418 -1.5262598 255 255 255
1327.2148 1275.2529 2.9250464 255 255 255
-4665.7632 -4668.0801 -12.571926 255 255 255
-2386.9927 -1450.8687 -4.7373104 255 255 255
-908.70905 -232.71243 -1.9623038 255 255 255
1642.8319 1007.693 3.7958181 255 255 255
12424.814 3804.6865 13.484829 255 255 255
4495.2939 3563.7461 5.6668239 255 255 255
4903.3745 2701.7458 6.6276717 255 255 255
1184.3636 1412.1176 2.7463238 255 255 255
2207.1392 2259.3877 6.9867601 255 255 255
1091.0601 1038.9321 3.3672028 255 255 255
1390.0282 1037.02 3.629591 255 255 255
1197.488 1375.8618 2.7545817 255 255 255
-1788.0162 -995.78387 -4.530025 255 255 255
-1408.4878 -799.29846 -3.3489704 255 255 255
3917.2512 4147.0708 11.267274 255 255 255
669.60541 994.78882 2.0081081 255 255 255
554.14545 728.19244 1.4111849 255 255 255
4714.8516 2883.5703 6.2350979 255 255 255
1675.2007 1112.998 3.5350108 255 255 255
2623.7976 1041.8528 5.528892 255 255 255
2960.0271 5577.8608 8.2753601 255 255 255
3771.7703 2115.2488 9.7008467 255 255 255
-9117.21 -7212.5562 -25.266485 255 255 255
728.43042 423.24203 1.677192 255 255 255
-983.17389 -779.75427 -3.8503356 255 255 255
632.86084 1178.7787 2.0662811 255 255 255
2042.1267 1756.359 5.0777726 255 255 255
5063.8286 2658.2161 6.8806129 255 255 255
-1627.6917 -1353.371 -4.1127872 255 255 255
720.54376 228.24135 1.503724 255 255 255
-1159.6265 -453.89813 -2.4033265 255 255 255
702.30597 1493.4253 2.3019843 255 255 255
891.56799 1404.144 2.4167366 255 255 255
-374.50473 -469.47687 -1.9780725 255 255 255
6165.8384 2850.1943 13.650455 255 255 255
2064.7876 2164.752 5.9436083 255 255 255
1258.1438 1249.6039 2.8275266 255 255 255
1598.0245 967.44592 3.5021482 255 255 255
5213.6069 2692.3787 7.0201306 255 255 255
-1015.2695 -990.10944 -2.2737043 255 255 255
717.26282 1389.1866 2.3375165 255 255 255
-4631.6592 -4017.2324 -6.9983912 255 255 255
2886.5784 3881.1875 8.8658018 255 255 255
619.41644 1204.6986 2.0681605 255 255 255
2043.1725 1811.2803 5.605401 255 255 255
695.5661 664.33435 1.0420868 255 255 255
-842.0224 -3952.8567 -8.0785418 255 255 255
-4324.8135 -3742.8682 -10.204701 255 255 255
-4291.9966 -5999.8975 -18.179073 255 255 255
8791.7061 2983.2466 11.213507 255 255 255
2185.3579 1881.3699 3.9040661 255 255 255
1369.7225 1136.2469 3.0114982 255 255 255
-38101.539 -25833.766 -89.777756 255 255 255
1011.0739 610.65802 2.6405177 255 255 255
-1210.2267 -1543.9282 -3.9611921 255 255 255
1295.9019 1209.1174 2.8850949 255 255 255
2043.6757 1852.8495 3.7316194 255 255 255
2244.4045 1339.5271 4.2946854 255 255 255
-18297.127 -14035.479 -44.255154 255 255 255
894.67065 518.29565 1.8646452 255 255 255
3634.77 2575.5938 9.7848997 255 255 255
-854.87866 -1133.9869 -3.2899086 255 255 255
-1255.5306 -542.80646 -3.0713778 255 255 255
1553.3962 7066.8428 10.341857 255 255 255
1441.8663 1528.6731 3.048862 255 255 255
928.12561 945.74005 1.903736 255 255 255
-1481.1246 -1502.4535 -4.8653326 255 255 255
843.3374 1125.6713 2.2612391 255 255 255
3765.5264 1898.3412 8.405509 255 255 255
821.4978 1234.9032 2.2766681 255 255 255
-1839.5597 -2616.8491 -7.0100818 255 255 255
7112.1284 5230.0845 17.129795 255 255 255
11502.532 3790.937 12.42493 255 255 255
-151.79976 -241.23297 -1.3674495 255 255 255
884.46826 679.10083 2.3119099 255 255 255
-143.14908 -321.40134 -1.5394843 255 255 255
-956.65051 -216.85771 -3.3411653 255 255 255
6155.9453 3661.1768 14.409862 255 255 255
1433.0438 908.87927 3.2325237 255 255 255
1169.3289 1558.4753 2.7567611 255 255 255
-6748.5234 -3890.9155 -15.778759 255 255 255
1106.145 1042.9517 2.6097207 255 255 255
-423.60535 -222.13754 -1.5205582 255 255 255
1435.2595 1742.6555 4.2817678 255 255 255
653.89783 816.91162 1.9147376 255 255 255
-490.50522 -420.81805 -1.9145877 255 255 255
755.60748 1128.9083 2.5749788 255 255 255
582.27148 539.92102 0.80182219 255 255 255
1696.0432 1059.9504 3.6155214 255 255 255
-1378.7112 -736.38635 -2.6623847 255 255 255
1820.5454 1403.1851 3.5843275 255 255 255
588.05756 344.92499 0.71372056 255 255 255
1027.566 1264.3397 2.5197954 255 255 255
1648.5497 2003.3883 3.8074718 255 255 255
-1681.4349 -1107.1068 -4.4310036 255 255 255
887.8877 1272.8438 2.9789448 255 255 255
11670.422 3836.1667 12.474349 255 255 255
754.67572 675.1012 2.0580072 255 255 255
-5872.0439 -5681.2363 -17.888988 255 255 255
-451.64148 -494.65417 -1.9870926 255 255 255
2630.4407 3340.959 8.1798658 255 255 255
-48214.238 -42346.785 -144.3214 255 255 255
953.17261 1483.8754 2.3549159 255 255 255
18334.914 7557.396 42.159588 255 255 255
515.81915 352.81662 0.64958143 255 255 255
-7177.9429 -3182.6719 -16.864832 255 255 255
1366.2365 1414.1544 2.9531565 255 255 255
959.07886 1276.7203 2.4458315 255 255 255
62841.609 80092.461 153.07617 255 255 255
1638.5022 1520.0284 3.2920372 255 255 255
1873.4143 2485.6921 4.8752756 255 255 255
8752.3623 3685.5862 9.6914053 255 255 255
-1083.6014 -758.65533 -2.7506533 255 255 255
2552.7944 2591.3789 5.8913136 255 255 255
7571.4907 4880.459 17.3715 255 255 255
-2571.9077 -2608.4824 -6.5559168 255 255 255
11413.143 5839.1636 25.529726 255 255 255
1014.3801 1177.9847 2.4869826 255 255 255
28614.439 15643.247 36.772976 255 255 255
4531.7134 2118.6216 9.3042192 255 255 255
2876.4229 2219.4246 4.8048468 255 255 255
2392.8354 1439.043 5.3776112 255 255 255
696.00482 741.21381 1.3008554 255 255 255
839.76025 592.20557 1.0591985 255 255 255
1157.1343 818.63708 1.4814523 255 255 255
3412.801 1457.6339 7.5349164 255 255 255
-5620.1909 -5452.8486 -17.196987 255 255 255
-251.68773 -230.69662 -1.3078275 255 255 255
1322.8212 1004.0778 2.9739735 255 255 255
-1170.9551 -178.47218 -2.4408681 255 255 255
1689.173 1128.433 3.5454292 255 255 255
15082.896 9631.9424 35.184669 255 255 255
895.40051 1731.8855 2.5669129 255 255 255
-812.35522 -280.27731 -3.9597511 255 255 255
1264.9718 1295.1031 2.8375952 255 255 255
-6553.4868 -6749.0889 -18.600281 255 255 255
-1496.5199 -1213.7935 -3.8177853 255 255 255
3562.8159 2381.7654 4.2251892 255 255 255
654.53387 258.95554 0.64027029 255 255 255
2256.3499 1054.4969 4.7251663 255 255 255
-3545.6409 -1838.1742 -8.2308073 255 255 255
883.3725 1285.0065 2.3614674 255 255 255
-1272.9333 -1882.6459 -5.5417256 255 255 255
1342.9609 900.61639 3.0638204 255 255 255
855.91058 510.50061 1.8751916 255 255 255
2619.2144 1672.2087 4.5080447 255 255 255
12837.933 2494.1338 26.725376 255 255 255
765.37329 1363.8667 2.2825775 255 255 255
772.74988 1125.5724 2.1801217 255 255 255
3071.8684 1109.2216 6.3440061 255 255 255
5302.4126 2660.2944 7.1709085 255 255 255
827.27319 1038.3242 2.2125101 255 255 255
1393.266 870.75031 3.1024652 255 255 255
20444.246 10504.362 24.126675 255 255 255
2121.1848 1898.2498 3.8155217 255 255 255
-2539.25 -6669.5425 -12.058501 255 255 255
688.33636 1286.631 2.1771257 255 255 255
1373.0408 1804.9725 4.2694397 255 255 255
-8038.7539 -9777.6348 -24.338428 255 255 255
524.31824 603.38916 1.5881021 255 255 255
659.4079 584.46765 0.97685033 255 255 255
2085.5728 1040.1488 4.499156 255 255 255
-3728.7546 -4764.4595 -9.4036503 255 255 255
-2142.6125 -1368.0409 -4.5768423 255 255 255
3059.488 1478.7087 6.7441525 255 255 255
1001.8226 868.08258 2.4659572 255 255 255
890.20697 984.58649 2.2877574 255 255 255
8756.3779 2970.103 11.197041 255 255 255
3182.9299 1549.4053 6.8603811 255 255 255
1074.6598 1400.8955 2.6110559 255 255 255
1652.7123 1131.5442 3.4815435 255 255 255
105765.94 76290.211 257.85669 255 255 255
-7339.9448 -5899.1694 -18.786238 255 255 255
-8642.1631 -12275.963 -29.275255 255 255 255
1307.2854 1264.8197 2.8983943 255 255 255
-781.72937 -654.35468 -2.0185213 255 255 255
783.93787 80.813087 1.2998146 255 255 255
771.07733 996.20367 2.1318645 255 255 255
-2674.9077 -3425.2275 -11.6805 255 255 255
1510.7008 859.73669 2.9490991 255 255 255
744.77734 707.78473 2.0414009 255 255 255
-3378.1255 -1826.6682 -5.2794185 255 255 255
5417.5312 3261.5254 6.6870098 255 255 255
-5907.6782 -7653.96 -18.548353 255 255 255
1867.3835 1912.7848 4.3124695 255 255 255
644.17407 746.32587 1.2467878 255 255 255
-983.90656 -630.71631 -2.1671207 255 255 255
3470.3337 5285.522 11.59664 255 255 255
3170.6797 2135.3059 3.6496055 255 255 255
988.05756 788.03058 2.0411305 255 255 255
-2068.6133 -2007.5139 -4.7041965 255 255 255
-965.13281 -1356.7745 -4.1962566 255 255 255
1030.3091 1683.7219 2.6566441 255 255 255
-2471.7334 -6303.5361 -13.332732 255 255 255
9951.248 851.47632 10.984875 255 255 255
3125.5225 1890.056 6.0234742 255 255 255
4131.1172 3857.3018 12.962643 255 255 255
-3001.5054 -1792.4536 -7.0654783 255 255 255
1257.9443 1138.8612 3.0538301 255 255 255
4396.5195 3215.1348 9.8361521 255 255 255
4581.8438 3614.2444 5.732666 255 255 255
-542.35779 -482.70477 -1.8473265 255 255 255
1228.4534 1353.1198 3.2193861 255 255 255
2155.7161 861.11584 4.5381217 255 255 255
3802.5649 1471.1272 7.7314954 255 255 255
-2303.4851 -2674.5957 -6.568325 255 255 255
-800.34283 -636.34546 -2.410557 255 255 255
5210.2896 2691.209 7.0163722 255 255 255
-606.41882 -751.49414 -2.580081 255 255 255
771.31262 669.89545 2.0926933 255 255 255
11665.2 3750.7842 12.719171 255 255 255
2702.4214 1080.9874 5.6008663 255 255 255
-2512.9421 -2470.5798 -10.516098 255 255 255
3139.0371 1306.0709 5.7678556 255 255 255
-926.37366 -500.72449 -2.7533212 255 255 255
1006.959 291.71686 1.1595093 255 255 255
1778.0409 1100.1273 3.7294269 255 255 255
10969.07 10386.034 28.911455 255 255 255
2469.5469 2527.2085 6.8774614 255 255 255
34214.043 33437.742 106.85516 255 255 255
-3400.762 -4260.8975 -10.80522 255 255 255
787.61749 913.58246 2.1328094 255 255 255
-768.16107 -218.88399 -2.7244089 255 255 255
2386.0625 1335.329 4.5455203 255 255 255
-80966.867 -32809.785 -179.4622 255 255 255
885.57861 473.36981 2.0669007 255 255 255
2124.5627 993.50464 4.5262132 255 255 255
21411.922 4094.9832 22.959024 255 255 255
2942.613 1510.4329 7.0192685 255 255 255
-545.36896 -298.74802 -1.9196354 255 255 255
-1795.2848 -1543.6976 -4.778697 255 255 255
1447.7201 1903.5575 3.3797133 255 255 255
1050.4725 993.85217 2.5299995 255 255 255
-1178.8801 -1435.9319 -3.7117965 255 255 255
-457.64886 -424.01849 -1.7791574 255 255 255
10826.507 3752.0918 11.777827 255 255 255
11629.673 3738.8066 12.705645 255 255 255
4697.9805 2878.3545 6.229784 255 255 255
6610.7881 2860.8433 13.855765 255 255 255
-364.57819 -264.03729 -1.4078238 255 255 255
5305.9502 2662.7944 7.1768885 255 255 255
10484.034 3701.1316 11.501499 255 255 255
801.73438 629.9469 2.1623189 255 255 255
-587.76373 -641.70544 -3.0089376 255 255 255
3094.7363 1104.5592 6.9270163 255 255 255
-1369.7506 -1031.9196 -5.1045337 255 255 255
-335.04422 -243.17583 -1.4191917 255 255 255
-1940.3933 -3031.49 -6.9105778 255 255 255
5058.3008 2655.3694 6.8722095 255 255 255
-2356.5718 -1264.1656 -8.1818132 255 255 255
1407.7822 1303.1362 3.0662026 255 255 255
1321.4172 1249.9667 2.920711 255 255 255
6671.7432 7223.0996 18.434755 255 255 255
1251.4375 1012.4962 2.8506913 255 255 255
1805.8478 938.01837 4.0282025 255 255 255
1259.0371 1110.0736 3.4029391 255 255 255
-5696.4937 -4639.2471 -15.068797 255 255 255
-858.39343 -880.49457 -2.9925413 255 255 255
1317.0571 3133.7625 5.1713319 255 255 255
2433.5745 5931.2466 9.5648289 255 255 255
-15861.016 -4709.9468 -34.917938 255 255 255
466.19785 1117.0017 1.8238201 255 255 255
629.91211 1296.4351 2.1332622 255 255 255
2181.1421 955.14349 4.7503934 255 255 255
-21103.492 -12044.163 -50.116985 255 255 255
-8985.7881 -3711.6265 -31.462542 255 255 255
6517.1909 3769.4084 7.382947 255 255 255
1675.6902 1502.9646 3.3501401 255 255 255
1704.1733 1130.709 3.5715284 255 255 255
-5518.4619 -3597.4456 -8.0223455 255 255 255
-6085.1343 -4061.7383 -15.514772 255 255 255
-552.99841 -800.38763 -3.6739104 255 255 255
851.20245 622.67041 2.2667942 255 255 255
939.84467 322.19424 2.0366409 255 255 255
1150.5571 805.35925 2.7658534 255 255 255
1412.6423 914.68811 3.1902299 255 255 255
887.35364 598.81079 2.3584034 255 255 255
11027.603 3909.2 11.442357 255 255 255
-1852.9175 -1180.0168 -6.7966609 255 255 255
-2724.1611 -1850.4091 -5.3276443 255 255 255
-3003.4263 -991.24182 -4.9015822 255 255 255
-1294.5612 -1852.7468 -5.3050122 255 255 255
-314.74683 -277.14169 -1.9049104 255 255 255
12064.431 10032.462 29.021561 255 255 255
5299.0215 2690.5945 7.1287069 255 255 255
365.50848 784.70795 1.2563186 255 255 255
-2164.6292 -3212.6509 -8.153614 255 255 255
-734.05133 -569.9693 -2.0787501 255 255 255
826.44263 674.63 2.1982148 255 255 255
-622.19757 -116.82951 -2.1108649 255 255 255
1320.7103 1256.8292 2.9139636 255 255 255
428.73276 1180.1171 1.8445958 255 255 255
1004.2986 868.20941 1.5986506 255 255 255
-482.14325 -546.354 -2.7152011 255 255 255
6927.8594 2878.5398 8.9215059 255 255 255
2522.4004 1042.8739 5.2802 255 255 255
2444.582 1039.5968 5.1220837 255 255 255
-2294.2913 -1919.903 -3.9959817 255 255 255
469.47894 1214.3302 1.8950226 255 255 255
830.64563 252.72607 0.90571696 255 255 255
1286.6558 523.9046 1.5400684 255 255 255
-3084.9976 -1456.2891 -7.4993868 255 255 255
2540.2649 983.12299 5.2072749 255 255 255
2088.9768 984.70428 4.4704375 255 255 255
1520.8701 1640.7217 3.1428959 255 255 255
890.20544 859.95612 1.2446511 255 255 255
1272.8625 1283.1755 2.8487935 255 255 255
2526.8015 4654.4946 8.5864744 255 255 255
5216.729 2677.2778 7.0407133 255 255 255
-2196.783 -609.64093 -3.7315574 255 255 255
4557.7012 3313.3979 10.436393 255 255 255
-516.4433 -115.59587 -1.6384603 255 255 255
1104.2871 1118.9778 1.9612855 255 255 255
838.88757 900.5271 2.2031691 255 255 255
-265.79153 -365.8616 -1.8570696 255 255 255
-1091.7216 -4046.4683 -8.5063925 255 255 255
1792.9849 2728.2065 4.7835922 255 255 255
-35939.809 -19033.729 -90.522675 255 255 255
1748.4434 1460.0696 4.4457331 255 255 255
10944.133 13818.581 35.059574 255 255 255
1692.9099 1058.0441 3.6087282 255 255 255
1091.6997 779.06433 2.6698723 255 255 255
1171.1162 1560.0919 2.7626133 255 255 255
10583.046 3693.2026 11.630089 255 255 255
1090.1422 1020.4282 2.5881903 255 255 255
-4843.3413 -3269.6714 -11.509813 255 255 255
1390.3003 1229.7224 3.0189874 255 255 255
5288.1572 2704.8738 7.0980601 255 255 255
-1404.4863 -2225.2786 -4.9554453 255 255 255
-1374.8235 -1571.0791 -4.1589456 255 255 255
-1294.9855 -483.30289 -2.622822 255 255 255
36316.664 22802.873 85.77932 255 255 255
1158.5676 1450.1399 2.7183533 255 255 255
-454.70459 -205.50146 -2.3425298 255 255 255
6401.7935 1773.8359 12.81752 255 255 255
6134.2476 1996.5872 12.417363 255 255 255
1690.8884 1126.2231 3.5517511 255 255 255
1264.1361 1310.9095 4.6396866 255 255 255
-1353.7708 -1636.8687 -4.367116 255 255 255
-762.38727 -445.77698 -1.9183263 255 255 255
-590.7738 -418.71649 -1.7670207 255 255 255
1844.9006 1551.436 5.0177794 255 255 255
669.30304 483.99817 1.4855207 255 255 255
627.29669 352.36487 0.74782145 255 255 255
-732.54559 -1385.442 -3.5513151 255 255 255
8812.4473 2990.9316 11.241622 255 255 255
-4411.123 -5873.6489 -11.243147 255 255 255
-1130.7185 -1753.5051 -4.0939641 255 255 255
5350.0835 2851.2935 7.0156193 255 255 255
-1292.1475 -1446.4539 -5.913847 255 255 255
-323.23553 -414.14389 -2.0639606 255 255 255
-494.14175 -482.74655 -2.6788292 255 255 255
-559.74744 -359.45056 -1.9866576 255 255 255
1506.9822 969.4248 3.3233666 255 255 255
1311.7211 1272.3696 2.903652 255 255 255
2496.6262 2418.6697 5.8685255 255 255 255
-5457.1118 -5594.8638 -11.619449 255 255 255
4528.4604 7088.0205 15.726655 255 255 255
-4672.5293 -1539.9349 -5.3608303 255 255 255
5413.2134 3259.2554 6.6813803 255 255 255
3530.7688 1193.4431 7.0946136 255 255 255
2954.3167 1467.0126 5.5329528 255 255 255
11103.186 3448.9392 23.197695 255 255 255
2250.6292 1058.644 4.7112141 255 255 255
-2252.4067 -2285.907 -6.3543172 255 255 255
2451.9309 1335.8436 4.6559339 255 255 255
-76996.031 -27777.004 -169.86943 255 255 255
2813.885 1058.8636 5.8852639 255 255 255
1457.1592 1555.5743 4.2629046 255 255 255
750.6355 1179.4844 2.031481 255 255 255
785.78644 727.47766 1.0807294 255 255 255
-435.66025 -533.68799 -2.7883272 255 255 255
-766.37109 -755.45117 -2.1767926 255 255 255
916.8114 1764.0801 2.5988047 255 255 255
2937.457 1377.6506 6.4275441 255 255 255
-557.74182 -495.20355 -1.7030219 255 255 255
774.95074 466.68762 1.1131309 255 255 255
311.28052 1013.1435 1.5020498 255 255 255
760.9325 392.4491 0.89257824 255 255 255
-2758.2349 -1818.8701 -6.5290284 255 255 255
12552.073 9218.3672 32.869087 255 255 255
-3756.3416 -12221.861 -18.170219 255 255 255
1553.4871 752.38361 2.63956 255 255 255
2336.8308 1344.5637 4.4544845 255 255 255
-1890.1342 -2258.9097 -5.7391062 255 255 255
1000.1112 1230.395 2.4763873 255 255 255
2365.6138 1255.5851 4.6056542 255 255 255
-332.13434 -478.59387 -2.3137372 255 255 255
429.92902 268.34073 0.62635028 255 255 255
-4097.8398 -2830.6365 -9.5908127 255 255 255
472.73938 1323.3657 1.9727614 255 255 255
-2578.4736 -1696.3478 -6.5498619 255 255 255
1142.1296 968.40765 2.6801987 255 255 255
1442.2733 1529.5006 3.0500996 255 255 255
1836.584 1206.4028 4.5029778 255 255 255
5532.1831 6983.0146 17.48704 255 255 255
772.19373 355.82208 0.9024272 255 255 255
478.72125 1334.4835 1.9840456 255 255 255
3140.4988 1729.8367 7.242867 255 255 255
-1172.0709 -1603.9293 -3.7597346 255 255 255
4072.7129 1619.4015 6.7878432 255 255 255
911.98187 915.87677 2.315099 255 255 255
4678.7314 3300.7905 11.293081 255 255 255
854.7804 723.60474 1.1359062 255 255 255
-5840.0449 -14966.164 -25.519011 255 255 255
676.86011 837.58942 1.9575809 255 255 255
817.08575 286.81082 1.6984621 255 255 255
-4360.3667 -2632.9954 -10.365717 255 255 255
5458.2031 2730.9751 7.2800078 255 255 255
1332.5862 1246.5771 2.9303317 255 255 255
-1249.7484 -536.11517 -2.591073 255 255 255
2229.2454 775.85779 3.8966098 255 255 255
-2275.9998 -1938.5166 -6.9719028 255 255 255
1077.5559 1396.7484 2.6112423 255 255 255
2192.4163 1082.5276 4.8930688 255 255 255
5639.877 4062.0564 6.4886231 255 255 255
904.8736 1207.1913 1.3431811 255 255 255
1361.9163 1689.6383 2.9705358 255 255 255
-463.31497 -151.44318 -1.5333225 255 255 255
1652.484 1531.1 3.3130403 255 255 255
6242.7827 3005.2793 13.450428 255 255 255
590.36938 700.98444 1.1438493 255 255 255
1001.1725 621.06842 2.6023939 255 255 255
13129.32 3813.2424 14.183828 255 255 255
-822.78387 -419.55115 -1.9793338 255 255 255
666.23755 441.79004 1.4669681 255 255 255
1442.6636 1169.0122 3.1166062 255 255 255
-236.18648 -350.6853 -1.6901363 255 255 255
-391.77765 -414.56161 -1.689824 255 255 255
1158.6338 715.49011 2.8610597 255 255 255
653.83252 816.94977 1.9146452 255 255 255
2854.311 1541.7192 6.5573955 255 255 255
824.4137 1238.7684 2.2860432 255 255 255
-4128.4927 -2216.4021 -9.6989069 255 255 255
619.80414 1073.2646 1.9930164 255 255 255
450.14243 527.73322 1.0250313 255 255 255
877.2644 1269.3762 2.3518367 255 255 255
4499.7871 3566.2905 5.6707535 255 255 255
-533.72516 -437.27765 -2.0577958 255 255 255
1618.3936 1115.2332 3.4349015 255 255 255
504.57111 929.25708 1.8026667 255 255 255
1357.432 944.28564 3.0631618 255 255 255
174.13664 247.45851 0.28012335 255 255 255
1173.5367 1404.6155 2.7301202 255 255 255
1486.1926 1595.5493 3.1045482 255 255 255
-1100.8931 -2453.8938 -5.1209502 255 255 255
-16193.777 -19010.305 -45.365543 255 255 255
3285.0581 3126.3569 10.290981 255 255 255
1718.702 1126.9484 3.5968964 255 255 255
5037.6724 1775.5999 8.4332237 255 255 255
1186.3655 1048.1737 2.7325323 255 255 255
8401.665 3666.2053 9.3436356 255 255 255
1689.9869 2153.4531 4.2885189 255 255 255
-604.9519 -1369.301 -3.2588215 255 255 255
-708.05994 -1259.6556 -3.3150554 255 255 255
-32907.418 -30000.514 -89.557861 255 255 255
1552.5272 509.11285 3.1434019 255 255 255
2552.1646 1553.8402 4.9780803 255 255 255
1075.5155 1091.6989 2.2851658 255 255 255
-831.60614 -411.8688 -2.2729442 255 255 255
2980.7244 4025.2505 9.205596 255 255 255
1801.8993 1055.4386 3.8177354 255 255 255
3356.5723 1112.4911 6.9777842 255 255 255
1370.3513 1146.2429 3.0079658 255 255 255
-1951.4396 -1044.6951 -5.9814467 255 255 255
-1083.004 -1376.5654 -3.4612982 255 255 255
4062.7529 2430.5432 9.4846172 255 255 255
1626.6213 1119.446 3.4431989 255 255 255
684.07355 325.97269 1.4495801 255 255 255
864.79584 627.58069 2.0063803 255 255 255
670.4743 996.10297 2.0110447 255 255 255
13556.235 3807.0266 14.708641 255 255 255
-22362.275 -17353.775 -57.66951 255 255 255
20921.611 3865.2158 24.142422 255 255 255
16268.23 3951.5005 17.482185 255 255 255
-868.49597 -777.18884 -2.2939496 255 255 255
-2035.3298 -1630.782 -5.0844073 255 255 255
1485.9795 1597.5558 3.1043022 255 255 255
-1663.6252 -1875.5833 -3.5608616 255 255 255
1509.9224 1659.0347 3.133069 255 255 255
2452.678 1279.4894 4.7317553 255 255 255
13733.648 11148.102 35.914146 255 255 255
-1260.1188 -503.85916 -2.5830734 255 255 255
722.06219 864.85809 2.0266728 255 255 255
-767.19513 -267.95892 -1.9551239 255 255 255
556.84949 443.46539 1.0865413 255 255 255
1708.1632 1126.5867 3.5824072 255 255 255
10907.61 3768.8718 11.823667 255 255 255
9331.9463 3775.3098 20.3514 255 255 255
-1142.6533 -721.9826 -4.2179585 255 255 255
1486.2878 541.98816 3.0732615 255 255 255
3200.7991 2331.6316 7.3088932 255 255 255
1893.1619 1322.5979 4.0911398 255 255 255
1362.5127 1692.6884 2.9744306 255 255 255
714.42932 361.43201 1.7229035 255 255 255
-924.64642 -1228.7583 -2.9435256 255 255 255
13198.979 3815.9534 14.271826 255 255 255
-7118.2642 -6076.0767 -19.095194 255 255 255
5592.4902 2678.5745 7.5070591 255 255 255
11493.153 3792.3757 12.417267 255 255 255
-1021.7957 -820.96252 -2.595052 255 255 255
1803.109 1107.3833 3.7526727 255 255 255
2496.8477 1046.5308 5.2331409 255 255 255
861.34625 1062.5767 2.2667327 255 255 255
-5339.8413 -6378.4277 -19.045866 255 255 255
2245.2776 2643.6709 6.2978296 255 255 255
10876.429 3728.8333 11.892438 255 255 255
11480.675 3761.062 12.472003 255 255 255
-574.5838 -510.63492 -2.5859447 255 255 255
-398.30594 -268.12402 -2.2116365 255 255 255
1206.9594 1392.3042 2.7683642 255 255 255
1043.3777 809.8891 2.5617132 255 255 255
2565.7961 1224.9097 5.8394918 255 255 255
1208.2227 1050.1707 2.764828 255 255 255
-3483.7554 -5368.1172 -10.819244 255 255 255
-1130.0758 -1672.2399 -3.9869721 255 255 255
-3389.1797 -393.6196 -7.3121657 255 255 255
2333.7441 1255.8099 4.5498214 255 255 255
1400.9464 1702.4148 3.0186222 255 255 255
4014.1997 2990.5291 5.430933 255 255 255
2003.7837 1431.7247 5.2071133 255 255 255
1894.4703 956.82141 4.1069231 255 255 255
572.77533 362.81424 0.70262116 255 255 255
2277.1304 2995.5669 6.0177999 255 255 255
-196.08948 -410.08499 -1.5730392 255 255 255
-1125.827 -1245.3683 -2.5645149 255 255 255
571.87146 539.81342 1.1592475 255 255 255
911.578 1209.3918 2.3668025 255 255 255
8756.6738 3662.7046 9.725172 255 255 255
-1667.4725 -523.12128 -3.5723176 255 255 255
2488.2898 1277.6836 4.7971621 255 255 255
1670.9464 1117.0754 3.5240986 255 255 255
558.89288 249.29778 0.65135062 255 255 255
-568.92999 -459.65433 -2.0276124 255 255 255
426.28961 254.39093 0.52336299 255 255 255
-1112.4169 -429.16568 -2.3640962 255 255 255
-3774.9827 -4303.7427 -11.555212 255 255 255
1360.1823 1549.1073 3.6959381 255 255 255
883.61194 1285.6776 2.3625002 255 255 255
5298.7944 1768.2633 11.24896 255 255 255
1519.713 2576.4644 3.3541541 255 255 255
-3074.9526 -3897.4036 -11.391994 255 255 255
4040.5352 3004.6165 5.4512835 255 255 255
6315.3408 3745.5581 7.202527 255 255 255
-536.76276 -525.58514 -2.6428969 255 255 255
892.03888 1405.2728 2.4187083 255 255 255
6564.5874 3018.563 13.402845 255 255 255
1808.6835 2131.1704 3.4624743 255 255 255
1208.962 1076.261 1.6257333 255 255 255
-2777.5432 -3332.7876 -9.9745817 255 255 255
1754.4094 1432.3997 3.4746327 255 255 255
-732.65204 -1236.0353 -3.1175163 255 255 255
1380.207 781.89838 3.1648266 255 255 255
6826.0317 5969.0493 20.815798 255 255 255
-134.53033 -384.59933 -1.5098472 255 255 255
1434.0027 817.55365 2.7513492 255 255 255
3634.0745 1367.2107 6.8176336 255 255 255
-2725.8738 -3234.5386 -7.5001378 255 255 255
5058.6406 2663.363 6.8636675 255 255 255
-11873.225 -3941.8855 -13.607351 255 255 255
12101.676 3725.4023 13.228974 255 255 255
1361.9548 853.55347 3.1371067 255 255 255
-12638.719 -9272.7646 -31.159044 255 255 255
-2889.7988 -2416.3474 -5.0550985 255 255 255
1009.5795 1227.9164 2.4895201 255 255 255
-419.36038 -464.02087 -2.2883916 255 255 255
826.25031 834.06616 2.1783762 255 255 255
1667.9449 1508.3328 3.335706 255 255 255
1414.7679 1369.8251 3.0209112 255 255 255
839.60236 1209.1339 2.2882981 255 255 255
54039.672 38460.348 144.75987 255 255 255
600.70288 330.93747 0.61922783 255 255 255
-2754.6716 -1394.0989 -6.4921713 255 255 255
-6210.7095 -3394.27 -13.212977 255 255 255
786.45209 1586.2991 2.4168026 255 255 255
-561.5816 -1135.5337 -2.8358669 255 255 255
8446.1895 3663.3931 9.3877058 255 255 255
10899.992 9404.8574 25.890478 255 255 255
758.39642 705.94391 1.5790648 255 255 255
1769.4982 1752.2761 3.4288161 255 255 255
5736.519 2724.262 7.637301 255 255 255
924.9491 1290.4075 2.4089253 255 255 255
1029.9302 1682.0094 2.6548865 255 255 255
1321.7318 1002.4987 2.9703157 255 255 255
3011.488 1488.5167 5.6142859 255 255 255
3855.1687 660.31104 8.7235641 255 255 255
2285.5996 1340.6862 4.3602877 255 255 255
702.69641 1494.1084 2.303622 255 255 255
5255.6626 2649.532 7.1234608 255 255 255
-2116.3638 -1344.8009 -4.5214319 255 255 255
1448.2327 531.13812 2.9921346 255 255 255
3045.2751 4049.5903 8.4671698 255 255 255
360.06415 714.14697 1.4908406 255 255 255
-59.071293 -170.41879 -1.2706828 255 255 255
701.41541 596.0788 1.3092315 255 255 255
1190.8894 422.87604 1.5231996 255 255 255
-546.64459 -385.08087 -1.8731304 255 255 255
925.94849 889.90436 2.339654 255 255 255
1435.9655 911.06976 3.2402501 255 255 255
11438.125 3747.802 12.459952 255 255 255
-3267.0996 -1715.074 -5.147809 255 255 255
648.23102 890.88562 1.9375663 255 255 255
1081.1011 1776.0156 2.740139 255 255 255
6928.3594 2881.1184 8.9434252 255 255 255
869.23737 376.69714 0.97218829 255 255 255
799.65637 1245.627 2.264214 255 255 255
883.12543 1321.8661 2.3779666 255 255 255
1685.7155 1064.6744 3.5882072 255 255 255
-1158.5525 -1198.9083 -3.4093907 255 255 255
863.96295 294.55511 0.94302642 255 255 255
1189.8936 907.60938 2.7837048 255 255 255
-277.18686 -288.62338 -1.7408684 255 255 255
2463.9983 1378.4327 5.3395905 255 255 255
-1831.3074 -2336.2061 -3.8402176 255 255 255
-1349.051 -1274.7167 -2.6586032 255 255 255
1209.2029 852.3606 2.8503809 255 255 255
967.31439 1715.2708 2.613158 255 255 255
453.91559 1229.7888 1.8344496 255 255 255
-14521.837 -15902.981 -48.675404 255 255 255
1240.13 1208.2841 1.7341533 255 255 255
2258.3501 1344.9149 4.3120155 255 255 255
355062.31 260851.7 816.99158 255 255 255
-5149.7202 -3877.436 -10.727484 255 255 255
-1298.7089 -1768.9897 -4.3760147 255 255 255
871.42682 933.28741 1.583901 255 255 255
1415.4567 1364.2234 3.5348423 255 255 255
-24392.361 -19965.016 -50.269753 255 255 255
-4263.0562 -5136.9927 -13.399099 255 255 255
949.67963 1425.5793 2.4780047 255 255 255
810.41199 753.14893 2.152864 255 255 255
-4555.3389 -3942.7585 -10.598678 255 255 255
964.9093 596.63818 2.5450597 255 255 255
-180.20515 -314.05063 -1.6067613 255 255 255
4119.7354 1541.3992 8.4647713 255 255 255
1765.3704 955.07758 3.5994921 255 255 255
1219.8929 711.20258 3.1610696 255 255 255
12987.674 11632.108 31.096729 255 255 255
16655.768 9483.7383 46.474388 255 255 255
272.88852 609.23627 1.3079611 255 255 255
1519.3964 1666.4531 3.1461768 255 255 255
10555.913 3685.0149 11.615571 255 255 255
9774.6221 11365.212 21.522339 255 255 255
-1864.3386 -1419.7899 -3.3855386 255 255 255
55333.004 27436.594 64.383621 255 255 255
-8595.6592 -8326.6533 -26.577721 255 255 255
1596.0258 1700.9592 2.478349 255 255 255
1040.6406 898.61084 1.7461785 255 255 255
3113.6055 4891.3052 10.256138 255 255 255
-256.47653 -455.9603 -1.6610074 255 255 255
3541.1951 1128.0558 7.3554068 255 255 255
-635.14368 -1225.2688 -2.8712168 255 255 255
-1429.6532 -229.9285 -3.6429615 255 255 255
8395.1963 3663.6709 9.3455105 255 255 255
-15385.989 -10759.023 -30.972666 255 255 255
5056.4604 1781.9205 8.4643631 255 255 255
3313.7166 1673.4521 5.6720762 255 255 255
1012.8502 608.6571 2.6407773 255 255 255
624.4281 1012.8796 1.9682878 255 255 255
1529.0012 1639.189 3.1546304 255 255 255
3169.4084 455.85922 10.687634 255 255 255
1529.2778 1179.7137 3.2307522 255 255 255
-486.16367 -90.382294 -1.5624019 255 255 255
5211.9131 2692.0503 7.0174336 255 255 255
1395.0631 897.49939 3.1672916 255 255 255
781.93353 940.07538 2.1299303 255 255 255
1559.0919 564.6839 3.1906896 255 255 255
-1987.8199 -4361.1606 -7.7448659 255 255 255
2335.6653 1344.3606 4.4526916 255 255 255
-190.08522 -261.21997 -1.4626192 255 255 255
-16384.484 -10868.892 -41.479118 255 255 255
8809.7598 2988.7041 11.237617 255 255 255
-1594.5366 -878.47131 -5.9653254 255 255 255
-67955.32 -164736.39 -250.49106 255 255 255
-200.84828 -330.40085 -1.4920275 255 255 255
-1223.5194 -1692.3231 -3.0492296 255 255 255
1037.9984 1062.7825 2.3577337 255 255 255
-282.48138 -239.39452 -1.7496365 255 255 255
-2450.7185 -657.14435 -5.6594954 255 255 255
-785.96692 -1233.8649 -3.1255953 255 255 255
-2272.532 -2378.2422 -6.4528661 255 255 255
973.82043 1157.0984 2.3470767 255 255 255
10563.955 3685.8525 11.623084 255 255 255
-7666.397 -8204.2773 -17.747759 255 255 255
-288.14471 -455.21719 -2.1807415 255 255 255
733.12512 688.08575 2.0188153 255 255 255
-664.58948 -537.23511 -1.9234293 255 255 255
-756.58533 -290.20419 -2.5491178 255 255 255
905.74335 1079.8033 2.3248441 255 255 255
1359.2722 1267.0992 2.973 255 255 255
1476.7607 924.98108 3.3090684 255 255 255
2365.0852 1253.0345 4.6040258 255 255 255
8241.5391 4576.3579 19.75452 255 255 255
1425.9253 1679.9054 3.1716084 255 255 255
-263.06918 -100.98647 -1.3111558 255 255 255
2096.1992 986.38843 4.4856644 255 255 255
-796.67664 -416.08243 -2.0816824 255 255 255
-1642.6621 -1066.9209 -3.1415191 255 255 255
2147.0107 1356.8494 4.1241655 255 255 255
2549.4199 1036.0632 5.3532472 255 255 255
-1284.3975 -1054.2972 -3.4495642 255 255 255
8468.2686 3671.3542 9.4137468 255 255 255
2486.9885 2479.6665 7.0936313 255 255 255
6436.9087 5801.1318 9.4927254 255 255 255
-1298.9928 -772.01666 -4.7362714 255 255 255
13240.408 3828.6855 14.314643 255 255 255
1251.2771 1012.0961 2.848206 255 255 255
5632.3926 4065.0432 6.4793239 255 255 255
10639.596 3711.7397 11.692087 255 255 255
2120.4126 994.21924 4.5201964 255 255 255
2173.4797 3920.6118 7.403172 255 255 255
11539.482 3806.8372 12.4694 255 255 255
1566.4807 1198.2485 3.2850378 255 255 255
-2554.9104 -1725.0925 -9.6022615 255 255 255
1783.5352 1112.3828 3.7323449 255 255 255
750.12152 1366.5272 2.351685 255 255 255
4107.9263 2499.5054 5.8389025 255 255 255
1652.5809 1530.6707 3.3121967 255 255 255
-1293.6512 -2383.7178 -6.0351138 255 255 255
-407.57928 -646.36749 -3.0009313 255 255 255
5294.0586 2706.752 7.1032491 255 255 255
8241.8369 3647.6931 9.1819096 255 255 255
-4836.2212 -3540.6089 -8.3471489 255 255 255
4503.667 3573.5354 5.6318583 255 255 255
-2490.2756 -3057.4978 -7.7342744 255 255 255
1357.9269 944.0166 3.0635321 255 255 255
-373.06082 -473.31171 -2.3297763 255 255 255
-1340.6097 -629.64453 -3.6851456 255 255 255
-2385.6731 -2091.2681 -6.4103951 255 255 255
-16101.647 -5478.5508 -18.422808 255 255 255
-726.27124 -294.62665 -1.9098464 255 255 255
-411.91202 -249.65825 -2.2209294 255 255 255
-558.34662 -690.03912 -2.1626277 255 255 255
491.66479 687.00183 1.0874109 255 255 255
1704.2102 1811.6698 2.5592787 255 255 255
-1132.0533 -484.5123 -2.3932552 255 255 255
5452.0308 2726.5735 7.2707977 255 255 255
738.9809 654.40369 2.0295703 255 255 255
4689.5376 2872.5056 6.2187099 255 255 255
8406.0615 3668.9707 9.3500118 255 255 255
1785.5674 1103.8359 3.7453518 255 255 255
-335.99789 -411.0802 -2.2183208 255 255 255
-794.13989 -403.75519 -1.8119371 255 255 255
641.54749 909.63879 1.9379115 255 255 255
-198.71861 -269.87064 -1.4798316 255 255 255
864.19946 600.38239 2.3097644 255 255 255
-5805.7168 -3411.2759 -13.60077 255 255 255
807.15948 905.28186 1.4359145 255 255 255
-589.36218 -418.89169 -1.7648821 255 255 255
-926.7381 -890.68744 -3.8187773 255 255 255
-229.39401 -284.20547 -1.5020514 255 255 255
13611.043 3824.3376 14.769262 255 255 255
1610.049 953.81909 4.6295753 255 255 255
10842.831 3757.2751 11.796055 255 255 255
2921.8491 2942.0325 8.2414093 255 255 255
2261.7522 1057.1051 4.7355175 255 255 255
-1223.6115 -1774.2815 -4.1647387 255 255 255
-1153.4425 -1001.3198 -3.8293872 255 255 255
-413.30606 -410.44571 -2.1520298 255 255 255
2289.1672 2239.5789 7.3124542 255 255 255
12043.151 3760.8037 13.06835 255 255 255
4585.9888 3193.4895 12.549547 255 255 255
-1542.8954 -569.48883 -4.0000205 255 255 255
-1084.7726 -738.02466 -2.4936295 255 255 255
2158.4866 2008.639 5.7832441 255 255 255
1711.5681 1201.3995 4.2056208 255 255 255
-2528.5391 -2126.0095 -6.8566456 255 255 255
-624.32825 -368.89114 -1.7044899 255 255 255
11273.032 3734.2124 12.297363 255 255 255
2854.9521 1108.1055 5.8490829 255 255 255
741.97821 235.24393 1.5786645 255 255 255
2264.9231 1065.948 4.7241116 255 255 255
1309.4767 1244.395 2.899878 255 255 255
-1390.8077 -1007.9717 -4.3280687 255 255 255
5249.6797 3465.8518 5.9303627 255 255 255
960.47595 1820.7438 2.659111 255 255 255
5616.145 4035.5017 6.4544458 255 255 255
-1868.9719 -2829.2686 -6.3742943 255 255 255
20951.027 16098.955 51.218426 255 255 255
638.43359 499.07571 1.0540403 255 255 255
8762.0508 3665.5913 9.7311964 255 255 255
-856.75879 -451.7619 -2.0744886 255 255 255
1394.5325 1231.9517 3.0242102 255 255 255
-1057.3922 -1262.4999 -3.3247092 255 255 255
-14591.485 -9840.8242 -36.996655 255 255 255
5055.7725 2652.9788 6.8661413 255 255 255
1313.3915 1274.0754 2.9066887 255 255 255
12335.09 10877.581 32.465034 255 255 255
-1487.3206 -2216.3406 -4.9216051 255 255 255
7249.061 9514.5693 29.066505 255 255 255
-1642.219 -4158.1357 -7.2166214 255 255 255
-507.63101 -218.93004 -1.5780736 255 255 255
-769.90143 -476.9501 -1.9094608 255 255 255
973.10834 653.86981 2.5129714 255 255 255
-1737.4252 -2404.7219 -5.5970564 255 255 255
977.67151 1037.1044 2.4206171 255 255 255
5366.0396 2857.0122 7.0171571 255 255 255
3577.7529 3019.668 9.7000504 255 255 255
5872.0732 3986.3396 6.7004776 255 255 255
-389.86716 -376.95926 -1.5736856 255 255 255
5089.1411 2677.5569 6.8680077 255 255 255
5231.7554 2730.6763 7.0108743 255 255 255
1042.2612 682.26361 2.636147 255 255 255
-334.58868 -387.94171 -2.0073912 255 255 255
796.01257 368.99353 1.865051 255 255 255
14427.657 3313.123 18.177973 255 255 255
-4468.002 -5757.5566 -11.247805 255 255 255
-1024.4215 -542.27814 -3.6989787 255 255 255
1449.2241 799.45129 2.7386203 255 255 255
853.32495 624.20337 2.2749269 255 255 255
9691.0723 5385.4346 21.46759 255 255 255
-1593.8264 -870.14044 -3.1023238 255 255 255
1509.6198 1656.9833 3.1299448 255 255 255
721.45111 864.23523 2.0249817 255 255 255
1794.7463 2719.6899 4.770298 255 255 255
4706.1572 2879.8235 6.2257276 255 255 255
1702.4579 1129.7843 3.5676627 255 255 255
58219.988 26837.848 108.22253 255 255 255
-893.81757 -965.74139 -3.0656316 255 255 255
2596.7612 358.15668 2.9507263 255 255 255
6530.123 3766.6807 7.3932076 255 255 255
-278.51413 -412.5596 -1.9631226 255 255 255
1174.0275 547.21661 2.7433553 255 255 255
4221.647 1373.8994 8.0467405 255 255 255
1621.4297 1333.8647 3.4863694 255 255 255
11541.232 3782.1255 12.539513 255 255 255
2944.5513 1066.7065 6.1671424 255 255 255
-507.24976 -497.14029 -2.1258521 255 255 255
16095.529 3907.8643 17.289381 255 255 255
2349.6785 1172.2399 5.3356223 255 255 255
-2021.0764 -422.86459 -3.5094922 255 255 255
2494.8555 1030.4729 5.2417088 255 255 255
1874.9646 2329.7212 4.5246878 255 255 255
1521.8514 1641.7107 3.1437492 255 255 255
7041.8022 6315.2598 18.623857 255 255 255
6470.2783 3407.5999 14.620476 255 255 255
5424.9634 3268.6699 6.6892605 255 255 255
12630.203 3789.1238 13.71589 255 255 255
199137.47 142785.33 535.69727 255 255 255
-2300.519 -2784.5779 -6.5814757 255 255 255
1006.5371 399.73547 1.7366481 255 255 255
-2704.9106 -1634.1597 -6.7594786 255 255 255
-6027.1323 -5309.0928 -12.960203 255 255 255
-211.16843 -248.97395 -1.4821301 255 255 255
806.18262 1886.8878 3.4868987 255 255 255
-780.13452 -482.6503 -2.8419926 255 255 255
-467.66315 -340.8114 -1.7293421 255 255 255
4929.54 6147.1777 15.543152 255 255 255
1204.8762 852.27838 2.8446753 255 255 255
1326.1243 829.41754 3.0991316 255 255 255
1533.1469 1579.3146 2.1430817 255 255 255
1718.0641 1126.719 3.5948393 255 255 255
-2842.1357 -3600.8657 -8.1448088 255 255 255
20981.439 3871.7732 24.216791 255 255 255
-991.90625 -791.81879 -2.4518197 255 255 255
4038.1877 3003.8813 5.4497609 255 255 255
-330.54852 -208.63809 -1.7934654 255 255 255
17480.611 4001.52 18.625938 255 255 255
1151.8322 806.21588 2.7693381 255 255 255
-2034.5643 -2701.9294 -5.8249078 255 255 255
1670.1665 1497.9429 3.3395851 255 255 255
13550.808 4315.2651 14.393607 255 255 255
1315.2716 1131.4288 1.7329645 255 255 255
-762.44305 -820.25616 -2.3777702 255 255 255
1021.8945 978.32336 2.5506167 255 255 255
-17313.738 -5745.0947 -39.108372 255 255 255
25990.99 19558.445 51.857517 255 255 255
-783.01746 -410.53952 -2.8644099 255 255 255
-548.57764 -372.08612 -2.0313191 255 255 255
-260.39935 -237.88568 -1.3321792 255 255 255
2692.9614 993.96246 5.9989448 255 255 255
12193.177 7047.5342 26.901442 255 255 255
912.64636 950.11194 1.7187154 255 255 255
1620.1121 1117.4779 3.4352164 255 255 255
-720.75824 -543.21149 -2.7692199 255 255 255
6515.3843 3766.3379 7.3796406 255 255 255
886.45721 597.75134 2.3551879 255 255 255
881.1488 542.61298 1.0829446 255 255 255
1423.4177 1172.4792 3.0856023 255 255 255
11623.055 3736.2522 12.696824 255 255 255
-10439.987 -3654.9019 -12.115081 255 255 255
8889.458 2701.0608 12.167832 255 255 255
-954.7149 -1604.3193 -4.3154559 255 255 255
5339.4819 2844.4255 6.9986801 255 255 255
-291.78671 -444.82587 -1.8605677 255 255 255
931.54376 709.31293 2.4144232 255 255 255
-273.05811 -487.09976 -1.9991552 255 255 255
5254.9189 2730.8706 7.0265694 255 255 255
15404.053 2958.6021 19.485344 255 255 255
-7968.2837 -7611.4756 -15.023615 255 255 255
845.14203 756.46783 1.3086528 255 255 255
8431.6396 6209.623 9.69277 255 255 255
813.91809 635.70093 2.1880407 255 255 255
2451.6616 1276.9563 4.7291536 255 255 255
1513.2753 1396.967 3.7668076 255 255 255
5558.498 2246.2803 11.642685 255 255 255
165.18703 524.27704 1.0601801 255 255 255
1220.3684 378.62875 2.1778305 255 255 255
-1381.7852 -984.44757 -3.3739159 255 255 255
1028.8333 877.16553 1.6948514 255 255 255
1341.2549 1259.0005 2.9458003 255 255 255
1342.8401 1425.4451 3.8676965 255 255 255
32324.729 9667.2861 35.159512 255 255 255
-1542.2769 -1713.4889 -4.5670695 255 255 255
1505.3013 968.2074 3.3198154 255 255 255
2163.7803 1354.4299 4.1547103 255 255 255
-1244.4683 -1274.562 -3.4496768 255 255 255
-414.84039 -161.13799 -1.3970299 255 255 255
2604.5554 1481.8298 5.9981236 255 255 255
-825.64636 -602.88983 -2.9075353 255 255 255
826.71448 321.24744 1.0400445 255 255 255
6736.876 3643.7432 14.085581 255 255 255
-1173.0704 -188.50441 -2.3307548 255 255 255
-1349.3491 -1460.5457 -4.031076 255 255 255
-695.0943 -712.09424 -2.2309856 255 255 255
-358.32782 -477.70126 -1.8800523 255 255 255
3885.4878 2532.064 5.5535426 255 255 255
1210.7146 916.89795 2.8144617 255 255 255
926.07294 595.26819 2.4523277 255 255 255
-2695.2871 -2659.021 -9.8811865 255 255 255
1589.2596 1701.5381 4.1344137 255 255 255
-1467.9797 -691.41827 -2.7652316 255 255 255
1042.0923 947.18134 2.0115921 255 255 255
-3198.5974 -2817.7524 -8.2751474 255 255 255
1806.7593 404.10593 3.6549978 255 255 255
8721.8105 7747.7202 27.927471 255 255 255
1122.9998 789.12323 2.7214098 255 255 255
1413.3633 606.98077 3.1658158 255 255 255
45632.918 33620.566 115.49278 255 255 255
-1613.3662 -948.05115 -2.9738531 255 255 255
1212.4581 600.83344 2.3133543 255 255 255
1393.1592 1042.6481 3.1499245 255 255 255
8757.8555 2973.563 11.200579 255 255 255
2587.3083 1140.1931 5.4804153 255 255 255
2955.9307 1214.0525 5.1320572 255 255 255
10706.279 3726.8748 11.690465 255 255 255
5668.4297 2708.5178 7.577354 255 255 255
653.47418 1455.1324 2.245333 255 255 255
-4050.4888 -4450.3149 -14.857691 255 255 255
2167.0884 1263.3877 5.1020851 255 255 255
2274.3911 1344.1729 4.3461571 255 255 255
1028.1735 1327.484 2.533669 255 255 255
979.8053 1173.2565 2.4392242 255 255 255
1292.4684 1099.0594 2.2684646 255 255 255
1832.7911 2133.864 6.4465694 255 255 255
663.48303 448.17529 0.75200009 255 255 255
5062.9053 2663.6196 6.8698411 255 255 255
1942.6296 1957.002 5.5893154 255 255 255
18673.514 9511.5273 45.066505 255 255 255
6337.0693 3757.1418 7.2283964 255 255 255
3301.6704 2492.9248 7.9920006 255 255 255
924.23761 1289.6681 2.4074214 255 255 255
668.24084 1559.5151 2.31972 255 255 255
3911.5759 4809.0479 15.339419 255 255 255
1970.4299 2083.2043 5.2419033 255 255 255
618.81793 1285.8193 2.1168768 255 255 255
-4823.9478 -7123.5059 -16.78442 255 255 255
5748.3999 2728.4517 7.653276 255 255 255
420.73035 180.88046 0.4756895 255 255 255
2326.8916 1253.3094 4.5371084 255 255 255
15388.473 3906.2346 16.53603 255 255 255
-4259.8301 -4083.1809 -8.8250179 255 255 255
-929.45337 -293.53757 -2.0442469 255 255 255
730.84265 248.31921 1.499864 255 255 255
-1975.7429 -1624.9387 -4.4993753 255 255 255
-494.37009 -442.57501 -2.5354693 255 255 255
6811.5239 3891.4521 14.509761 255 255 255
-1181.0918 -700.46832 -2.552994 255 255 255
779.25592 573.995 0.99549282 255 255 255
-734.83197 -907.48236 -3.4463089 255 255 255
-2866.3809 -1461.3051 -5.9755244 255 255 255
1089.3232 1019.8521 2.5857365 255 255 255
-846.29462 -937.19818 -2.9392848 255 255 255
-2030.3729 -1818.0962 -4.3713503 255 255 255
824.30035 673.19226 2.1945829 255 255 255
1178.6747 1427.3286 2.7426507 255 255 255
1163.2893 1455.6616 2.7291648 255 255 255
2590.2222 1524.6328 5.2353148 255 255 255
1888.9061 953.88318 4.0918045 255 255 255
1537.2302 1082.632 3.6427846 255 255 255
486.67401 285.07516 0.58914298 255 255 255
1500.4061 1379.6129 2.0334635 255 255 255
1392.9918 193.15378 2.3488278 255 255 255
1665.7585 1124.0594 3.510731 255 255 255
2793.657 1890.8262 3.8009512 255 255 255
915.37671 450.15277 1.2039344 255 255 255
6501.8149 3748.3816 7.3988328 255 255 255
6911.3442 2873.3994 8.9205313 255 255 255
851.61426 1239.4712 2.3133552 255 255 255
-634.63855 -361.23254 -1.8204157 255 255 255
-4927.9805 -4169.3042 -14.620086 255 255 255
965.51544 763.9903 2.4359689 255 255 255
-1349.9017 -1431.494 -6.8597083 255 255 255
-780.07452 -798.01611 -2.0449729 255 255 255
828.22412 961.26459 2.1991048 255 255 255
1443.1108 1168.9294 3.1157646 255 255 255
1653.7262 941.12048 3.6360402 255 255 255
1709.7816 1616.4513 2.3726251 255 255 255
74803.367 90529.031 268.1474 255 255 255
1165.3361 1494.5579 2.7406466 255 255 255
12219.041 3759.4231 13.370554 255 255 255
12160.093 8389.1396 35.579185 255 255 255
942.59448 1484.2111 2.1395023 255 255 255
1029.2811 1679.5732 2.651716 255 255 255
-3967.9006 -6828.5898 -11.757904 255 255 255
1090.0903 1186.6506 2.2019737 255 255 255
663.84924 29.252922 1.4828855 255 255 255
2258.5466 777.75928 4.6990833 255 255 255
-947.87677 -889.08618 -2.1567125 255 255 255
-339.87698 -524.39716 -2.1488466 255 255 255
778.96368 665.82056 2.108849 255 255 255
8076.7773 12969.944 27.618795 255 255 255
1755.4161 1432.8925 3.4765229 255 255 255
-2755.3103 -2493.2261 -4.9688268 255 255 255
-413.97644 -299.89359 -2.2203946 255 255 255
858.99854 1059.2448 2.2599676 255 255 255
5417.4062 2698.8816 7.2684531 255 255 255
-646.88971 -727.32721 -2.442806 255 255 255
656.51337 521.98492 1.4194993 255 255 255
1004.1017 1232.5544 2.4842229 255 255 255
3627.3757 3720.2842 9.3602524 255 255 255
630.30328 1374.2096 2.1763415 255 255 255
836.35309 968.79913 1.9073846 255 255 255
1487.7576 1428.9133 3.1148653 255 255 255
7650.2446 3651.4353 8.5696535 255 255 255
1668.668 1508.8888 3.338155 255 255 255
-95.618088 -159.83403 -1.3995078 255 255 255
839.24933 1207.877 2.2863324 255 255 255
-2875.4268 -1123.368 -5.2716556 255 255 255
918.74548 1286.2914 2.4003255 255 255 255
2653.5898 2785.9153 8.6730928 255 255 255
1876.2124 947.31049 4.5888066 255 255 255
-7402.1948 -4278.5532 -14.227277 255 255 255
633.05707 1179.249 2.0677333 255 255 255
7411.7979 3735.1194 8.2667389 255 255 255
1078.5607 1398.3949 2.6148398 255 255 255
-5765.0757 -4472.3076 -13.937901 255 255 255
1318.0175 1987.9659 3.0013933 255 255 255
756.54907 561.80457 1.1507351 255 255 255
-1600.4088 -1104.6251 -3.786231 255 255 255
1277.127 953.71753 2.7810001 255 255 255
4891.9556 2697.6094 6.6287756 255 255 255
1240.9323 976.48474 2.842001 255 255 255
399.67365 454.55331 0.90324837 255 255 255
1089.719 1039.7936 2.5857444 255 255 255
0.89895314 0.43804032 0.0019786647 255 255 255
2360.9309 1476.1342 5.1723518 255 255 255
694.59558 700.40887 0.97250581 255 255 255
-182.96829 -392.49539 -1.5520015 255 255 255
758.13873 430.77014 0.98386389 255 255 255
852.62689 674.69415 1.7961131 255 255 255
402.26508 992.33612 1.6182194 255 255 255
786.52667 912.3985 2.1311166 255 255 255
-1271.2228 -1234.9772 -3.6187994 255 255 255
-1525.0511 -1191.8209 -4.0677285 255 255 255
2594.606 2212.73 4.2662077 255 255 255
34343.961 26790.164 89.443771 255 255 255
13889.318 3844.8411 15.01018 255 255 255
722.11322 140.02415 0.82284755 255 255 255
-1320.6749 -429.2132 -2.2201984 255 255 255
11273.768 3735.9663 12.299637 255 255 255
-316.9534 -252.46516 -1.3843434 255 255 255
-5865.9678 -2050.6338 -6.7696624 255 255 255
-196.42206 -196.85933 -1.3418063 255 255 255
-1158.1985 -203.24409 -3.9355447 255 255 255
-7129.8965 -4370.4082 -16.374239 255 255 255
6527.3081 3742.8149 7.4234624 255 255 255
455.72766 1048.2987 1.7171165 255 255 255
-258.98837 -353.04428 -1.7315338 255 255 255
4152.2881 4564.5869 11.498032 255 255 255
5008.1196 1722.4209 8.5230618 255 255 255
-2141.2273 -1041.9207 -5.3552084 255 255 255
1317.3242 1246.7499 2.9132471 255 255 255
-417.49258 -424.67725 -1.7353779 255 255 255
-736.94012 -609.02179 -2.9278193 255 255 255
1392.1337 593.47479 2.3544419 255 255 255
-1956.4775 -609.11816 -3.4473555 255 255 255
