ply
format ascii 1.0
comment PCL generated
element vertex 1092
property float x
property float y
property float z
property uchar red
property uchar green
property uchar blue
element face 0
element camera 0
property float view_px
property float view_py
property float view_pz
property float x_axisx
property float x_axisy
property float x_axisz
property float y_axisx
property float y_axisy
property float y_axisz
property float z_axisx
property float z_axisy
property float z_axisz
property float focal
property float scalex
property float scaley
property float centerx
property float centery
property int viewportx
property int viewporty
property float k1
property float k2
end_header
39467.777 -3137.4834 30.607542 255 255 255
5446.6392 1697.2914 15.799519 255 255 255
-594.17938 -303.88947 -2.1092529 255 255 255
2534.1287 1477.1598 3.145638 255 255 255
827.71008 134.47252 2.6325386 255 255 255
172.64598 -22.594513 0.73333758 255 255 255
-1063.0168 -208.71774 -2.2188599 255 255 255
-1093.6614 -1159.2051 -3.5559156 255 255 255
1449.9652 402.37402 1.5286812 255 255 255
-16.34446 244.54146 -0.39034423 255 255 255
-497528.59 59776.934 -387.51764 255 255 255
-1602.1508 -995.19696 -7.5483127 255 255 255
844.23975 278.56714 1.7180988 255 255 255
1813.0659 989.39227 2.7740436 255 255 255
-560.13928 -174.33371 -1.596467 255 255 255
53030.199 -3892.6467 44.954094 255 255 255
8609.7324 -260.04395 5.6054091 255 255 255
15531.694 -402.49823 11.975973 255 255 255
473.79315 173.23784 1.2286433 255 255 255
-86059.469 10057.671 -71.608246 255 255 255
3941.5059 971.01068 2.6589582 255 255 255
-81151.422 10935.729 -63.714165 255 255 255
-2777.7622 -1626.851 -5.5275064 255 255 255
-25730.668 -18679.48 -42.12035 255 255 255
8015.6392 278.07343 7.2531123 255 255 255
-105258.69 -62390.684 -199.74614 255 255 255
-886.23615 -181.2502 -2.7062702 255 255 255
-2092.2124 235.54205 -4.4231472 255 255 255
376.61441 27.897041 0.58065069 255 255 255
-133.45605 381.41321 -0.36233392 255 255 255
-14220.629 2818.5679 -12.100509 255 255 255
-57434.098 8793.167 -43.642494 255 255 255
3577.6267 976.1864 2.4459348 255 255 255
1076.2452 23.742735 2.0760787 255 255 255
-1117.3345 -168.08643 -3.1754086 255 255 255
-584.62354 -190.14194 -1.6302099 255 255 255
1391.6792 146.08359 1.845452 255 255 255
-602.7785 -100.63947 -1.56014 255 255 255
2020.3931 303.56717 4.6735592 255 255 255
-6621.8457 1634.5704 -6.5086493 255 255 255
4766.1191 356.56412 3.5850174 255 255 255
1425.3141 340.68198 1.6114218 255 255 255
-589.3692 -193.84258 -1.6441016 255 255 255
-591.36139 -41.508518 -1.6240771 255 255 255
1459.7181 326.26093 1.6843836 255 255 255
11893.832 -1064.8594 9.2301569 255 255 255
-147.31171 239.44583 -0.52831984 255 255 255
391.41531 71.868416 0.54212821 255 255 255
3882.9702 -451.84348 3.2820618 255 255 255
-11.055946 307.194 -0.58429426 255 255 255
-1071.911 383.15436 -2.2562122 255 255 255
-330.70493 -30.202 -1.2662952 255 255 255
-489.51718 -44.234703 -1.5401608 255 255 255
-204.11546 -154.21964 -1.2990152 255 255 255
11910.066 715.82678 8.3022432 255 255 255
-105.92729 230.32454 -0.62821114 255 255 255
1431.4471 398.40106 1.5146755 255 255 255
-308.44336 -60.82172 -1.5533907 255 255 255
-1597.604 -761.68195 -3.0556483 255 255 255
4817.9531 175.26874 6.5228753 255 255 255
1356.1492 1096.526 2.099659 255 255 255
2341.562 1056.3593 4.078567 255 255 255
1579.9858 829.82611 9.4143353 255 255 255
-178.22952 270.7645 -0.29855517 255 255 255
-541.94684 -360.27606 -1.8744807 255 255 255
-3117.5232 -409.51511 -7.1658659 255 255 255
10708.01 3592.7173 22.232195 255 255 255
-21484.23 2683.9502 -20.426826 255 255 255
35094.961 -1643.8591 34.33437 255 255 255
5069.2319 -1033.22 4.3841949 255 255 255
-1938.7162 104.56173 -5.5879669 255 255 255
5034.5029 601.57495 4.0257874 255 255 255
-50.74942 412.33221 -0.32532853 255 255 255
-7035.6538 1645.0748 -10.537008 255 255 255
-453.38846 -205.269 -1.5373089 255 255 255
5630.7627 174.95595 7.5397143 255 255 255
12098.075 -35.649471 11.609977 255 255 255
-9790.248 396.48492 -25.465521 255 255 255
-1142.5616 -90.014862 -3.1662381 255 255 255
97.541435 640.05615 -0.47174492 255 255 255
22780.676 -1056.5856 18.830448 255 255 255
-988.46417 322.68652 -2.2262464 255 255 255
1444.3776 210.74928 1.9633114 255 255 255
6950.1899 522.76624 5.17664 255 255 255
3206.0759 1236.4808 9.8267374 255 255 255
185.15305 72.750031 0.40311852 255 255 255
16789.236 -369.60083 16.083178 255 255 255
-573.63599 -58.43935 -1.9040892 255 255 255
-187.50922 -95.127304 -1.2234584 255 255 255
-2686.0835 -1227.4854 -4.6126132 255 255 255
-429.72208 -105.88513 -1.4493986 255 255 255
-778.27899 -509.35571 -2.2418735 255 255 255
924.7962 82.462242 1.6255245 255 255 255
-11320.016 1999.6788 -10.727771 255 255 255
-592.62659 -216.75888 -1.7612998 255 255 255
469.11169 236.92786 0.85370272 255 255 255
1556.6965 -125.00896 1.2772325 255 255 255
-8736.3252 -6224.022 -12.960893 255 255 255
1345.1398 56.221302 2.6605449 255 255 255
-276.59882 -53.378326 -1.4666046 255 255 255
-6000.5063 1722.1831 -5.781517 255 255 255
7037.1465 431.26422 5.699789 255 255 255
-1487.528 -682.07123 -2.7464137 255 255 255
-1111.5156 -533.24261 -2.416316 255 255 255
-1186.015 -148.81596 -3.095799 255 255 255
379.06827 58.377224 0.52691811 255 255 255
112.88737 25.973314 0.20310801 255 255 255
-2506.8806 -929.63263 -4.1397686 255 255 255
326.06918 126.4114 0.88018662 255 255 255
24969.703 -1210.2073 21.075747 255 255 255
1010.2135 -323.09671 0.99944711 255 255 255
-572.86487 -161.74193 -1.5632464 255 255 255
50.154606 602.58209 -0.46368709 255 255 255
-2504.3848 -1921.2272 -6.0306554 255 255 255
5763.9092 649.61829 4.2413301 255 255 255
27219.666 -1577.2939 21.934004 255 255 255
6901.4731 -437.35709 12.90628 255 255 255
-903.42242 -170.87595 -1.7700251 255 255 255
-698.0683 -392.89566 -1.8438443 255 255 255
4496.4521 389.32974 3.3689585 255 255 255
2809.7571 667.91132 2.3501196 255 255 255
1368.8389 459.03909 3.7519994 255 255 255
-465.61658 -151.79456 -1.5351266 255 255 255
709.22424 -170.25546 0.66275895 255 255 255
18142.719 -639.91486 14.498862 255 255 255
24144.748 10486.032 83.731415 255 255 255
-184.40912 409.41949 -0.38805506 255 255 255
-196.008 240.89005 -0.58833897 255 255 255
-768.61566 -248.64717 -2.4978383 255 255 255
-567.38684 -381.1756 -1.7781378 255 255 255
-1819.8837 -432.61374 -4.3296137 255 255 255
25337.988 -1299.7592 20.939184 255 255 255
-185.86478 -125.16096 -1.2786491 255 255 255
-836.11884 -718.24115 -2.6471424 255 255 255
-569.47675 -135.30649 -1.5813061 255 255 255
1741.0232 276.70886 2.6129794 255 255 255
-132.2897 266.61835 -0.70560348 255 255 255
-1924.3827 526.72675 -3.174417 255 255 255
74525.688 -6253.8398 61.826191 255 255 255
-472.4985 -262.82462 -1.5665965 255 255 255
191.27953 -25.837273 0.61985171 255 255 255
4261.0366 -887.26233 6.2841816 255 255 255
-189.80771 271.37103 -0.61410195 255 255 255
-1075.7052 -374.58075 -2.1049843 255 255 255
4328.5083 517.77472 11.91025 255 255 255
26831.604 -378.47733 63.920723 255 255 255
460.28568 398.32263 0.82461929 255 255 255
69256.75 -5915.1665 56.568878 255 255 255
-1289.7173 -455.89328 -2.6710656 255 255 255
-1022.7098 23.267769 -2.8367558 255 255 255
1692.3092 471.37579 4.050427 255 255 255
-3321.9082 261.38684 -6.788887 255 255 255
-604.65875 -1.7584072 -2.1294112 255 255 255
12177.48 -32.276215 10.128903 255 255 255
1143.1503 459.52127 2.9667833 255 255 255
21964.904 -2236.564 19.355558 255 255 255
-235.5486 -287.10095 -1.4771042 255 255 255
3565.0405 960.82007 2.4629362 255 255 255
2413.3247 596.37708 2.1437137 255 255 255
-4926.9136 -3455.6074 -7.8407235 255 255 255
-193.18967 465.60736 -0.49302399 255 255 255
2531.905 627.16943 2.1926887 255 255 255
-1140.637 -302.89758 -2.1614275 255 255 255
-3176.6711 -3205.7561 -8.3832226 255 255 255
18662.289 -632.95514 15.676145 255 255 255
-1789.0917 -620.0401 -2.6949093 255 255 255
-328.10147 -119.87635 -1.5934556 255 255 255
-8028.6562 -1539.564 -16.882334 255 255 255
-422.32468 42.106087 -1.7671822 255 255 255
-0.28568217 214.3506 -0.7705788 255 255 255
4035.0854 733.59058 6.2629523 255 255 255
-2346.1123 -371.73303 -4.210113 255 255 255
-1980.8282 -969.98279 -6.8428874 255 255 255
2248.9863 1873.5099 3.4887221 255 255 255
1181.1851 -341.22079 1.1385546 255 255 255
-1036.8795 -292.89716 -2.1662304 255 255 255
-408.35486 -96.924767 -1.413913 255 255 255
-1520.2239 -921.9978 -3.4101994 255 255 255
386.36502 58.519451 0.53848034 255 255 255
-1018.8145 -49.66642 -2.677284 255 255 255
-500.20972 -85.322113 -1.4656711 255 255 255
-941.00562 -7.4095979 -2.6458602 255 255 255
12310.322 9798.1992 20.005239 255 255 255
-535.91394 -125.27016 -1.5523455 255 255 255
-237.14914 -240.6812 -1.5194563 255 255 255
-1412.4244 -588.57043 -2.5815277 255 255 255
591.80054 138.16444 1.8715881 255 255 255
-3989.8711 -2268.3518 -6.9626913 255 255 255
-11760.138 934.4267 -16.178066 255 255 255
-930.87427 69.985489 -2.9267106 255 255 255
-891.94849 -129.10025 -1.7301707 255 255 255
-8.1351671 625.07422 -0.45203322 255 255 255
502.09952 191.96628 0.85408068 255 255 255
33.447388 176.35385 -0.30898321 255 255 255
478.92957 193.79462 0.68755752 255 255 255
-1611.8285 -507.11154 -2.721148 255 255 255
-7209.6064 -4501.4189 -12.315918 255 255 255
-5296.5503 204.56367 -10.696982 255 255 255
-2931.916 -1667.5634 -4.7481475 255 255 255
400.87244 85.723717 0.2788837 255 255 255
-1058.3431 174.96358 -3.483803 255 255 255
594.20477 -207.65593 0.59621829 255 255 255
18376.049 -598.44263 15.462301 255 255 255
-4974.7563 -3175.2131 -7.7915487 255 255 255
21.020206 169.05266 -0.32474494 255 255 255
-309.91809 -43.593407 -1.549244 255 255 255
595.24744 565.776 0.93827903 255 255 255
460.9877 96.287582 1.6316748 255 255 255
-1669.9841 -465.1037 -4.0254745 255 255 255
-162.47713 462.8176 -0.34221172 255 255 255
865.69305 -64.092194 2.3817203 255 255 255
1645.6155 -636.16431 1.6225972 255 255 255
-1794.9523 236.37608 -4.1423678 255 255 255
-62463.004 8873.1123 -48.846348 255 255 255
-4095.3933 276.61664 -8.5000668 255 255 255
10747.501 115.15269 8.1990147 255 255 255
1821.1973 331.38321 2.1119611 255 255 255
-574.47876 -340.72983 -1.8757164 255 255 255
3284755 1676017.5 4104.3584 255 255 255
4535.666 4245.1738 8.621129 255 255 255
3035.9097 399.00162 3.2199702 255 255 255
452.67087 92.45562 0.62811852 255 255 255
569.5957 279.28943 2.7455783 255 255 255
23737.367 -1122.8768 19.811684 255 255 255
48674.723 -3445.4878 41.34116 255 255 255
1063.8032 409.98935 1.955 255 255 255
-101.67596 293.59351 -0.71305054 255 255 255
7212.8047 184.00117 4.793323 255 255 255
27490.035 -1604.349 22.222847 255 255 255
-9801.8096 840.31274 -13.646529 255 255 255
142.22154 32.28072 0.18913321 255 255 255
3922.8281 969.95502 2.6495404 255 255 255
2023.3489 376.94803 2.2225301 255 255 255
-3681.9194 -3183.4644 -6.7536526 255 255 255
24447.707 1713.4686 20.329485 255 255 255
1994.2596 483.46634 5.83144 255 255 255
-626.23206 -315.23358 -1.6386168 255 255 255
1162.6849 -227.17696 0.8934437 255 255 255
22462.107 -50.799252 16.8438 255 255 255
643.61841 271.00415 1.0664912 255 255 255
-21696.078 2697.594 -20.644466 255 255 255
-1836.8738 -518.05939 -3.2686975 255 255 255
-987.12067 -275.6409 -2.0327637 255 255 255
1587.4756 20.772146 1.3406599 255 255 255
13143.119 -101.89464 12.068281 255 255 255
16761.02 -348.65256 16.294672 255 255 255
-170.75668 216.16417 -0.63086689 255 255 255
-586.93109 -119.06911 -1.9759321 255 255 255
3449.531 -351.8887 4.9282403 255 255 255
11.526517 115.13828 -0.086999953 255 255 255
113.35312 53.032143 0.18259454 255 255 255
58.79628 731.38104 -0.45526484 255 255 255
-736.68738 37.786938 -2.3199377 255 255 255
1033.2474 -302.64792 0.80957448 255 255 255
21016.092 -905.21893 17.138014 255 255 255
-2036.046 182.69322 -5.0759292 255 255 255
-9424.7344 764.69409 -17.874979 255 255 255
5882.6978 3578.1558 16.971558 255 255 255
31411.861 -1957.9136 25.733961 255 255 255
450.86365 98.038986 0.62066185 255 255 255
-397.25766 69.289322 -1.7166684 255 255 255
-2022.9424 -1410.1559 -4.3217888 255 255 255
651.49731 190.24547 1.1608915 255 255 255
-1596.0201 389.82727 -3.006469 255 255 255
-1417.665 -68.290504 -3.6737666 255 255 255
4325.0254 661.97681 3.4328351 255 255 255
15149.031 -336.26041 10.512513 255 255 255
-19373.791 1289.4701 -16.517899 255 255 255
4396.6987 681.87054 3.4269054 255 255 255
39731.367 -2766.8149 32.79549 255 255 255
418.90671 100.13358 0.3881855 255 255 255
-1275.4952 -615.80945 -2.7240119 255 255 255
1117.2161 332.25449 1.9078701 255 255 255
-4714.6045 -3377.002 -17.159016 255 255 255
-9871.6768 835.71893 -13.80296 255 255 255
584.68781 206.43439 1.0596325 255 255 255
-2531.5432 -2266.4746 -7.4068809 255 255 255
33162.062 -1979.2994 28.135572 255 255 255
2132.0925 2499.8896 5.2242818 255 255 255
-639.59711 -153.17668 -1.7666035 255 255 255
-2703.7964 404.47821 -4.7185602 255 255 255
-538.33167 -348.04544 -2.7735441 255 255 255
-432.33914 -28.903919 -1.4775066 255 255 255
-725.54285 -216.20216 -1.7578034 255 255 255
946.3891 3.1260464 1.2645813 255 255 255
-1360.7573 -246.8037 -2.3853655 255 255 255
24464.684 -1149.5947 20.798042 255 255 255
8380.3516 86.924492 10.54887 255 255 255
-1995.4388 -1622.4137 -4.7733483 255 255 255
-496.82211 -102.53644 -1.8103085 255 255 255
-1594.8126 -610.22003 -2.5980566 255 255 255
554.79138 334.38431 0.8580271 255 255 255
354.64215 178.75589 0.78425384 255 255 255
-1447.009 -378.67526 -3.4941199 255 255 255
-68846.703 13415.358 -47.242607 255 255 255
-562.7265 -323.21387 -1.7490675 255 255 255
-3204.7522 -1748.0555 -5.0609198 255 255 255
-670.57343 -225.76886 -1.7828854 255 255 255
7023.4863 428.79486 5.6906729 255 255 255
47487.602 -3360.3689 40.315521 255 255 255
-737.19977 -338.93579 -1.902105 255 255 255
50094.758 1764.8905 35.532658 255 255 255
-564.40125 72.977959 -2.063642 255 255 255
-714.67883 -228.3204 -1.7149531 255 255 255
261.74295 76.966469 0.49244285 255 255 255
440.43765 62.31963 0.62626004 255 255 255
918.41284 129.8763 1.3151472 255 255 255
-2551.9282 141.18457 -5.160008 255 255 255
-2241.6199 143.47429 -4.958642 255 255 255
22696.535 -1051.0426 18.758017 255 255 255
234.13907 -33.81168 0.19967718 255 255 255
268.13251 149.37868 0.83352047 255 255 255
-4844.9297 -538.26031 -10.520285 255 255 255
-15628.992 3571.968 -12.296541 255 255 255
-11013.162 -599.49774 -31.927517 255 255 255
1249.8593 -525.46545 1.463396 255 255 255
-2158.2849 -1015.1555 -5.4688315 255 255 255
18703.201 -632.98303 15.713214 255 255 255
7466.9097 374.22684 6.1729412 255 255 255
1933.0668 -525.86859 1.5951052 255 255 255
-1653.2606 207.52682 -3.6899164 255 255 255
-1116.9246 61.734886 -2.9772646 255 255 255
3470.1555 853.70746 2.5316865 255 255 255
-1070.3982 382.60818 -2.2564154 255 255 255
-511.62048 -223.46286 -1.553265 255 255 255
3380.5352 873.61334 2.4490149 255 255 255
-411.953 -22.558313 -1.4615482 255 255 255
5810.6035 647.98175 4.2673855 255 255 255
-1474.2419 -758.91809 -2.7436943 255 255 255
-122.66082 542.52386 -0.34070313 255 255 255
-210.65147 -212.20857 -1.501457 255 255 255
-578.23267 -117.931 -1.6068817 255 255 255
-739.90796 -295.6586 -1.8293616 255 255 255
-626.57159 -485.71579 -2.1630676 255 255 255
4865.1982 115.23741 6.4872842 255 255 255
-1800.3157 -783.81628 -2.7370052 255 255 255
393262.81 -59390.477 270.94241 255 255 255
-853.43597 149.84654 -2.5995369 255 255 255
-1422.9965 -425.45508 -2.6052117 255 255 255
-2734.2329 305.78253 -6.2016692 255 255 255
-555.15356 -64.503685 -1.5311993 255 255 255
-801.10217 -539.99371 -2.2650599 255 255 255
-711.51245 -91.620972 -2.1583459 255 255 255
331.73514 58.66853 0.45149618 255 255 255
-94.961639 297.65448 -0.68030703 255 255 255
5040.2104 -2150.2566 4.7738481 255 255 255
3505.8008 899.08167 2.4936659 255 255 255
-1173.0569 -315.34283 -2.2227504 255 255 255
-18.016666 566.00824 -0.41647473 255 255 255
-218.80637 315.58463 -0.4598816 255 255 255
-893.38922 -453.77316 -2.919014 255 255 255
-82685.938 11125.229 -64.899582 255 255 255
-457.76318 -135.93106 -1.4387857 255 255 255
1230.3352 -459.53809 1.0900546 255 255 255
-40862.176 6494.9331 -31.764914 255 255 255
4725.8833 816.98724 3.3629031 255 255 255
2.323771 162.43719 -0.13490945 255 255 255
7985.7808 289.08005 5.4930172 255 255 255
-2472.0078 -292.19943 -5.0088434 255 255 255
11594.769 -843.06537 21.965454 255 255 255
5095.1504 -106.50571 12.482178 255 255 255
3012.6899 802.21222 2.2976067 255 255 255
3022.6233 804.43201 2.3018963 255 255 255
-11320.548 2001.698 -10.726613 255 255 255
1115.6237 -429.26514 0.96274441 255 255 255
-1090.4692 -398.71771 -2.2186766 255 255 255
-8.814991 180.89043 -0.81317246 255 255 255
3563.1907 960.73242 2.4617283 255 255 255
-467.55103 -173.1301 -1.5140316 255 255 255
74.876389 -7.054481 0.055466823 255 255 255
370.19125 -4.4509811 0.33196071 255 255 255
-12089.466 951.22565 -16.598648 255 255 255
-487.26379 -162.73996 -1.5615286 255 255 255
1157.0133 297.073 1.3598932 255 255 255
4207.5757 669.01953 3.3377295 255 255 255
4538.7847 3197.6865 7.4217987 255 255 255
40.398651 1.9947717 0.081330903 255 255 255
-190.95358 433.04565 -0.32206011 255 255 255
-6155.2583 1714.9286 -5.93261 255 255 255
1484.8468 1613.4276 2.6208532 255 255 255
458.42542 91.993401 0.63793963 255 255 255
8006.5044 405.4903 6.0079756 255 255 255
405.3956 58.694336 0.5695104 255 255 255
3968.126 927.28656 2.7064512 255 255 255
-551.13379 -191.67409 -1.7173468 255 255 255
-2076.3245 -1161.2885 -3.7932754 255 255 255
-270.44009 -217.94827 -1.4800712 255 255 255
1984.6509 269.20227 2.5127053 255 255 255
427.72446 92.520462 0.58759677 255 255 255
-160.59276 260.46378 -0.57470864 255 255 255
1752.8964 294.95941 2.1344383 255 255 255
-152.70569 -168.00734 -1.3167118 255 255 255
-14.404502 253.42732 -0.1952965 255 255 255
-757.50177 -303.58673 -1.9955126 255 255 255
-1447.2611 -1336.6235 -3.5774288 255 255 255
-52.255505 426.01093 -0.33777541 255 255 255
-1772.1755 230.43449 -3.8316231 255 255 255
-2098.9966 236.66367 -4.4349699 255 255 255
1852.0476 -290.74832 1.6360178 255 255 255
-4059.8145 -1089.9314 -11.220799 255 255 255
7162.0518 142.85571 5.5053029 255 255 255
3551.0562 976.3609 2.4260767 255 255 255
2925.3005 774.03973 2.2737153 255 255 255
-845.26483 -794.84332 -2.3894799 255 255 255
177.69739 125.00732 0.31343308 255 255 255
8001.6704 277.92059 7.2381763 255 255 255
-960.60187 -311.35449 -2.1635597 255 255 255
-406.5722 -237.59755 -1.5836781 255 255 255
1822.6281 331.25928 2.1136196 255 255 255
471.6644 158.70117 0.83938706 255 255 255
-931.79767 -523.54321 -2.6933458 255 255 255
10805.443 107.72348 8.1902285 255 255 255
-1331.4774 -44.046486 -2.7950649 255 255 255
-2914.2756 -569.18848 -6.8352704 255 255 255
2917.376 769.23999 2.2743471 255 255 255
-832.76392 -490.43347 -2.2108395 255 255 255
2895.5645 674.64404 2.4029846 255 255 255
-551.84302 -174.00955 -1.594784 255 255 255
-228.14996 280.57718 -0.6104722 255 255 255
-88.746605 -16.3081 -1.1575375 255 255 255
-475.75067 -28.053003 -1.4029227 255 255 255
-1572.9526 -827.0564 -3.2625079 255 255 255
932.28967 67.751335 1.5071285 255 255 255
-943.02063 347.08749 -3.8600087 255 255 255
5811.4346 634.55988 4.2819695 255 255 255
-78.174263 386.72296 -0.36601177 255 255 255
-970.65802 -592.37366 -2.4323468 255 255 255
-461.13266 -47.323605 -1.6402096 255 255 255
-919.09424 -277.30832 -1.8862216 255 255 255
378.53217 58.077675 0.52624667 255 255 255
718.57062 85.625992 1.0885884 255 255 255
-2516.7163 293.85971 -5.6433344 255 255 255
-668.24725 28.409985 -1.734373 255 255 255
-497.76236 -89.505829 -1.5189101 255 255 255
-222.41394 -179.70311 -1.4241964 255 255 255
2915.1943 764.37701 2.2776818 255 255 255
-817.99756 160.67419 -2.9174562 255 255 255
-538.63989 -113.91412 -1.5404359 255 255 255
-1363.4713 -465.91867 -2.5187771 255 255 255
479.36594 155.21964 1.4755026 255 255 255
1615.7983 -758.90405 1.5914458 255 255 255
-619.89935 -141.00835 -1.6387988 255 255 255
7834.4912 422.41406 5.8822613 255 255 255
2136.72 335.63638 3.0428059 255 255 255
2142.0229 -178.28459 2.1617813 255 255 255
415.1694 94.723038 0.56613702 255 255 255
4935.5942 169.79639 6.693573 255 255 255
2771.6262 672.66614 2.3126764 255 255 255
-916.02686 -777.40228 -2.4285452 255 255 255
1137.9711 64.218506 1.8912488 255 255 255
741.06342 92.710304 1.116008 255 255 255
-1178.3894 -452.10263 -2.2072902 255 255 255
1440.937 402.94583 1.5181212 255 255 255
181.85049 51.00132 0.23609646 255 255 255
7792.6533 430.06049 5.8438668 255 255 255
771.1203 93.910545 1.1681461 255 255 255
-109.32218 660.80798 -0.3953349 255 255 255
52843.832 -3880.5315 44.780788 255 255 255
16354.992 -408.00601 13.793413 255 255 255
-1421.4435 -703.08398 -2.803782 255 255 255
10963.974 45.302441 10.496237 255 255 255
15668.335 -279.27921 15.213504 255 255 255
-255.17412 -160.67322 -1.3360783 255 255 255
-12146.637 -24.963701 -23.552485 255 255 255
-749.36169 -35.179443 -1.9326208 255 255 255
32114.562 14792.577 60.28759 255 255 255
1673.415 381.32397 1.8202783 255 255 255
-692.9024 -287.90704 -1.6635342 255 255 255
776.63641 597.55829 1.6877739 255 255 255
-1117.8811 232.92203 -2.6128674 255 255 255
466.20392 -107.10909 0.47211984 255 255 255
64661.633 7466.5938 112.8879 255 255 255
6346.8511 389.0939 5.7476883 255 255 255
-498.47147 -248.7198 -1.5058365 255 255 255
-85.85508 -28.69582 -1.1485327 255 255 255
419.10495 197.61783 0.70027208 255 255 255
-498.32492 3.4257116 -1.5593696 255 255 255
-12.019583 652.57153 -0.40997389 255 255 255
-225.28871 295.83316 -0.50048995 255 255 255
-872.677 60.263737 -2.6085188 255 255 255
748.6543 88.289543 1.2039189 255 255 255
7336.3486 112.51296 5.020865 255 255 255
1183.1511 67.251312 1.9691207 255 255 255
-1126.0413 234.65352 -2.6241255 255 255 255
4465.8794 -2303.1187 6.593082 255 255 255
1488.3762 350.25137 1.6663849 255 255 255
1436.2299 397.22437 1.5195882 255 255 255
-591.35254 -23.164392 -1.9235079 255 255 255
-205.24756 256.95209 -0.49094617 255 255 255
68443.922 -5352.2842 58.15699 255 255 255
1367.351 63.912193 1.2724053 255 255 255
2332.738 195.10625 1.2172819 255 255 255
4483.2505 107.46581 3.5150957 255 255 255
4710.3281 170.8705 6.4403605 255 255 255
-542.51813 -1.4785295 -1.6033555 255 255 255
1825.2136 284.53085 2.2556136 255 255 255
3591.4451 970.18951 2.4578462 255 255 255
-164.42725 284.81555 -0.65121758 255 255 255
4657.4087 171.93155 6.3761778 255 255 255
417.23975 77.545624 0.89418846 255 255 255
10753.387 58.246422 10.292667 255 255 255
-2272.554 -1220.6 -4.270309 255 255 255
382.39563 -151.74657 0.38595304 255 255 255
-878.93182 40.439648 -2.605953 255 255 255
-1096.2191 78.142097 -2.8167834 255 255 255
27594.631 -1463.5938 23.406252 255 255 255
-263.33594 -61.309155 -1.4016342 255 255 255
-219433.75 36706.266 -151.06577 255 255 255
551.63306 151.30386 0.36668876 255 255 255
-68.36145 383.53333 -0.35605362 255 255 255
425.84134 96.535522 0.30160397 255 255 255
-444.39069 -11.072148 -1.4926356 255 255 255
-1148.1708 35.161629 -3.0398943 255 255 255
-3725.7341 -503.67072 -7.0875306 255 255 255
-2190.5251 -641.15186 -6.2128487 255 255 255
5751.7881 141.87071 7.929985 255 255 255
16.053066 430.73706 -0.58510774 255 255 255
-924.9707 1.6364459 -2.7769177 255 255 255
-4683.249 -1651.0217 -15.605133 255 255 255
-4533.7671 -3194.229 -8.1911249 255 255 255
4304.6807 -1970.2687 4.1777353 255 255 255
2977.9683 764.80865 2.3227181 255 255 255
-565.09296 -355.76334 -1.7014748 255 255 255
-34686.488 2161.3518 -43.417431 255 255 255
14845.936 -300.08688 12.028461 255 255 255
-1156.9321 -334.67783 -2.9909644 255 255 255
-181.05309 235.8952 -0.63554406 255 255 255
-812.86401 -60.816059 -2.2572424 255 255 255
-1135.0347 -720.90686 -3.0064199 255 255 255
107.90344 54.403469 0.18212013 255 255 255
-1063.3029 2.4410956 -3.1706257 255 255 255
-272.73764 -36.392982 -1.5322456 255 255 255
5131.5151 651.3158 4.5240588 255 255 255
6048.0791 1464.5442 9.8563757 255 255 255
1616.2891 -660.91461 2.824928 255 255 255
-57226.895 8233.1699 -44.807526 255 255 255
14103.624 -299.97549 10.349477 255 255 255
20654.543 769.63184 16.3974 255 255 255
-1164.2155 -186.51378 -2.0754709 255 255 255
-1924.084 527.69678 -3.1733077 255 255 255
-292.80032 -42.406387 -1.5426992 255 255 255
1359.2717 -20.830544 2.6565046 255 255 255
-746.58521 -350.27368 -1.8185259 255 255 255
-262.79486 -124.6343 -1.5525275 255 255 255
-2037.5044 688.8291 -3.3466613 255 255 255
-87.544609 -16.033054 -1.1183069 255 255 255
-716.82056 53.278915 -2.3439772 255 255 255
-5990.0396 1719.3073 -5.7721529 255 255 255
-972.09924 -498.39679 -2.1949897 255 255 255
-62.589771 216.96466 -0.72483993 255 255 255
27695.334 -1618.004 22.393658 255 255 255
-25.911844 190.43761 -0.78887522 255 255 255
-375.03391 19.86014 -1.2620249 255 255 255
96.387291 698.01007 -0.3981832 255 255 255
-281.25473 -40.385696 -1.5566339 255 255 255
390.07858 117.65504 0.67990804 255 255 255
5349.6099 1058.0472 12.699512 255 255 255
33662.051 -737.35693 65.753937 255 255 255
1426.5317 340.42822 1.6127204 255 255 255
4752.9277 776.7923 3.4085305 255 255 255
15527.894 514.07654 10.637267 255 255 255
-0.55009204 642.24823 -0.47317001 255 255 255
2169.8621 409.25632 2.2994516 255 255 255
749.1438 -156.90672 0.75475997 255 255 255
-228.72314 -57.857998 -1.2234725 255 255 255
411.47556 111.07584 0.74832535 255 255 255
78.027939 469.14511 -0.67478073 255 255 255
3034.9358 713.39911 5.024178 255 255 255
1919.3879 353.83963 2.166014 255 255 255
12212.764 -12.590818 8.3995237 255 255 255
-1520.9873 -410.93915 -4.5465431 255 255 255
1747.4543 82.123482 2.9292061 255 255 255
-802.6452 -296.50861 -1.8051308 255 255 255
-1017.3205 -210.03415 -3.1177173 255 255 255
-455.05997 87.042557 -1.9903858 255 255 255
-2262.5881 -308.86044 -5.2989068 255 255 255
-8641.9668 868.61798 -11.586117 255 255 255
-114.51792 194.10295 -0.57454765 255 255 255
-28887.004 -19819.4 -49.576134 255 255 255
-2056.4402 -1215.7086 -3.5039549 255 255 255
-47.07246 319.89255 -0.22502333 255 255 255
-1078.272 -243.48772 -3.0819058 255 255 255
165.31001 87.832535 0.35383564 255 255 255
478.95724 381.71136 0.84476817 255 255 255
570.06897 41.025307 1.040166 255 255 255
415.70291 7.9993362 0.7094965 255 255 255
-2891.1458 -2475.0093 -5.8689055 255 255 255
51689.527 -4540.1484 40.179695 255 255 255
9706.3809 44.944042 6.9535079 255 255 255
4798.2095 499.64508 3.0735726 255 255 255
2039.0129 483.01746 2.001111 255 255 255
2654.135 1598.8905 10.451185 255 255 255
12188.771 -1038.0594 8.1034765 255 255 255
-250.86337 -256.12961 -1.5511805 255 255 255
-5564.75 -3544.9312 -9.7853937 255 255 255
7983.958 332.82812 6.6220999 255 255 255
2038.0763 511.83774 1.9465184 255 255 255
-1616.2699 -241.40166 -4.1727018 255 255 255
3828.6304 905.06946 2.6798556 255 255 255
1700.4537 745.20703 2.9144521 255 255 255
-567.12329 52.354805 -1.6245874 255 255 255
-1328.4536 -564.18268 -2.6151838 255 255 255
-1826.9934 -162.02673 -3.8809302 255 255 255
212.96136 194.52719 0.52281976 255 255 255
-1945.3818 -956.89331 -4.204464 255 255 255
6912.7729 -135.26845 12.552593 255 255 255
-788.53882 -193.76237 -1.6785061 255 255 255
-1083.2285 -528.2583 -2.5595274 255 255 255
-608.06812 -414.06015 -1.8247865 255 255 255
3506.9507 664.73541 2.8744171 255 255 255
1098.859 457.97873 3.2832761 255 255 255
613.21924 150.15668 1.663982 255 255 255
-9837.5654 843.73004 -13.697311 255 255 255
-706.80322 -125.41319 -2.3263886 255 255 255
6300.23 -27.973225 11.056621 255 255 255
1890.1077 476.66635 1.8655385 255 255 255
-28030.279 4443.6709 -22.91585 255 255 255
7614.5117 2446.0447 12.633821 255 255 255
-947.42242 145.32437 -2.7321196 255 255 255
-518.67157 -55.891354 -1.4266621 255 255 255
-9879.2725 837.66718 -13.811375 255 255 255
-246.39819 395.56537 -0.36831683 255 255 255
-40325.555 6289.8706 -31.590197 255 255 255
13429.775 269.69479 9.2263374 255 255 255
103743.69 49998.941 239.81454 255 255 255
1764.8938 292.70963 2.1503029 255 255 255
14202.511 -332.93524 13.634397 255 255 255
1341.3641 43.770245 2.6652007 255 255 255
17013.475 -154.82051 11.678764 255 255 255
-16.511616 174.36746 -0.13383964 255 255 255
-626.01929 -314.97189 -1.638222 255 255 255
-498.34512 -369.08231 -1.7585733 255 255 255
3162.9126 713.53546 2.5365586 255 255 255
-1649.3263 -816.58862 -3.1842289 255 255 255
-1592.0625 -902.60687 -3.1020379 255 255 255
-1186.5492 -954.33942 -3.1060143 255 255 255
-26.927011 305.69876 -0.45886907 255 255 255
591.6142 86.166344 0.86844134 255 255 255
5926.3481 519.10602 4.1017709 255 255 255
508.61874 127.73876 1.1503839 255 255 255
-763.82397 -153.92456 -1.8944339 255 255 255
3034.479 398.08545 3.2177932 255 255 255
291.64377 67.441101 0.42241818 255 255 255
8311.4971 90.738716 10.398639 255 255 255
2480.5945 329.39838 2.889287 255 255 255
264.61133 72.318451 0.49079308 255 255 255
3283.5322 887.04181 2.3735628 255 255 255
1285.8027 -453.61511 1.2321657 255 255 255
1306.6035 1465.5997 2.9135735 255 255 255
16451.354 -353.38046 15.202453 255 255 255
-106.6239 663.46838 -0.38970971 255 255 255
-599.77795 -235.51564 -1.6009047 255 255 255
453.13318 87.738899 0.61464858 255 255 255
1846.4336 -758.25714 2.1167443 255 255 255
247.80975 86.726181 0.3891376 255 255 255
-402.13318 -59.003048 -1.3610981 255 255 255
-601.73822 -425.75 -2.0635803 255 255 255
3700.1418 905.25122 2.6040616 255 255 255
-1345.6084 -330.08609 -2.4000163 255 255 255
-17515.863 3684.5151 -13.867511 255 255 255
4929.1982 172.49371 6.6860356 255 255 255
-983.52863 14.644217 -3.2664886 255 255 255
4323.292 660.14362 3.4288719 255 255 255
-473.14453 -223.73961 -1.5987741 255 255 255
-1450.6382 -497.52762 -3.5541015 255 255 255
1186.2129 67.431641 1.9747354 255 255 255
-215.52994 284.91214 -0.5287801 255 255 255
-1514.2618 -664.35956 -2.8227222 255 255 255
394.2009 -73.567619 0.42000467 255 255 255
8.3724298 572.28174 -0.49385414 255 255 255
1365.3623 -433.84821 1.3485048 255 255 255
-964.41693 -456.4845 -2.1070845 255 255 255
-488.11581 -136.42911 -1.5222574 255 255 255
-669.26538 110.17259 -2.1918931 255 255 255
6585.543 197.99834 11.222126 255 255 255
-892.05908 -397.04373 -4.3275347 255 255 255
-19833.764 4084.1882 -15.434067 255 255 255
-154.53053 181.38797 -0.64193851 255 255 255
-103.19283 166.62657 -0.67183971 255 255 255
1128.4738 72.478745 0.84566116 255 255 255
-576.88013 102.16624 -2.0470896 255 255 255
3519.0256 849.09546 2.5019035 255 255 255
-274.87329 -180.37944 -1.4525428 255 255 255
1304.5704 -186.77859 3.9285536 255 255 255
31190.285 -1805.8951 26.468388 255 255 255
-188735.73 20304.842 -157.02678 255 255 255
-61600.711 8840.998 -47.959934 255 255 255
5018.0942 126.54588 6.7277107 255 255 255
14497.714 1968.037 26.015713 255 255 255
6940.6768 523.1153 5.1680303 255 255 255
-3339.8022 290.71698 -4.6170602 255 255 255
240.65988 143.62242 0.63554174 255 255 255
672.3194 -83.199455 0.56795454 255 255 255
1701.679 -386.38983 1.2685568 255 255 255
698.81567 258.69968 1.6212684 255 255 255
-645.42175 -132.48608 -1.6612761 255 255 255
756.01788 71.754326 2.0870509 255 255 255
-2552.4858 -1465.3754 -4.2754045 255 255 255
-1447.7378 583.81519 -2.472146 255 255 255
-2150.5278 237.03067 -4.529501 255 255 255
-625.86328 -201.86938 -1.7106671 255 255 255
1447.7145 235.35327 1.8913487 255 255 255
3595.3362 966.50684 2.4631865 255 255 255
-1460.8176 24.911564 -3.714129 255 255 255
770.48694 93.657677 1.1667174 255 255 255
-2656.8318 133.83421 -5.245677 255 255 255
-58166.941 8304.3457 -45.586071 255 255 255
1502.6594 229.14748 1.9868397 255 255 255
-7234.7129 -3904.0706 -10.998801 255 255 255
372.53769 -68.407028 0.31941777 255 255 255
16620.322 3601.8459 46.135204 255 255 255
-830.29315 -73.018639 -2.387023 255 255 255
1323.9358 324.95944 2.9796205 255 255 255
3383.9519 875.28186 2.4516883 255 255 255
-1112.2102 -729.19641 -2.7724702 255 255 255
-462.41324 -314.58942 -1.6223347 255 255 255
2573.093 226.13043 2.3260291 255 255 255
-4383.5859 -762.65552 -9.3493376 255 255 255
1420.9697 -404.01511 1.5618733 255 255 255
-4409.1655 -1042.4956 -8.4624691 255 255 255
1672.3508 381.10797 1.8194752 255 255 255
3511.3691 901.86334 2.4984171 255 255 255
2923.7375 774.81531 2.2732227 255 255 255
-31438.617 4594.3477 -23.733938 255 255 255
1920.5923 354.70801 2.1674154 255 255 255
-279.59088 -239.15814 -1.595865 255 255 255
167.29106 19.195869 0.3554661 255 255 255
-1921.6445 223.06319 -4.1528735 255 255 255
-1231.4059 -95.782677 -4.0664616 255 255 255
-114.42106 181.66414 -0.53857541 255 255 255
566.41492 311.99985 1.0538656 255 255 255
995.28918 489.12439 1.8344324 255 255 255
-40558.461 6305.9277 -31.794409 255 255 255
3476.0798 853.77527 2.5360007 255 255 255
-767.60071 -11.33133 -2.4815238 255 255 255
-1022.2495 -47.55476 -2.6470609 255 255 255
-1409.1172 18.229208 -2.8067083 255 255 255
1851.8469 338.41397 2.1280577 255 255 255
-229.36209 -41.818535 -1.4247105 255 255 255
-10595.84 -1782.2533 -20.888956 255 255 255
-77.509918 587.27643 -0.47541848 255 255 255
3615.8892 962.9519 2.4801149 255 255 255
413.89371 94.47953 0.56420624 255 255 255
673.44489 273.84879 1.3162948 255 255 255
5831.5088 639.53699 4.2973962 255 255 255
-174.9749 -148.5518 -1.2677041 255 255 255
-2550.3523 206.7681 -5.6593947 255 255 255
-3046.9731 -1248.896 -5.2100964 255 255 255
-4019.063 -1305.4346 -10.802159 255 255 255
-655.03705 -21.832081 -1.934177 255 255 255
385.151 58.223125 0.53695756 255 255 255
5745.4956 645.73932 4.2309241 255 255 255
-5277.6782 -1701.6355 -6.3893857 255 255 255
-2185.6885 -472.73926 -7.9040074 255 255 255
-68930.789 13423.827 -47.2981 255 255 255
-876.53143 141.2644 -2.715394 255 255 255
-5994.4297 1718.8904 -5.774406 255 255 255
642.2926 -87.301346 0.52296048 255 255 255
-1058.8806 -462.737 -3.4002583 255 255 255
1460.9492 753.1853 0.7926836 255 255 255
-923.69177 107.19869 -3.2330863 255 255 255
9614.7031 183.07317 9.1544809 255 255 255
-82.439735 261.08432 -0.53613865 255 255 255
1440.6887 403.43317 1.5177023 255 255 255
7795.1709 433.94711 5.8480206 255 255 255
-2110.7751 237.13271 -4.4574909 255 255 255
-89.210938 434.05499 -0.41027242 255 255 255
15288.34 -333.42453 12.400735 255 255 255
-237.85365 -180.54697 -1.4620482 255 255 255
10650.648 -933.37634 19.261494 255 255 255
-639.1355 226.83871 -2.588197 255 255 255
1430.6595 399.14017 1.5137879 255 255 255
-258.26331 392.03415 -0.35971436 255 255 255
1988.2073 269.24844 2.5187702 255 255 255
-689.90985 -310.22366 -1.7733314 255 255 255
1439.6813 399.74753 1.5236201 255 255 255
6517.2754 841.50946 18.130571 255 255 255
2053.8992 280.80859 2.5562544 255 255 255
1559.9517 -325.63043 1.1418943 255 255 255
-786.59546 -502.68622 -2.060231 255 255 255
1729.4562 -244.01131 3.4166579 255 255 255
-529.08942 -226.67816 -1.5543483 255 255 255
-567.68286 -213.63245 -1.6346297 255 255 255
438.10199 105.72529 0.63784891 255 255 255
-467.43997 -106.43214 -2.7567244 255 255 255
1011.1757 1.0930588 1.3842816 255 255 255
6353.1533 390.47534 5.7522111 255 255 255
-804.70764 -541.92133 -2.1676836 255 255 255
12318.914 -46.518929 11.831954 255 255 255
2026.4116 282.54153 2.5203125 255 255 255
931.07471 90.906158 1.4554985 255 255 255
10208.697 -3375.7471 12.315693 255 255 255
-426.38837 -204.0016 -1.5174874 255 255 255
7462.6113 375.44492 6.1687255 255 255 255
-34730.23 2153.0276 -43.480988 255 255 255
168.36469 140.28767 0.48246121 255 255 255
-1465.8716 -550.01184 -2.5190442 255 255 255
-579.93646 -102.61269 -3.1569428 255 255 255
-2354.1091 -710.87866 -3.9310482 255 255 255
-99.771599 237.3773 -0.62758303 255 255 255
203.73056 51.060993 1.0043293 255 255 255
-418.41315 -23.614399 -1.467769 255 255 255
-526.96747 -338.45224 -1.8262712 255 255 255
427.00198 138.04713 0.53792733 255 255 255
-2.9300592 368.25757 -0.53263205 255 255 255
-206.35223 -86.616112 -1.2323822 255 255 255
-1934.3423 -531.93121 -6.5730886 255 255 255
-764.92273 -115.16689 -2.3253171 255 255 255
-1243.6874 -508.93869 -2.5439017 255 255 255
9571.3867 -194.68762 18.528049 255 255 255
2770.2622 672.88397 2.3115995 255 255 255
-733.49298 -66.702469 -2.1836112 255 255 255
-56573.098 8177.165 -44.244064 255 255 255
2914.7656 769.7749 2.2727296 255 255 255
-15.140167 344.41956 -0.50624293 255 255 255
-1892.7371 -364.60812 -4.422245 255 255 255
-40691.699 6471.8447 -31.626814 255 255 255
-11316.396 2003.4277 -10.709272 255 255 255
-562.31116 -298.10333 -1.7311234 255 255 255
4672.8931 173.3895 6.3984056 255 255 255
-2092.3591 -815.68683 -5.2249346 255 255 255
-658.31531 -436.99945 -2.1414371 255 255 255
124.26622 636.53723 -0.456339 255 255 255
28022.848 -1492.8389 23.777592 255 255 255
-736.85724 -494.84158 -2.0562949 255 255 255
-706.0434 -404.30466 -2.0343306 255 255 255
-142.95702 213.33159 -0.65987432 255 255 255
41715.176 -1847.4752 82.945168 255 255 255
-11959.932 941.4436 -16.42639 255 255 255
1509.7091 -433.76233 1.7001712 255 255 255
-570.43665 88.987343 -2.0389295 255 255 255
391.35251 71.929535 0.54214156 255 255 255
7855.1221 424.33142 5.8975868 255 255 255
1007.4598 96.224762 1.5796186 255 255 255
62870.441 8806.0371 55.024761 255 255 255
19.202574 597.84521 -0.4952566 255 255 255
622.53149 -283.28308 0.6072278 255 255 255
-244.63728 -208.39394 -1.4077642 255 255 255
-6158.9512 1714.7385 -5.9360695 255 255 255
-705.43262 -244.24005 -1.7639326 255 255 255
-1125.363 234.49458 -2.623421 255 255 255
161.0195 140.71466 0.32371822 255 255 255
10726.446 60.175304 10.266874 255 255 255
421.5824 136.91446 1.3997977 255 255 255
-1165.4713 -303.20358 -3.2319 255 255 255
7544.8154 48.145023 6.917357 255 255 255
-1415.4752 -797.1662 -3.2952564 255 255 255
-1945.2218 -973.87762 -3.5270617 255 255 255
4831.999 173.95082 6.5459962 255 255 255
-2046.7761 240.25122 -4.3122849 255 255 255
-858.60046 -399.86053 -3.1541541 255 255 255
-49875.926 7322.1406 -39.223789 255 255 255
-535.25018 -194.24168 -1.5914365 255 255 255
245.81415 31.510754 0.18382069 255 255 255
10515.273 70.335899 10.194884 255 255 255
-645.24176 -489.93826 -2.1403565 255 255 255
-1595.3126 -610.58392 -2.5986519 255 255 255
-979.91919 -84.925102 -2.5491459 255 255 255
6902.894 5104.9785 10.97636 255 255 255
-1236.6305 -358.86411 -2.1782658 255 255 255
-36811.355 5829.6597 -28.715996 255 255 255
-1296.1921 -784.23334 -6.7392879 255 255 255
-1653.8552 207.76357 -3.6922522 255 255 255
-500.21274 -81.322365 -1.5364467 255 255 255
2477.6772 329.36496 2.8847754 255 255 255
-10580.944 879.85382 -14.634279 255 255 255
-11873.003 -8648.1475 -20.314007 255 255 255
3013.0823 801.92218 2.299257 255 255 255
3.9303284 567.83453 -0.49332261 255 255 255
4139.48 933.89905 2.8194842 255 255 255
-1658.7826 -807.09479 -3.0345271 255 255 255
-740.00757 -286.55899 -2.0219707 255 255 255
-282.73148 -332.42599 -1.6971581 255 255 255
-167.65034 242.41875 -0.49650556 255 255 255
-37.222485 568.35577 -0.42517564 255 255 255
1746.7836 1086.4316 2.6579072 255 255 255
22.51475 566.49896 -0.45893544 255 255 255
-345.05844 -341.83868 -1.7509035 255 255 255
-840.39868 -799.02753 -2.3950508 255 255 255
-1195.2531 -234.40361 -2.1062789 255 255 255
-455.52594 -281.52383 -1.5841749 255 255 255
2898.9275 761.59186 2.2729561 255 255 255
4701.0171 172.21339 6.4288702 255 255 255
-80.991776 271.43549 -0.73593485 255 255 255
-351.35883 -417.71323 -1.9255091 255 255 255
1.6051499 598.56262 -0.45586133 255 255 255
-636.65314 -338.14658 -1.8483204 255 255 255
-526.59985 -92.881706 -1.5049998 255 255 255
712.55615 73.801025 1.0950496 255 255 255
2918.1865 767.79669 2.2834768 255 255 255
430.59613 92.743446 0.27788833 255 255 255
-880.34253 -588.07275 -2.4039075 255 255 255
498.62405 157.06996 1.5200154 255 255 255
3272.9294 895.47595 2.357091 255 255 255
1473.2159 238.99957 1.9245965 255 255 255
-734.85272 -437.2291 -2.1706855 255 255 255
-473.56259 -362.03235 -1.6808646 255 255 255
10766.555 108.07541 8.1962214 255 255 255
-355.51868 115.32729 -1.6443751 255 255 255
-131.13068 225.16945 -0.62210238 255 255 255
51.246613 431.48077 -0.57370114 255 255 255
2980.6562 767.02008 2.3252466 255 255 255
5734.3438 663.93768 4.1764207 255 255 255
-409.75937 -128.80788 -1.6928257 255 255 255
-868.03497 -549.38562 -2.1790121 255 255 255
-822.12329 -524.25482 -2.1315281 255 255 255
273.11975 -10.617311 0.23497429 255 255 255
-1168.634 199.74104 -4.0545759 255 255 255
1052.9573 -477.2399 0.93787283 255 255 255
-620.39844 -340.45432 -1.8628467 255 255 255
-2245.1077 196.16365 -4.5913877 255 255 255
-328.65988 -51.241657 -1.6782116 255 255 255
527.21149 158.58672 1.4703581 255 255 255
-558.96112 -306.76941 -1.7041771 255 255 255
1888.9939 389.68689 2.044461 255 255 255
155.19322 77.804909 0.25867447 255 255 255
-397.53998 80.282127 -1.7739435 255 255 255
1424.6359 340.16272 1.6107049 255 255 255
4207.0874 668.45624 3.3382483 255 255 255
-420.9588 -190.83315 -1.8759513 255 255 255
6507.248 362.16962 4.2307835 255 255 255
-623.91406 -150.06978 -2.2926538 255 255 255
-321.11575 -67.015617 -1.3156625 255 255 255
8037.5381 713.60913 5.2813845 255 255 255
347.09317 -40.495541 0.2826806 255 255 255
3435.9116 920.4657 2.430547 255 255 255
7474.8833 4018.9329 16.487169 255 255 255
42627.75 -3451.7681 33.260757 255 255 255
-16.406538 241.06963 -0.74372441 255 255 255
-462.29941 -305.03226 -1.6053075 255 255 255
-750.42401 -341.53824 -2.0006263 255 255 255
-1571.0571 -834.82562 -2.9467514 255 255 255
4027.5042 514.29352 2.840317 255 255 255
-457.98483 -167.02011 -1.450913 255 255 255
-7794.1431 114.02393 -15.814905 255 255 255
-233.66679 -186.80716 -1.4323405 255 255 255
-2143.3499 402.04968 -3.8199284 255 255 255
625.2912 401.89844 1.1039295 255 255 255
-4944.6948 663.53162 -7.0570745 255 255 255
427.57162 92.70768 0.58752191 255 255 255
1768.2036 293.6481 2.1548882 255 255 255
-87.420723 353.98648 -0.34214824 255 255 255
435.48816 33.956966 1.5028579 255 255 255
-74.775627 200.74799 -0.76358265 255 255 255
1459.9133 326.11929 1.6852511 255 255 255
317.26709 127.17045 0.96287251 255 255 255
-846.83575 115.20691 -2.5768135 255 255 255
-3883.4404 691.29254 -5.4051328 255 255 255
-702.80811 -609.71393 -2.2027998 255 255 255
-2081.3262 489.36728 -4.6522713 255 255 255
591.34973 86.187347 0.8679378 255 255 255
-91.371727 165.02829 -0.45285833 255 255 255
-311.9129 39.726093 -1.3460894 255 255 255
3629.4148 249.47682 4.5928144 255 255 255
668.35071 196.98006 1.6743401 255 255 255
19845.703 -4035.7588 15.651159 255 255 255
-196.39049 611.26801 -0.38301176 255 255 255
-950.96851 -811.54218 -2.5424526 255 255 255
-8706.252 869.091 -11.641133 255 255 255
2372.3613 308.50525 2.843116 255 255 255
584.82794 86.904831 0.85536689 255 255 255
-209.51817 -95.546478 -1.2261136 255 255 255
1.6662607 83.534637 -0.75821149 255 255 255
-6896.1265 856.57617 -9.0089846 255 255 255
-14399.489 -7981.8687 -22.904747 255 255 255
-109.39998 385.64514 -0.33631602 255 255 255
-83.425537 194.00774 -0.69759315 255 255 255
3495.0952 974.75665 2.3802528 255 255 255
850.48749 90.041901 1.3141421 255 255 255
-1666.238 -815.58588 -3.0351059 255 255 255
111.80447 349.46201 -0.44527563 255 255 255
-374.72256 2.9998188 -2.0626228 255 255 255
3959.4333 -88.463402 5.0664368 255 255 255
1798.7612 1248.1427 3.7772319 255 255 255
8020.4248 282.71713 7.2579308 255 255 255
1365.6973 -4.3886585 1.1084331 255 255 255
-264.27829 -181.48669 -1.376791 255 255 255
-521.62457 -397.24963 -1.7408805 255 255 255
-2187.1853 718.36365 -3.1816494 255 255 255
-223.69693 439.15317 -0.31317535 255 255 255
3503.9871 664.94611 2.8734267 255 255 255
2133.7341 402.16583 2.2821693 255 255 255
30.708784 724.81879 -0.45760441 255 255 255
733.42542 589.75977 1.745418 255 255 255
-9884.0508 847.83344 -13.765927 255 255 255
-518.19696 -312.08255 -1.7570856 255 255 255
69.351433 731.61121 -0.49003112 255 255 255
-459.51611 -168.95218 -1.4957994 255 255 255
3233.6443 1972.4176 10.598619 255 255 255
2410.3843 244.955 3.1684823 255 255 255
3171.4104 286.93036 4.3196392 255 255 255
2027.7003 378.41357 2.2271194 255 255 255
2813.4924 668.37811 2.3546188 255 255 255
-11298.521 -3786.8442 -14.03528 255 255 255
-9882.0059 834.36646 -13.817579 255 255 255
-3552.8333 -151.83737 -7.5561018 255 255 255
-7.4095416 158.0296 -0.83795655 255 255 255
-366.36383 -124.44025 -1.364257 255 255 255
-13038.564 -4847.1938 -16.190342 255 255 255
-580.86255 -139.9335 -1.6834761 255 255 255
8.2941809 242.22755 -0.35287035 255 255 255
-677.1236 -280.99884 -1.8919543 255 255 255
1147.8477 395.79483 2.8012004 255 255 255
-84.407242 238.3376 -0.767757 255 255 255
294.69415 141.67433 0.45534045 255 255 255
2070.042 138.14894 4.626832 255 255 255
5808.3564 638.68018 4.2802458 255 255 255
-876.85156 -530.05377 -2.5924885 255 255 255
621.04803 128.62593 1.0210042 255 255 255
-305.06323 -52.602448 -1.551419 255 255 255
3472.2195 853.11127 2.5327892 255 255 255
-33.079235 513.54071 -0.47540891 255 255 255
5785.2974 651.99115 4.2320867 255 255 255
1885.6458 388.52435 2.0416138 255 255 255
-16931 -1649.8778 -22.776375 255 255 255
-82693.688 11129.063 -64.919456 255 255 255
1827.4075 332.13107 2.1201863 255 255 255
-985.20618 -246.13937 -2.1464102 255 255 255
-60155.16 8568.9746 -47.106911 255 255 255
-322.83047 -44.629616 -1.6403919 255 255 255
936.24152 91.361908 1.4635885 255 255 255
-896.62488 -888.11261 -2.9684863 255 255 255
3499.2759 255.41206 5.4272895 255 255 255
748.75452 43.174538 1.5331632 255 255 255
-396.31549 30.228058 -1.2653182 255 255 255
-479.54938 -131.41731 -1.4490988 255 255 255
1034.7856 104.16567 1.6074418 255 255 255
-3910.7026 696.66357 -5.4290714 255 255 255
-107.95309 271.0256 -0.69760114 255 255 255
-5468.4971 -3617.5051 -10.065742 255 255 255
-5919.1201 493.79825 -5.636169 255 255 255
1518.5726 -282.32117 1.0831127 255 255 255
1496.4321 232.40825 1.9701476 255 255 255
-915.38849 -404.95618 -1.9643866 255 255 255
1187.121 67.658516 1.9769605 255 255 255
458.66028 92.190453 0.63835138 255 255 255
205.41573 100.71342 0.35090783 255 255 255
-265.54562 -111.47073 -2.1835392 255 255 255
-9096.6289 -283.63531 -25.886169 255 255 255
-1638.3076 -1066.7924 -3.2176447 255 255 255
7384.375 3596.3174 14.60713 255 255 255
39.143925 5.6358733 0.042383816 255 255 255
-797.09198 -322.91925 -2.6402452 255 255 255
-7701.373 106.99157 -7.456502 255 255 255
-601.10852 -494.80804 -2.0679834 255 255 255
13624.508 3827.7642 22.421669 255 255 255
-669.58313 -267.91516 -1.708225 255 255 255
244.77853 84.912369 0.61972761 255 255 255
47.983643 416.90219 -0.55014479 255 255 255
-1075.5526 -360.78848 -5.1947794 255 255 255
-2766.606 -101.08756 -8.5018568 255 255 255
2350.1609 1184.353 4.3682842 255 255 255
5770.7236 648.19537 4.250598 255 255 255
-4501.9961 -2266.9802 -7.2821589 255 255 255
2171.1499 408.97244 2.3020236 255 255 255
-1074.1772 -506.1073 -2.349138 255 255 255
327.79114 207.43683 0.8670752 255 255 255
-1120.7715 233.58907 -2.6167874 255 255 255
-49472.555 -6096.8311 -43.792526 255 255 255
10322.905 -1990.1389 6.6322055 255 255 255
-180.49675 617.14252 -0.38740316 255 255 255
-899.28979 -304.95187 -2.6191275 255 255 255
5798.9009 645.98932 4.2542114 255 255 255
-10767.98 892.27319 -14.830009 255 255 255
-7662.3071 260.83075 -7.1974325 255 255 255
177047.94 -26514.695 120.20509 255 255 255
1730.1364 260.93927 2.4585888 255 255 255
-1359.5847 -806.10693 -2.7904501 255 255 255
-451.93451 -170.15131 -1.5013331 255 255 255
-1305.5435 -1196.626 -3.2215261 255 255 255
-791.11755 90.210144 -2.4683352 255 255 255
2375.7097 309.44534 2.8464344 255 255 255
-279.52155 -282.8927 -1.5501266 255 255 255
-680.38757 -188.94708 -1.7574655 255 255 255
-796.95068 -561.02124 -2.4903147 255 255 255
-450.89124 -19.008509 -1.3785789 255 255 255
3583.2537 237.49184 4.6286592 255 255 255
-447.89938 54.303566 -1.4902103 255 255 255
41986.988 -3388.2161 32.762333 255 255 255
1939.8184 267.56146 2.4570539 255 255 255
20628.256 181.214 36.362488 255 255 255
6939.6685 521.30078 5.1661692 255 255 255
282.2854 92.521744 0.53131187 255 255 255
-4475.2329 -2329.8252 -7.5189576 255 255 255
1494.7499 352.02258 1.6768632 255 255 255
3033.0725 801.28107 2.313585 255 255 255
-4560.6704 238.66002 -11.171227 255 255 255
15123.126 -369.90274 11.482456 255 255 255
-494.17651 -179.09081 -1.6115679 255 255 255
-153.58644 -69.548134 -1.150619 255 255 255
-610651.81 73115.047 -475.9563 255 255 255
3533.9534 956.92517 2.4413197 255 255 255
