ply
format ascii 1.0
comment PCL generated
element vertex 1115
property float x
property float y
property float z
property uchar red
property uchar green
property uchar blue
element face 0
element camera 0
property float view_px
property float view_py
property float view_pz
property float x_axisx
property float x_axisy
property float x_axisz
property float y_axisx
property float y_axisy
property float y_axisz
property float z_axisx
property float z_axisy
property float z_axisz
property float focal
property float scalex
property float scaley
property float centerx
property float centery
property int viewportx
property int viewporty
property float k1
property float k2
end_header
41.085392 361.22208 0.74848682 255 255 255
1005.1638 1019.0313 2.5025144 255 255 255
1721.895 1500.7107 2.6346827 255 255 255
-328.35339 -320.14993 -1.5993867 255 255 255
2329.5159 1886.0405 2.9490485 255 255 255
2478.7986 1244.2283 3.6382196 255 255 255
310.88849 1081.7161 1.5127771 255 255 255
313.93655 1084.4796 1.5164254 255 255 255
317.22015 1087.8208 1.5203111 255 255 255
-1312.9847 -921.94708 -3.0668304 255 255 255
101.4549 560.54816 1.0064266 255 255 255
313.13913 1085.053 1.5155482 255 255 255
1307.4926 1252.5552 2.3230219 255 255 255
2278.1548 1590.0195 3.0881209 255 255 255
-625.61572 -1053.9515 -2.8924086 255 255 255
-2462.5134 -3539.1094 -7.3450184 255 255 255
971.94629 3322.3005 5.5993881 255 255 255
802.46716 416.44257 0.93726265 255 255 255
85.084152 967.83264 1.3758363 255 255 255
-795.70428 -4680.8091 -7.7122564 255 255 255
1914.502 1156.0144 3.0526264 255 255 255
3536.8303 1617.0979 4.2260303 255 255 255
-376.84537 -502.27872 -1.7166663 255 255 255
29.929115 336.78195 0.7117036 255 255 255
-591.46417 -3558.1812 -6.8588219 255 255 255
2098.1914 2388.7761 3.5923722 255 255 255
1106.271 1212.1863 1.8821589 255 255 255
3296.1987 1672.621 3.9325664 255 255 255
2242.4324 1760.481 2.9494035 255 255 255
5582.8691 6602.5283 15.457394 255 255 255
508.95544 600.07776 1.4070004 255 255 255
-667.78894 -943.84235 -2.5794199 255 255 255
1030.6748 986.69812 2.0767758 255 255 255
-2298.9253 -727.9939 -3.3413022 255 255 255
-3671.7056 -4534.0396 -9.1076355 255 255 255
-2852.2109 -2020.7798 -4.338932 255 255 255
2748.8784 1646.0836 3.4719753 255 255 255
-12992.24 -53385.844 -109.84973 255 255 255
1300.1045 1281.8593 2.3079653 255 255 255
1043.3816 4472.1504 7.3794684 255 255 255
-1374.0027 -792.24884 -3.1679318 255 255 255
969.12054 657.89178 1.8015915 255 255 255
221.34172 877.77899 1.3370357 255 255 255
1579.0413 994.0116 2.7649724 255 255 255
1221.6826 1762.4797 2.1978796 255 255 255
28.994047 334.22513 0.70758539 255 255 255
837.1908 949.94781 1.8604776 255 255 255
-2346.3135 -3477.0469 -7.3151665 255 255 255
2938.3176 4858.9253 7.4118152 255 255 255
3359.9163 1620.192 4.0575862 255 255 255
3112.7561 2461.3604 3.2552156 255 255 255
-933.78839 -1311.5372 -3.1043291 255 255 255
-889.3313 -2439.929 -4.2703171 255 255 255
940.35498 1002.3387 1.9738263 255 255 255
1158.8885 3489.7983 5.4725547 255 255 255
2375.4973 2880.7642 3.7727592 255 255 255
810.58502 3360.5938 5.2033806 255 255 255
280.47299 1014.0891 1.4578719 255 255 255
-617.85278 -1181.0189 -2.3169806 255 255 255
3293.6562 8313.332 17.689102 255 255 255
1425.8148 1387.7302 2.4024248 255 255 255
108168.89 222022.52 420.45242 255 255 255
936.30676 958.91791 1.9700935 255 255 255
137202.97 182310.45 421.64105 255 255 255
829.92413 494.65347 1.9631358 255 255 255
1728.0479 1510.4954 2.6345549 255 255 255
2371.3992 1578.1941 3.1849313 255 255 255
323.88818 1099.0773 1.5291598 255 255 255
-2357.6497 -2434.8801 -6.3602753 255 255 255
-616.45697 -1135.7423 -2.7828085 255 255 255
3458.3662 1880.5811 3.8150873 255 255 255
1849.365 1096.6538 2.4737017 255 255 255
517.34009 146.08241 0.58802027 255 255 255
783.50714 828.44952 1.7913005 255 255 255
2235.79 1170.7717 3.4285541 255 255 255
222.15141 884.96924 1.3420725 255 255 255
-7953.9536 -3213.1377 -9.6590786 255 255 255
4440.165 4014.8696 8.1797733 255 255 255
324.53632 1106.1334 1.5336289 255 255 255
1450.6383 1275.5537 2.460007 255 255 255
699.5769 1758.4381 3.0296779 255 255 255
-2808.6448 -4962.0981 -8.8113871 255 255 255
753.56067 735.82623 1.7529789 255 255 255
89.913483 523.85828 0.96197492 255 255 255
10980.555 20978.615 31.424078 255 255 255
-2195.2729 -6284.187 -11.056977 255 255 255
91.395668 525.8855 0.96582806 255 255 255
2550.74 1701.9257 3.2435939 255 255 255
1559.8949 1494.5996 2.4945955 255 255 255
33.203068 346.26688 0.72570556 255 255 255
592.5965 516.61096 1.5221539 255 255 255
1156.9829 1118.9276 2.1968522 255 255 255
2393.2517 1569.0212 3.212322 255 255 255
-999.72784 -5053.5815 -11.31218 255 255 255
-3402.4436 -4958.6074 -8.3961973 255 255 255
-6571.8022 -5168.7988 -11.33632 255 255 255
4309.6108 1228.3546 5.8465257 255 255 255
-1516.4161 -1936.7625 -4.3337002 255 255 255
1824.2842 1423.8096 2.7676008 255 255 255
-1062.2566 -639.30872 -2.7741179 255 255 255
103.2785 562.53943 1.0089304 255 255 255
1340.105 2094.595 2.5085511 255 255 255
244.64897 938.22083 1.3917009 255 255 255
1324.2948 1259.8103 2.3395462 255 255 255
624.88794 747.53394 1.5898788 255 255 255
1048.6948 1104.7552 2.0845895 255 255 255
2462.4109 1248.8143 3.6127174 255 255 255
13635.412 25365.387 37.928047 255 255 255
811.42969 1680.2455 1.8700839 255 255 255
2526.3462 6305.7661 8.9568758 255 255 255
334.3717 1119.3281 1.5463436 255 255 255
49.850784 396.2417 0.79711473 255 255 255
-2579.2761 -1548.0302 -6.834856 255 255 255
418.95438 573.19049 0.59929645 255 255 255
769.13788 425.44824 0.97673464 255 255 255
3501.4834 1880.9163 3.8497868 255 255 255
4443.4385 1979.5522 5.4445701 255 255 255
2288.0161 3072.3604 4.8957143 255 255 255
946.14337 1089.3195 1.979592 255 255 255
-222913.27 -787795.19 -1493.0564 255 255 255
-4340.5361 -6436.8262 -15.101446 255 255 255
867.5863 945.49866 1.8930075 255 255 255
1032.355 1086.7644 2.0677919 255 255 255
2976.3416 1820.8231 3.4897528 255 255 255
-805.39722 -537.24725 -1.956497 255 255 255
1361.6036 5782.1396 7.8328753 255 255 255
965.46643 1713.9357 2.0242741 255 255 255
1023.6876 1497.7363 1.5747544 255 255 255
6494.6831 19756.049 27.423849 255 255 255
765.97748 1205.6984 1.2920513 255 255 255
-940.20807 -1642.4633 -3.795471 255 255 255
3053.5105 1537.1962 3.8746438 255 255 255
414.54791 676.03802 1.0072793 255 255 255
178.74849 774.51526 1.237641 255 255 255
1437.1838 664.55676 1.8447757 255 255 255
-3264.2095 -5476.2378 -9.9266987 255 255 255
3665.9055 1693.5886 4.2232857 255 255 255
564.55841 1681.5944 2.3339734 255 255 255
154.28513 709.76025 1.1736749 255 255 255
700.1795 655.48303 1.6820793 255 255 255
335.42877 1130.3019 1.5524449 255 255 255
2422.6504 2333.0986 3.4564953 255 255 255
-1058.8387 -1766.485 -4.0661488 255 255 255
336.85706 1131.5671 1.5527726 255 255 255
896.34906 589.49695 1.1021308 255 255 255
3466.1143 1879.0244 3.8244495 255 255 255
3477.6733 1874.7263 3.8333833 255 255 255
766.68378 1101.041 1.8148607 255 255 255
1327.3986 1249.2695 2.3448329 255 255 255
11519.95 9426.2539 28.300797 255 255 255
1320.0082 1147.114 2.3664203 255 255 255
52321.93 20019.887 75.049377 255 255 255
623.59363 414.13629 0.85273969 255 255 255
3762.1138 1787.5427 4.154458 255 255 255
-1288.7256 -1042.0189 -3.8003137 255 255 255
27052.375 33945.043 57.390743 255 255 255
3466.0588 1542.9625 4.2777543 255 255 255
1534.9473 1359.2767 2.5148687 255 255 255
341.38266 1136.6779 1.5580274 255 255 255
1272.5743 1736.4678 2.0830102 255 255 255
339.21844 1136.6859 1.5572258 255 255 255
1441.4252 13597.43 22.005423 255 255 255
344.18527 1139.254 1.5612408 255 255 255
1439.5813 1290.3683 2.4444237 255 255 255
1726.1251 1509.8594 2.6312587 255 255 255
345.60345 1140.5135 1.5626317 255 255 255
1483.2809 1386.4662 2.45596 255 255 255
1678.8269 964.12665 2.9281046 255 255 255
5969.4214 14080.705 23.668671 255 255 255
2732.6008 3739.0308 5.82796 255 255 255
3077.7917 1807.585 3.5815618 255 255 255
-1685.3605 -2309.771 -4.8141999 255 255 255
-972.18097 -1410.1632 -2.4081421 255 255 255
-2175.1631 -2447.8906 -5.2219815 255 255 255
1150.0122 1544.5182 1.7293735 255 255 255
1215.2412 803.3136 2.3910115 255 255 255
48.904926 393.56741 0.79345399 255 255 255
659.12842 852.85815 1.6524714 255 255 255
2114.7554 2665.1252 3.5711715 255 255 255
1337.9012 2958.9692 3.8435798 255 255 255
1675.0204 962.35431 2.923208 255 255 255
32954.906 44764.164 71.425125 255 255 255
-688.38727 -1052.6136 -2.1328723 255 255 255
2300.4692 3259.844 4.1753435 255 255 255
-91818.703 -252008.62 -454.18341 255 255 255
941.51202 1010.5616 1.9744642 255 255 255
-4144.249 -2532.6338 -7.3062053 255 255 255
452.24042 2982.374 4.6456285 255 255 255
8118.1475 13444.362 21.528479 255 255 255
683.16669 1151.342 1.2364998 255 255 255
2517.7815 1755.8151 3.1700771 255 255 255
1425.3796 837.53479 2.3502393 255 255 255
3263.6853 3455.5112 4.8417416 255 255 255
-1681.7206 -873.745 -3.8409686 255 255 255
1067.1694 1628.3523 1.8143382 255 255 255
1080.0457 3230.4797 4.9857669 255 255 255
-4946.1978 -1840.1917 -7.6045818 255 255 255
1005.7863 818.22192 2.5232697 255 255 255
-575.42102 -940.05444 -2.4770989 255 255 255
-22912.121 -10043.977 -33.673351 255 255 255
3126.8884 1622.7473 3.8439207 255 255 255
940.36731 1202.9197 1.9784442 255 255 255
-1363.4567 -2898.1096 -5.5922523 255 255 255
3525.4336 1874.1008 3.8773503 255 255 255
2739.3962 1824.756 3.2968514 255 255 255
2307.7407 3054.2954 3.892674 255 255 255
1229.0354 1124.624 2.2737408 255 255 255
1045.76 3562.2019 5.9758749 255 255 255
-3906.366 -7750.1196 -13.454467 255 255 255
1299.3702 1961.3215 1.979628 255 255 255
-1006.9034 -5861.1875 -9.062211 255 255 255
1454.8044 1445.6749 2.4162331 255 255 255
1374.847 2061.7578 2.5994112 255 255 255
2113.2764 4141.0415 5.5176406 255 255 255
-756.59949 -1744.1726 -3.8643324 255 255 255
2353.033 2553.73 3.220058 255 255 255
-1500.6161 -11471.205 -18.937889 255 255 255
1732.256 1755.4088 2.5601444 255 255 255
1100.3092 3493.5769 5.6532874 255 255 255
189.74036 374.35138 0.8665846 255 255 255
2460.9841 1860.7761 3.055459 255 255 255
1811.9951 2882.2456 3.6395113 255 255 255
1341.8051 5746.064 9.5127172 255 255 255
-837.50793 -1388.3145 -3.158849 255 255 255
830.97772 960.9483 1.8543187 255 255 255
-1190.6869 -4582.9707 -8.2170944 255 255 255
1386.837 1302.1464 2.3882759 255 255 255
2435.5266 1891.3191 3.0219889 255 255 255
-6319.0649 -5762.7256 -14.844946 255 255 255
-1312.0306 -2746.2917 -4.0997133 255 255 255
5494.7153 1501.1898 6.2169991 255 255 255
-10846.228 -18131.729 -37.20034 255 255 255
98.215385 912.37122 1.3308686 255 255 255
23350.275 29236.084 45.908676 255 255 255
-7941.5483 -7645.6729 -22.818037 255 255 255
3484.9297 1881.6471 3.8368459 255 255 255
-710.02502 -1269.9912 -2.9786563 255 255 255
-783.46954 -3818.5457 -6.6953611 255 255 255
987.71912 489.15118 1.2076256 255 255 255
1955.8599 1375.3271 2.4457755 255 255 255
898.89978 905.23383 1.7025177 255 255 255
3489.0964 1413.5117 4.5152907 255 255 255
2242.5027 1004.3462 3.6663721 255 255 255
2798.0146 1860.9612 3.3162885 255 255 255
1288.6245 1291.6138 2.2963059 255 255 255
1433.23 1263.6044 2.4465234 255 255 255
1028.6068 1083.5367 2.0642159 255 255 255
1946.9503 1138.6409 3.1119258 255 255 255
3252.4905 2055.5505 4.5427356 255 255 255
2392.8418 1783.9451 3.0559855 255 255 255
34.068214 348.76895 0.72930562 255 255 255
-818.06189 -754.00977 -2.6726615 255 255 255
3034.7585 1600.6863 3.7822189 255 255 255
1240.2512 1094.9209 2.2925718 255 255 255
1303.4595 1248.6703 2.3198552 255 255 255
1153.6543 1944.6907 2.1642127 255 255 255
8392.7285 3073.7812 11.443313 255 255 255
-971.39355 -4627.9771 -10.163749 255 255 255
9877.8037 6759.8799 23.238388 255 255 255
-813.32318 -1789.7164 -3.7749579 255 255 255
-1071.2683 -5858.4268 -9.3363991 255 255 255
1697.1063 1463.0614 2.6278086 255 255 255
817.34186 799.74316 1.8346463 255 255 255
-953.54553 -1237.1174 -2.9691927 255 255 255
3270.1436 1712.5553 3.8603556 255 255 255
-1029.1964 -901.69562 -2.7599118 255 255 255
-1366.9122 -1711.3318 -3.2558975 255 255 255
-872.00714 -1155.2177 -3.5607867 255 255 255
2232.2222 1324.9628 2.6203616 255 255 255
-1230.9423 -1838.3557 -4.0318856 255 255 255
51.441509 398.92447 0.8008222 255 255 255
2921.7141 1449.9745 4.6583838 255 255 255
-587.974 -452.10114 -1.7182034 255 255 255
1178.3107 382.41156 2.3930435 255 255 255
-450.1756 -361.24463 -1.6359695 255 255 255
846.41071 576.23865 1.2589105 255 255 255
2159.678 8227.3867 11.26038 255 255 255
1166.9402 2082.1399 2.2506382 255 255 255
623.18262 746.65607 1.5881786 255 255 255
-27559.314 -21754.566 -35.468719 255 255 255
1500.5734 1517.6949 2.1391196 255 255 255
1179.3915 1207.1929 2.2028928 255 255 255
-990.58215 -1183.7316 -2.9877396 255 255 255
-783.79785 -880.83337 -2.6036832 255 255 255
908.80273 1307.1633 1.3858472 255 255 255
702.73444 986.03186 1.5952636 255 255 255
-282087.09 -309855.28 -581.99127 255 255 255
-845.54742 -1530.7864 -3.4786236 255 255 255
-43.549389 -43.962097 -1.0545154 255 255 255
103082.02 154484.67 241.27827 255 255 255
1710.4952 2237.896 3.6937664 255 255 255
-1356.976 -1809.7618 -3.8549294 255 255 255
2195.6904 1168.1508 3.3859067 255 255 255
12516.446 7224.6631 20.029095 255 255 255
448.43265 415.38748 1.2630475 255 255 255
1920.7327 2393.9783 3.0610552 255 255 255
1612.486 1945.1025 2.2546656 255 255 255
2184.2214 5393.314 7.4912281 255 255 255
-784.94958 -1312.7045 -3.1020932 255 255 255
1626.8457 3596.864 5.4293957 255 255 255
1395.0571 427.21121 1.98186 255 255 255
3164.6223 1806.455 3.6612031 255 255 255
943.8324 513.58917 1.2215588 255 255 255
2387.958 2027.9531 2.9213448 255 255 255
1287.0079 559.87299 1.7595313 255 255 255
27672.381 51888.797 84.928497 255 255 255
1413.5591 2061.7517 2.3648615 255 255 255
1154.7926 610.52887 2.4602346 255 255 255
5405.8003 7177.2905 11.79477 255 255 255
909.58661 945.28467 1.9409785 255 255 255
-1528.2164 -967.33228 -3.8234653 255 255 255
-4768.4692 -2047.671 -7.5179873 255 255 255
531.19183 1124.634 1.6488996 255 255 255
2929.0496 1656.1526 3.6231098 255 255 255
-2757.0095 -1792.0167 -5.3290353 255 255 255
-1510.5643 -1643.6687 -3.7393272 255 255 255
1629.5679 1453.2112 2.5708692 255 255 255
2939.2478 6636.5981 9.0013695 255 255 255
2662.0061 1729.1388 3.3136494 255 255 255
1169.9778 746.62268 2.3626938 255 255 255
-6775.7075 -17921.996 -28.835848 255 255 255
5164.0068 3832.5928 12.585944 255 255 255
-2736.1077 -3476.0176 -8.272788 255 255 255
3531.1948 2146.4304 3.6153355 255 255 255
745.80927 873.79041 1.7514396 255 255 255
-2215.2305 -2096.7407 -6.0960126 255 255 255
-983.19501 -1657.3342 -3.8413713 255 255 255
926.00134 1250.1094 1.1173304 255 255 255
954.52423 1053.7284 1.9889826 255 255 255
1050.9177 1151.5134 1.9946442 255 255 255
2953.9426 3022.6016 4.180481 255 255 255
1549.9791 1316.6595 2.7689161 255 255 255
2073.7991 1125.6235 2.4403374 255 255 255
-1007.342 -1751.3579 -3.7014627 255 255 255
5086.6289 9931.1094 14.213128 255 255 255
-1375.9852 -1673.1281 -4.5151639 255 255 255
-10386.576 -4420.7803 -22.411055 255 255 255
1122.5592 1608.1107 2.1581454 255 255 255
1374.2162 954.6391 2.5202677 255 255 255
-2399.3276 -3413.7595 -7.0423341 255 255 255
4252.957 1485.6716 5.1474652 255 255 255
1719.4061 2460.9331 3.1752908 255 255 255
5970.3389 4431.4497 14.431479 255 255 255
-584.60541 -324.88199 -1.6318842 255 255 255
-3937.1426 -6915.4868 -11.533593 255 255 255
-1803.9031 -4352.291 -8.2234154 255 255 255
696.01294 810.14941 1.6862578 255 255 255
1248.1881 1609.7069 2.0801864 255 255 255
1623.5131 1662.2318 2.498214 255 255 255
845.86896 917.97546 1.8681573 255 255 255
1139.3019 1541.251 1.6740766 255 255 255
1483.6047 2459.6353 3.2496665 255 255 255
1280.981 863.82672 1.3628485 255 255 255
575.85706 768.80853 1.5393653 255 255 255
990.48572 888.8136 2.0435963 255 255 255
803.44214 1286.2487 1.5703353 255 255 255
-1143.7313 -753.74243 -3.1435239 255 255 255
801.80634 1298.4464 1.4492757 255 255 255
1329.4646 1038.9844 2.4168184 255 255 255
2063.6553 1844.6958 2.8629501 255 255 255
1752.5223 3021.4336 3.7229021 255 255 255
947.47888 1046.6227 1.9808156 255 255 255
4175.9854 1740.3947 4.576582 255 255 255
1807.8934 1910.2721 4.9321547 255 255 255
-1201.6713 -874.4704 -2.8467979 255 255 255
769.40448 622.59454 1.0904347 255 255 255
1209.8646 858.23315 1.7192307 255 255 255
2938.8821 1660.405 3.632401 255 255 255
1356.5809 2085.2822 2.3918405 255 255 255
2289.1733 1363.3568 5.1664863 255 255 255
775.48224 691.36725 1.7883508 255 255 255
4580.9595 5342.3501 8.46597 255 255 255
-1526.4268 -824.6499 -3.330852 255 255 255
-1805.1101 -2783.3916 -7.326263 255 255 255
3228.8242 1861.7983 3.6490872 255 255 255
1917.266 968.37427 2.453522 255 255 255
1006.6772 594.93573 2.2078569 255 255 255
1225.1749 1107.6324 2.2737236 255 255 255
-3035.0095 -2830.6072 -6.8674173 255 255 255
1415.1238 2549.1536 3.0543425 255 255 255
-1241.158 -779.63959 -2.9916954 255 255 255
-1302.6156 -1231.3151 -2.6420755 255 255 255
-9607.8496 -6548.4331 -12.456102 255 255 255
594.88623 630.43066 1.5095882 255 255 255
4619.6997 4396.8545 6.341291 255 255 255
1302.5051 2702.3503 3.4584448 255 255 255
3765.6892 2016.0699 3.8975029 255 255 255
2878.4602 1880.5393 3.3599241 255 255 255
788.87555 436.40253 0.93107671 255 255 255
2223.6406 1713.8909 3.3950059 255 255 255
2402.9192 3170.9617 4.1334524 255 255 255
882.30713 2871.0847 4.5918031 255 255 255
1016.2615 887.74207 2.0774357 255 255 255
-856.94342 -1715.8951 -3.7728362 255 255 255
-754.10602 -1463.4772 -3.1973763 255 255 255
-11983.623 -7126.98 -27.253927 255 255 255
3070.8398 1872.0184 3.5152016 255 255 255
1577.0488 1163.6688 3.4233546 255 255 255
-647.75757 -1199.9188 -2.3492186 255 255 255
2047.4952 1197.7866 3.4694076 255 255 255
522.58728 1136.9713 1.5115389 255 255 255
3741.7786 1914.1449 6.2199283 255 255 255
1123.2952 3176.1436 4.7308464 255 255 255
436966.28 172630.81 519.61523 255 255 255
-6311.0415 -7743.7783 -14.290333 255 255 255
1173.026 967.24225 2.2517309 255 255 255
1277.4825 1238.4192 2.2966819 255 255 255
-1105.7032 -6967.209 -11.222693 255 255 255
1148.8204 1037.4078 2.2038405 255 255 255
-13305.726 -9489.7979 -34.982941 255 255 255
545.9505 307.76501 0.77763128 255 255 255
885176.44 348941.16 1048.9639 255 255 255
1147.3221 1026.7338 2.2039781 255 255 255
1796.6798 967.60785 3.0889986 255 255 255
1386.9498 2471.3513 3.2105913 255 255 255
-1582.6213 -948.68219 -3.3167415 255 255 255
-4682.3623 -10346.255 -17.051144 255 255 255
1091.6069 683.33881 1.9994391 255 255 255
-6186.2007 -6980.1406 -16.110117 255 255 255
-995.30792 -2033.1163 -4.3304696 255 255 255
3323.3582 3723.7573 6.3950353 255 255 255
-2135.116 -3168.1587 -8.0015965 255 255 255
13555.276 15581.098 24.563053 255 255 255
1456.3606 2504.2146 3.6912484 255 255 255
13111.896 6278.2183 26.041204 255 255 255
-1574.8743 -1985.1284 -4.5345998 255 255 255
-52.943108 -65.589981 -1.0749605 255 255 255
1331.8127 1039.8304 2.4191518 255 255 255
1381.552 1009.4996 2.4946284 255 255 255
1420.6506 2296.6851 2.8742473 255 255 255
-4204.1401 -2237.4756 -9.5770969 255 255 255
29610.953 42285.605 67.291939 255 255 255
3230.3682 1757.5248 3.771594 255 255 255
4160.0312 1782.1694 8.3469038 255 255 255
830.8952 1303.9758 1.4802427 255 255 255
-1527.2815 -2558.5674 -4.9234147 255 255 255
729.84686 1209.3527 1.2110522 255 255 255
1672.542 930.95734 1.9676422 255 255 255
2377.4517 2884.0232 3.8657925 255 255 255
1236.4268 888.71112 2.9641068 255 255 255
671.41156 411.20523 0.89731586 255 255 255
1830.5552 2684.7588 3.756711 255 255 255
-544.0675 -816.763 -1.9946716 255 255 255
-1657.2545 -751.11401 -3.5087988 255 255 255
-1181.8712 -1030.0404 -2.6675804 255 255 255
571.50104 577.6402 1.4906591 255 255 255
-1638.9972 -2374.2786 -4.8532987 255 255 255
1250.54 1151.9374 2.2896314 255 255 255
742.03357 838.34271 1.7436399 255 255 255
1136.5043 1529.5153 1.7123387 255 255 255
1223.9225 837.50031 1.3001311 255 255 255
1884.0332 1065.8555 3.1016579 255 255 255
222.87393 492.50366 1.0120809 255 255 255
-1211.5522 -771.19244 -3.1270545 255 255 255
1442.5092 7038.4204 10.690096 255 255 255
970.4574 2440.4453 5.3602395 255 255 255
4515.1914 2012.9495 4.4146228 255 255 255
-956.49518 -444.15097 -2.5812919 255 255 255
4342.999 3221.4451 6.560894 255 255 255
-1908.9344 -2918.322 -5.8869181 255 255 255
28.733194 333.86237 0.70713061 255 255 255
3051.7781 6069.1489 8.268981 255 255 255
47.411274 389.37088 0.78745413 255 255 255
-4305.7017 -2698.4807 -5.8812675 255 255 255
1870.9041 5681.3823 9.3495817 255 255 255
761.12433 832.92279 1.7646214 255 255 255
5374.6709 6152.0098 9.6612244 255 255 255
27127.703 12905.545 28.001099 255 255 255
3483.0193 1862.2618 3.8487725 255 255 255
247.01996 974.04266 1.5150087 255 255 255
1433.0259 1364.9587 2.4159076 255 255 255
2191.1824 3826.6235 5.6214995 255 255 255
10443.61 7265.4194 22.090384 255 255 255
3185.0713 1661.5985 3.8459117 255 255 255
4366.4849 7801.6084 11.967117 255 255 255
238.88762 917.23279 1.373248 255 255 255
2727.9502 1162.2555 4.1622539 255 255 255
339.48611 1128.0321 1.5524354 255 255 255
-3021.6711 -4854.998 -9.7288351 255 255 255
3336.7368 1460.8505 4.5891948 255 255 255
3007.7903 1507.4243 3.8778234 255 255 255
792.96997 883.87573 1.8056488 255 255 255
127757.1 115101.59 195.18073 255 255 255
2039.739 1001.6073 3.3877091 255 255 255
1862.2168 802.09686 2.0900416 255 255 255
1209.5664 1098.7073 2.2589111 255 255 255
858.23145 1475.21 1.5947645 255 255 255
77661.336 218778.12 362.15338 255 255 255
-23392.506 -22028.531 -64.278358 255 255 255
-9568.1064 -3620.2993 -10.757164 255 255 255
539.38135 9409.8506 15.361171 255 255 255
119.99095 612.20996 1.0663015 255 255 255
1443.046 1034.6669 2.5577712 255 255 255
2351.5752 1653.1665 6.2245941 255 255 255
2485.9651 978.38525 2.8927844 255 255 255
-8649.7568 -2544.927 -13.229633 255 255 255
1057.1298 965.74255 1.8271834 255 255 255
1118.4771 1646.5513 1.9049062 255 255 255
1883.8433 2697.3816 3.2789078 255 255 255
-1314.4474 -2531.0618 -5.6125407 255 255 255
3742.1284 1608.1093 4.4312782 255 255 255
-657.87445 -1286.3259 -2.9643164 255 255 255
316.83661 1086.0818 1.5178348 255 255 255
304.45819 712.25494 1.2569025 255 255 255
571.71155 857.56799 0.91286582 255 255 255
-4835.6235 -31595.668 -51.869553 255 255 255
6121.7212 9261.4434 14.807734 255 255 255
554.89062 620.52661 1.6949459 255 255 255
71.965332 291.14178 0.66125506 255 255 255
50.655327 392.77972 0.79292703 255 255 255
2647.9556 901.03986 2.7444172 255 255 255
-347.26639 -627.0343 -1.7973225 255 255 255
-1459.6162 -1379.3783 -3.4028778 255 255 255
-1265.6732 -1456.1963 -3.5321572 255 255 255
-1252.4983 -696.72229 -2.8717413 255 255 255
1249.1165 1151.3181 2.2874095 255 255 255
3167.8628 1844.3652 3.616087 255 255 255
1154.0851 1833.021 1.95603 255 255 255
-587.03333 -793.92145 -1.8247541 255 255 255
1334.1937 1152.1748 2.3815365 255 255 255
-3135.7717 -3025.4692 -8.5139132 255 255 255
1476.5306 1223.7164 2.2992156 255 255 255
7070.498 14342.912 26.84284 255 255 255
33.207745 345.80234 0.72482526 255 255 255
-1040.9315 -629.86407 -2.1916089 255 255 255
2475.9009 1240.5635 3.6391072 255 255 255
1181.3257 1875.8065 2.1570551 255 255 255
-12301.654 -2546.3418 -13.096248 255 255 255
2386.7356 2027.2812 2.9202387 255 255 255
1446.6268 1034.5389 2.561981 255 255 255
-350.66 -146.77185 -1.8435926 255 255 255
1320.2516 1147.0024 2.3671863 255 255 255
3166.501 1844.4159 3.6172645 255 255 255
5500.6426 1497.8103 6.2200484 255 255 255
160.03603 1142.5781 1.5089598 255 255 255
2064.8071 4521.5176 8.4648504 255 255 255
813.23401 1051.3284 1.8456547 255 255 255
-357.017 -1654.2109 -3.4424524 255 255 255
1094.5127 868.09363 1.5564538 255 255 255
42.592651 374.22101 0.76624858 255 255 255
48.819111 393.31287 0.79330534 255 255 255
1307.0864 1241.6941 2.3254461 255 255 255
-779.11694 -1163.5841 -2.781693 255 255 255
2689.7781 1794.4531 3.2813661 255 255 255
2064.5583 3819.5181 6.3708706 255 255 255
951.01587 1017.5286 1.9857002 255 255 255
1454.3247 1445.2349 2.4156244 255 255 255
-1151.4816 -1880.5957 -3.9439921 255 255 255
-3194.4167 -4174.5054 -7.5568123 255 255 255
2982.7705 1796.9098 3.5191541 255 255 255
1333.7646 3958.6545 6.2530875 255 255 255
-706.3764 -1038.2505 -2.6701794 255 255 255
57.8913 421.33395 0.83161372 255 255 255
1442.2777 1296.4543 2.4449272 255 255 255
2649.3147 1489.8196 3.5337858 255 255 255
1494.1855 1414.4412 2.4582393 255 255 255
3163.4846 1805.5891 3.6595011 255 255 255
40.946972 363.58084 0.75109035 255 255 255
3092.4766 1824.4788 3.5799439 255 255 255
965.7597 652.73633 2.0967753 255 255 255
676.11853 231.2959 0.78085172 255 255 255
1317.162 1198.1819 2.3483827 255 255 255
2238.9573 1476.1796 3.1422884 255 255 255
886.02124 1148.9873 1.6864566 255 255 255
2490.8 1257.9806 3.6376057 255 255 255
1386.8718 1302.5037 2.3889995 255 255 255
1838.2892 2337.2656 3.470031 255 255 255
260.13281 313.39417 0.91279554 255 255 255
2979.2913 1483.9899 3.8767219 255 255 255
-1221.8602 -1832.9276 -3.8697433 255 255 255
1911.0027 1502.4711 2.8065252 255 255 255
301.11447 712.71051 1.2549056 255 255 255
1246.9496 1213.4178 2.2699213 255 255 255
8101.6763 24473.514 42.230499 255 255 255
1579.6379 994.46893 2.7663679 255 255 255
2260.0586 1554.4325 5.6507807 255 255 255
1061.2131 671.1405 1.3430735 255 255 255
924.02209 908.33411 1.9593779 255 255 255
-16469.488 -14150.47 -41.811447 255 255 255
904.30444 7055.6978 10.772347 255 255 255
2131.668 1545.5232 2.9859028 255 255 255
-8702.6328 -5313.7041 -20.134178 255 255 255
504.9614 265.04404 0.62558627 255 255 255
-10136.552 -11639.769 -20.151247 255 255 255
-51.256138 -97.772301 -1.1606081 255 255 255
2392.9404 1783.8284 3.055753 255 255 255
1323.4622 1300.8694 2.3272142 255 255 255
40452.578 34084.57 79.477997 255 255 255
321.51062 1096.5027 1.5258179 255 255 255
10182.494 10973.132 17.829548 255 255 255
5175.3564 4954.7153 7.3303366 255 255 255
3303.5742 2922.3521 4.270165 255 255 255
-1732.2415 -900.47321 -2.7480366 255 255 255
2737.4329 1331.139 3.8183296 255 255 255
3464.4739 1542.2473 4.2759347 255 255 255
162.38783 895.99139 1.1984911 255 255 255
2465.0383 1249.9613 3.6161075 255 255 255
2279.1643 1590.7385 3.0894911 255 255 255
-1622.3993 -1248.1321 -3.7221277 255 255 255
2905.0144 2565.51 5.5602002 255 255 255
1388.1967 1032.3555 2.4920943 255 255 255
1469.6912 1329.3184 2.4600844 255 255 255
4121.0757 4989.52 8.0061531 255 255 255
3693.0371 1545.683 4.48595 255 255 255
65.866753 439.09329 0.8562609 255 255 255
943.55609 338.45178 1.4930872 255 255 255
156.91196 705.15778 1.1687782 255 255 255
-1173.4221 -1955.4716 -4.3494363 255 255 255
3767.3711 2016.9563 3.89977 255 255 255
2018.7498 1632.3689 2.8323989 255 255 255
1237.7902 1251.9681 2.2538571 255 255 255
1180.2883 1207.4397 2.2051477 255 255 255
1904.0869 1056.1687 3.1375296 255 255 255
831.30273 945.67224 1.8530076 255 255 255
4306.0537 1227.1672 5.8426161 255 255 255
10874.828 18508.338 28.152494 255 255 255
313.24503 1083.572 1.5152372 255 255 255
1704.8146 1030.4216 2.2317939 255 255 255
1276.2415 885.83948 2.4271696 255 255 255
1088.5334 824.96381 1.5130953 255 255 255
1439.9802 1290.968 2.4454422 255 255 255
600.51385 321.58649 0.92468625 255 255 255
-2601.219 -3984.0486 -7.606956 255 255 255
1373.8588 954.33539 2.5195935 255 255 255
1228.9382 1202.2169 2.2545311 255 255 255
6185.3804 2654.6057 7.2757974 255 255 255
-1200.7488 -2051.5803 -4.7829647 255 255 255
-1917.9995 -4470.7246 -8.6413603 255 255 255
-939.87775 -3660.0825 -6.2444835 255 255 255
7188.2568 4098.3682 7.8393755 255 255 255
1069.562 715.83618 1.499312 255 255 255
-1419.3547 -2087.0334 -4.3604217 255 255 255
100.3018 557.25287 1.0026451 255 255 255
2031.8761 1643.8136 2.8404102 255 255 255
-4776.2607 -3185.615 -6.6064286 255 255 255
-1190.0659 -588.39819 -2.7550576 255 255 255
1274.9048 1888.3093 2.2151787 255 255 255
9788.4189 17967.441 26.297262 255 255 255
-103.72393 -1650.6277 -3.5911105 255 255 255
-1624.34 -1209.0999 -3.3636847 255 255 255
1303.7306 1259.2349 2.3181281 255 255 255
802.61243 986.79102 1.2415999 255 255 255
3764.0874 2014.2529 3.9036856 255 255 255
2241.3125 2364.4583 4.2364683 255 255 255
2481.6855 2331.2417 5.901504 255 255 255
-1050.6733 -1871.1335 -4.1068649 255 255 255
1913.3368 1154.8043 3.0506475 255 255 255
3669.5994 1475.5907 4.5922303 255 255 255
1009.531 1624.472 1.7145089 255 255 255
-2557.5845 -2766.2151 -4.8384914 255 255 255
-869.86877 -1648.5692 -3.6377811 255 255 255
4255.6777 1396.1996 5.8556514 255 255 255
-3261.4309 -4670.6367 -8.3753233 255 255 255
625.14313 793.10736 1.6003637 255 255 255
1505.7026 889.66736 1.6404855 255 255 255
27528.32 24828.537 43.340729 255 255 255
98.299118 911.73651 1.3302659 255 255 255
-1180.7609 -652.56213 -2.7089264 255 255 255
1999.4612 4238.0093 6.1951275 255 255 255
-832.56799 -1369.3943 -3.1256862 255 255 255
1027.6311 1082.9307 2.0631027 255 255 255
1544.8051 1472.5111 2.4891515 255 255 255
2871.5925 1876.1299 3.3554564 255 255 255
2424.0415 1849.4287 3.0360429 255 255 255
2525.6338 1304.6919 3.6149576 255 255 255
49.954323 396.5228 0.79770023 255 255 255
9422.8809 1671.5968 10.513518 255 255 255
2586.6653 1610.8927 3.3581181 255 255 255
-481.46317 -803.44238 -2.2135036 255 255 255
1158.0869 1192.5052 2.1869094 255 255 255
-1880.8956 -10710.667 -16.37915 255 255 255
-24848.236 -22509.135 -73.82605 255 255 255
2475.9033 729.18549 2.4487095 255 255 255
954.74274 1056.1621 1.9896121 255 255 255
9026.4951 3999.8477 12.676027 255 255 255
4771.6064 1518.0972 5.5558672 255 255 255
-1173.1389 -638.30286 -2.8376598 255 255 255
1328.3281 1038.3363 2.4149475 255 255 255
534.08698 510.11243 1.4262903 255 255 255
3472.2136 1546.4529 4.27775 255 255 255
3965.2766 1195.87 5.530827 255 255 255
620.75616 667.12885 1.571743 255 255 255
1005.2718 835.38452 1.5624467 255 255 255
-995.68378 -1309.2358 -3.184757 255 255 255
1856.6499 587.70862 3.8265657 255 255 255
-1278.7542 -891.19196 -2.9640315 255 255 255
1289.3861 3817.9829 5.9992876 255 255 255
414.43134 3193.5813 5.247293 255 255 255
231.27299 896.1452 1.3552909 255 255 255
954.66553 685.71735 2.0618443 255 255 255
8860.6113 13331.632 19.427959 255 255 255
-11840.584 -77867.711 -124.76187 255 255 255
1391.1854 1335.5764 2.3842251 255 255 255
2591.627 1682.3378 3.2758811 255 255 255
3229.3333 1756.1102 3.7709405 255 255 255
-1462.4745 -2189.0391 -4.5159845 255 255 255
-1048.6356 -1894.6042 -4.2395101 255 255 255
-1140.4379 -792.60553 -2.7452683 255 255 255
1264.3278 681.77301 2.5743833 255 255 255
1773.9716 1407.2521 2.9874523 255 255 255
1980.6921 2134.3188 2.8532815 255 255 255
1007.5128 595.24274 2.2104485 255 255 255
101.56529 560.85754 1.0066471 255 255 255
3465.656 1878.4816 3.8242993 255 255 255
1252.1317 782.66376 2.4613817 255 255 255
2372.0784 1578.6942 3.1867397 255 255 255
1302.2312 1284.1418 2.3118033 255 255 255
-499.23785 -210.32956 -1.5682067 255 255 255
1166.7958 639.38879 2.0749125 255 255 255
606.70459 567.95245 1.5433888 255 255 255
-11041.048 -7237.1411 -25.837673 255 255 255
-1637.1687 -2044.1321 -3.873436 255 255 255
84.961174 904.47351 1.3237119 255 255 255
3178.4121 1835.3949 3.6380465 255 255 255
-1297.1317 -1472.1116 -3.7082226 255 255 255
-2059.7627 -1115.1965 -3.671515 255 255 255
-1189.2772 -2298.1238 -3.7552292 255 255 255
1476.0227 3672.2981 5.3609529 255 255 255
910.45801 861.45105 1.9472075 255 255 255
-4810.3608 -7331.8823 -16.781658 255 255 255
4612.0249 6007.0264 8.7467918 255 255 255
14495.088 31048.832 45.952072 255 255 255
1117.9508 1823.3649 2.9444058 255 255 255
438.73914 471.03583 1.2674729 255 255 255
-9881.9971 -39005.648 -78.120064 255 255 255
61.161816 427.51013 0.8404606 255 255 255
3531.301 1614.4253 4.2199378 255 255 255
3201.7017 1578.1476 3.9703598 255 255 255
921.31891 1079.5247 1.9549761 255 255 255
169.63052 751.56476 1.2147725 255 255 255
-10246.941 -4277.2139 -17.523905 255 255 255
2302.7717 1814.4556 2.9643896 255 255 255
1240.4338 1123.0824 2.2860303 255 255 255
1067.3149 939.28009 2.1313009 255 255 255
2479.8359 1245.6887 3.6402366 255 255 255
891.16937 3103.4294 5.2540097 255 255 255
149.59709 692.35858 1.1545805 255 255 255
-1669.3928 -961.83301 -4.0710683 255 255 255
147.20859 690.86963 1.151847 255 255 255
-4150.3184 -4319.356 -9.882122 255 255 255
874.9278 907.38092 1.9013729 255 255 255
1361.3475 1308.9261 2.3617828 255 255 255
62.614262 850.88977 1.2766984 255 255 255
-2096.7419 -2219.8396 -4.9828682 255 255 255
-1058.8011 -6457.4033 -9.9444675 255 255 255
324.62494 1106.3137 1.5339365 255 255 255
72.285027 468.87494 0.89434612 255 255 255
1738.8727 1497.2108 1.842631 255 255 255
590.8385 505.03757 0.77324301 255 255 255
-1409.0184 -1389.3613 -2.6956401 255 255 255
1120.7484 1148.4705 2.1539114 255 255 255
3427.1558 3086.707 4.6265593 255 255 255
268.84763 318.94687 0.93053973 255 255 255
-523.68848 -2695.8635 -5.0252256 255 255 255
1204.26 1574.5885 2.030726 255 255 255
-2540.8142 -2246.2581 -4.9354167 255 255 255
831.77307 131.25037 1.1510955 255 255 255
1276.653 1488.8164 3.4519501 255 255 255
818.79865 1761.2858 2.1404328 255 255 255
1740.3042 629.99188 3.503727 255 255 255
3299.3054 1674.0741 3.9372365 255 255 255
2914.1919 3083.2861 4.8820868 255 255 255
627.85364 1437.5039 1.7569283 255 255 255
-1666.3835 -923.51599 -3.5366411 255 255 255
-1987.0842 -6440.0845 -12.38515 255 255 255
6901.7178 6746.4688 10.709206 255 255 255
-1753.6307 -2738.2197 -6.5593667 255 255 255
1540.0708 2453.2234 3.1132283 255 255 255
1396.2325 1336.0469 2.3884373 255 255 255
-458.39514 -470.90564 -1.6579176 255 255 255
408.36728 201.17517 0.52332747 255 255 255
1517.8833 1176.2039 2.1363838 255 255 255
194.52652 881.80554 1.5026371 255 255 255
1321.8423 1257.7046 2.3357484 255 255 255
-903.3988 -503.32904 -2.0133142 255 255 255
812.74854 765.55579 1.8328886 255 255 255
2855.6836 1723.6715 3.4902792 255 255 255
7558.2437 31796.141 48.740993 255 255 255
901.65063 1131.2354 1.9375337 255 255 255
51.250889 399.05908 0.80111754 255 255 255
731.07886 330.99374 0.80347896 255 255 255
370.78143 1066.4423 1.4044456 255 255 255
768.02399 517.4353 1.8306782 255 255 255
-1426.3939 -1995.4562 -4.2487674 255 255 255
1048.2953 1104.2812 2.0842867 255 255 255
1788.6573 579.73248 3.714144 255 255 255
-30842.773 -23846.561 -49.167328 255 255 255
833.13367 131.7244 1.1527334 255 255 255
1291.7041 1028.0784 1.3581715 255 255 255
940.03638 1085.8041 1.9735694 255 255 255
1450.3807 1275.3539 2.4595573 255 255 255
3474.7563 1875.1342 3.8312538 255 255 255
2656.6482 1718.8916 3.3209715 255 255 255
145.90611 686.89587 1.1478484 255 255 255
-238.05717 -92.265877 -1.221719 255 255 255
940.61279 1002.0056 1.973313 255 255 255
-1560.7104 -3801.3813 -6.7423582 255 255 255
220.49242 879.39386 1.3368162 255 255 255
1102.9243 1065.3671 2.1469889 255 255 255
1212.6273 817.0603 1.2255781 255 255 255
1362.0645 1246.1272 2.3762593 255 255 255
1704.4799 1110.5538 2.8340194 255 255 255
2960.7747 8463.0322 13.424038 255 255 255
1385.7681 1232.9847 2.4068034 255 255 255
4633.8931 8120.9429 16.096344 255 255 255
-1880.8405 -3596.2847 -6.5615277 255 255 255
2158.3347 1364.425 3.145695 255 255 255
3188.0591 1442.1038 4.1498194 255 255 255
753.52167 735.99146 1.7537224 255 255 255
11756.337 4287.6772 13.995354 255 255 255
1015.1797 885.01886 2.0764377 255 255 255
-7982.2363 -9602.791 -25.706156 255 255 255
323.31943 1097.7678 1.527122 255 255 255
313.44797 1086.4026 1.5173756 255 255 255
1087.512 1079.6309 2.5884984 255 255 255
701.1015 2235.2002 3.4443331 255 255 255
4168.0244 2308.2461 3.8208044 255 255 255
-884.08325 -578.36383 -2.4355326 255 255 255
1695.9407 2764.2803 3.3155856 255 255 255
137.49792 240.63144 0.53949076 255 255 255
987.15833 901.38257 2.0372109 255 255 255
3818.4341 1847.7599 4.7486267 255 255 255
82.651192 365.46167 0.76905662 255 255 255
722.23267 429.02371 1.1093383 255 255 255
3243.8745 1836.2609 3.6841924 255 255 255
14167.371 21113.01 32.481018 255 255 255
1342.1019 2443.1892 3.127207 255 255 255
-433.67126 -825.229 -2.281023 255 255 255
1048.6381 1105.4742 2.0832777 255 255 255
226.50308 493.93704 1.0167742 255 255 255
618.41217 606.42749 1.562392 255 255 255
508.13718 598.90094 1.4029117 255 255 255
1428.5839 1387.5137 2.4052227 255 255 255
1445.6404 735.9729 2.1311114 255 255 255
1759.0505 6425.8813 11.701978 255 255 255
1084.6414 613.65912 1.3923386 255 255 255
6128.3506 5940.0522 13.663486 255 255 255
961.32501 1545.5065 1.5679293 255 255 255
2176.6248 3333.7422 6.8933349 255 255 255
-897.10846 -1752.5656 -3.8883381 255 255 255
1194.7666 1017.0997 2.2635779 255 255 255
2281.584 2143.5991 5.2984481 255 255 255
-854.04639 -1766.8815 -2.8855612 255 255 255
1648.8812 1021.077 2.835309 255 255 255
-1000.3353 -2112.1816 -4.6074138 255 255 255
2636.0803 1706.6135 3.3112547 255 255 255
522.01703 295.43292 0.70836693 255 255 255
1378.1997 1252.203 2.3947961 255 255 255
653.47919 1281.5791 1.4265245 255 255 255
-20723.455 -9774.498 -50.140236 255 255 255
1431.4843 1630.9453 2.1606851 255 255 255
1426.0625 1388.0175 2.4031198 255 255 255
51.481533 401.76941 0.80521828 255 255 255
1149.6868 787.19617 1.162433 255 255 255
1360.2645 5523.9644 10.454745 255 255 255
-799.02051 -594.54938 -2.2974391 255 255 255
657.28717 850.8277 1.6485757 255 255 255
1358.6465 1172.8193 1.9130993 255 255 255
2270.4409 1771.5518 3.6914363 255 255 255
34609.23 21895.684 55.572128 255 255 255
6717.249 4154.1562 6.3144679 255 255 255
-757.94037 -2358.2576 -4.7587347 255 255 255
1415.9496 1002.2969 2.5426211 255 255 255
2736.9243 1823.1572 3.2933218 255 255 255
1299.5107 1032.3308 2.3831847 255 255 255
3358.0791 1617.0654 4.0594959 255 255 255
2235.5078 1858.4067 2.3567932 255 255 255
1803.3353 1619.781 1.8754212 255 255 255
62120.324 54583.637 94.805061 255 255 255
624.52649 1431.1322 1.7467788 255 255 255
2604.3821 2695.8757 4.1181278 255 255 255
222.72453 885.57703 1.3433458 255 255 255
717.55627 945.73901 1.7344095 255 255 255
1223.6584 3844.8098 6.2477164 255 255 255
1228.0836 1123.7844 2.272218 255 255 255
974.15283 868.55688 2.0277719 255 255 255
2315.1145 2753.7126 3.8931074 255 255 255
254.37616 310.68387 0.9005844 255 255 255
1117.8091 876.02112 1.7639092 255 255 255
362.47372 377.35089 0.59853745 255 255 255
1194.1057 1557.1718 1.7772871 255 255 255
1131.9159 864.65765 1.3207544 255 255 255
3781.9814 1276.6935 9.1031504 255 255 255
1181.6794 1234.3143 2.201791 255 255 255
60.796436 431.3642 0.84518778 255 255 255
937.45471 1037.9043 1.9707909 255 255 255
4950.0962 9919.8809 17.911644 255 255 255
377.80002 871.51251 1.415164 255 255 255
2626.0283 1435.1171 3.5691047 255 255 255
1699.3572 1462.0427 2.6290524 255 255 255
2445.1133 1371.6294 3.4443524 255 255 255
91.281914 525.76025 0.96535009 255 255 255
1681.2821 649.45172 3.3600633 255 255 255
1648.7688 1374.0844 2.5098271 255 255 255
3084.9097 1383.6243 4.1277075 255 255 255
5490.5918 1502.5776 6.202919 255 255 255
337.8299 1130.8257 1.5534606 255 255 255
1252.1611 972.98151 2.3467104 255 255 255
1091.625 1002.8708 2.2390318 255 255 255
6571.856 22789.561 42.667099 255 255 255
2202.272 3043.6907 3.9302895 255 255 255
929.80872 954.41565 1.9619708 255 255 255
1181.0912 2117.8604 2.7714977 255 255 255
3524.6589 1873.9915 3.8764315 255 255 255
6816.8218 7184.8198 17.317518 255 255 255
336.68616 1131.6901 1.5526727 255 255 255
936.31073 959.15643 1.9711277 255 255 255
1165.6829 1778.9956 2.045141 255 255 255
3532.6069 2147.469 3.6170883 255 255 255
545.33673 519.64862 1.4448664 255 255 255
102.7175 533.59167 0.97863525 255 255 255
339.67371 1137.5095 1.5583798 255 255 255
1241.7886 1096.5552 2.2950516 255 255 255
3734.2161 4945.8413 8.5069752 255 255 255
2508.2603 1735.3092 3.180517 255 255 255
591.75897 762.86475 1.5544033 255 255 255
881.02423 1132.3787 1.9195945 255 255 255
84.816193 966.67273 1.3743774 255 255 255
570.60803 1878.1329 2.8319881 255 255 255
173.29829 239.69687 0.70987314 255 255 255
1332.8503 1135.0645 2.3826828 255 255 255
3979.9233 2058.2776 5.2099953 255 255 255
811.11517 1095.7982 1.5268304 255 255 255
61.671249 162.06053 0.44813606 255 255 255
-883.47156 -1517.2345 -3.4297774 255 255 255
2136.2986 2637.8967 3.6077864 255 255 255
739.41589 2211.5229 3.2255099 255 255 255
648.32562 1282.7332 1.7839432 255 255 255
621.52704 656.01672 1.5717676 255 255 255
1737.0573 1041.6133 2.9331467 255 255 255
1252.6838 1007.2519 1.8926983 255 255 255
-616.85779 -1136.3995 -2.7837987 255 255 255
2432.5093 1517.7928 3.2959201 255 255 255
30610.107 24058.314 68.123657 255 255 255
4921.3296 2110.4561 6.9188056 255 255 255
735.3551 595.78082 1.045719 255 255 255
1733.8717 1756.5745 2.5622864 255 255 255
2934.3569 1657.6514 3.6266825 255 255 255
-824.65375 -1263.7604 -2.5185957 255 255 255
611.53937 801.92212 1.5880016 255 255 255
2402.8999 1889.7771 2.9969511 255 255 255
618.23352 501.90805 1.0334146 255 255 255
-8817.0908 -9635.627 -16.860394 255 255 255
-1264.1189 -2166.5344 -4.6130233 255 255 255
-5826.4438 -4300.3438 -10.517515 255 255 255
653.54706 781.70068 1.6317186 255 255 255
5749.1387 2959.7527 8.4610128 255 255 255
15510.053 7014.436 17.755396 255 255 255
2438.6089 1436.4595 3.3722458 255 255 255
418.6778 399.19122 0.65749282 255 255 255
316.30756 1090.2157 1.5203643 255 255 255
5546.1606 1561.6708 6.0885725 255 255 255
2110.1951 1151.9464 3.0105994 255 255 255
3048.7661 1749.609 3.6273208 255 255 255
1404.541 1991.9196 2.4897304 255 255 255
1339.5763 1144.6259 2.3887131 255 255 255
829.55829 494.32513 1.9617598 255 255 255
2207.9771 1287.9968 3.8419633 255 255 255
185.70538 791.54846 1.254372 255 255 255
-91.382713 -55.145355 -1.1879557 255 255 255
1636.4565 2044.2596 2.3601027 255 255 255
1571.8893 2502.3118 3.482785 255 255 255
3126.5454 1622.3278 3.8443205 255 255 255
459.28952 557.07782 1.3263295 255 255 255
13625.327 6103.4531 17.828403 255 255 255
6430.2114 6020.7803 17.208313 255 255 255
998.78082 4191.9619 6.0077972 255 255 255
710.29919 657.85443 1.6962577 255 255 255
-14510.72 -52729.43 -101.91925 255 255 255
2407.3699 1343.3187 2.9403639 255 255 255
1216.6401 803.64655 2.3934517 255 255 255
-1214.4908 -777.43372 -2.4331033 255 255 255
776.70087 935.83704 1.793335 255 255 255
-2164.4575 -7200.3633 -10.565271 255 255 255
842.67395 617.01178 1.1868916 255 255 255
3402.4783 1713.0062 3.9698138 255 255 255
-1821.9691 -1670.5553 -5.3883371 255 255 255
1363.6559 503.61765 1.5673343 255 255 255
3687.4373 1368.551 4.8063731 255 255 255
982.5097 1984.7264 2.1237881 255 255 255
47.467598 378.3649 0.77351582 255 255 255
3385.0952 3407.384 9.6750641 255 255 255
716.16333 1360.3352 1.4298769 255 255 255
1211.8159 712.17175 1.7741581 255 255 255
-9350.2822 -10595.064 -18.261862 255 255 255
-1553.2827 -1052.0867 -4.6531234 255 255 255
1743.8096 2914.7488 3.6572914 255 255 255
-1325.8899 -3465.6365 -6.9876308 255 255 255
-1277.6069 -915.30774 -3.3182092 255 255 255
682.92712 388.10101 1.0382034 255 255 255
-515.48889 -506.51157 -1.7995684 255 255 255
648.75299 514.74231 1.0009496 255 255 255
-30695.48 -47628.875 -84.184067 255 255 255
2418.573 5465.3955 8.7111015 255 255 255
-532.45166 -1720.9938 -3.6764896 255 255 255
-866.17975 -1623.9912 -3.4784846 255 255 255
3450.2046 1364.9462 4.5549412 255 255 255
-273.95758 -343.19861 -1.6313967 255 255 255
1327.6481 1204.5723 2.3572793 255 255 255
566.0882 457.19739 1.1368649 255 255 255
-621.88605 -255.85216 -1.6573243 255 255 255
34.339931 348.78787 0.72908908 255 255 255
542.66669 572.16559 1.3320192 255 255 255
2462.0012 1861.2725 3.0562458 255 255 255
3069.0049 1870.921 3.5129089 255 255 255
-580.27393 -1185.8618 -2.8253953 255 255 255
-1147.3639 -1802.0542 -3.8748734 255 255 255
1362.667 638.24255 1.7413929 255 255 255
18160.643 15524.925 33.901073 255 255 255
1050.0822 686.6861 1.4823458 255 255 255
5033.1484 3501.4692 11.711819 255 255 255
-1760.0135 -3231.3679 -6.876811 255 255 255
-911.8938 -696.45166 -2.4589984 255 255 255
499.56476 417.64221 0.84521717 255 255 255
891.94312 1642.8116 2.3170288 255 255 255
3680.0391 1799.5195 4.090076 255 255 255
48.175751 188.14204 0.48228014 255 255 255
742.67212 884.08289 1.7502718 255 255 255
7865.582 10242.663 17.784828 255 255 255
2648.9404 1759.4862 3.2798598 255 255 255
-663.17883 -841.01697 -2.350404 255 255 255
919.11365 849.2644 1.9608849 255 255 255
-239.33556 -93.018257 -1.3661551 255 255 255
530.46893 529.7959 1.0868133 255 255 255
1238.6593 3099.6802 4.2187586 255 255 255
522.16992 503.73453 1.4078306 255 255 255
2928.2734 1610.6782 3.6759892 255 255 255
50.722824 393.62109 0.79471642 255 255 255
533.01154 360.60318 0.692195 255 255 255
10216.817 1112.2352 10.945266 255 255 255
5545.8262 1559.9397 6.0879545 255 255 255
3265.0999 2100.5657 8.1668129 255 255 255
2355.3486 1369.9143 2.3679805 255 255 255
5221.3257 1878.0242 5.0892568 255 255 255
-1521.4944 -2381.4939 -5.2415676 255 255 255
2097.5928 1813.9674 2.8071532 255 255 255
709.32288 419.4317 1.0490216 255 255 255
753.18311 735.73169 1.7536923 255 255 255
1912.7086 1154.886 3.0508511 255 255 255
2427.9202 1893.0217 3.0142972 255 255 255
1192.515 591.74426 2.5511827 255 255 255
-1065.0719 -1599.2228 -3.7062235 255 255 255
33.1745 345.34256 0.72425717 255 255 255
-801.0473 -483.12894 -1.8737743 255 255 255
1656.7059 1033.2194 2.8351047 255 255 255
-84556.578 -36847.863 -105.65704 255 255 255
935.02032 957.79547 1.968365 255 255 255
-1654.3141 -4717.2441 -8.4940014 255 255 255
1237.4758 1205.2882 2.2633784 255 255 255
2909.2947 1577.3641 3.6904137 255 255 255
2886.3245 1875.1272 3.3710501 255 255 255
771.04193 762.53235 1.7761002 255 255 255
5688.5547 3285.2261 7.5447912 255 255 255
5170.1191 1234.0962 6.7939701 255 255 255
1386.5261 1301.6771 2.3876038 255 255 255
347.34091 1148.2906 1.5685496 255 255 255
205.37907 843.00415 1.3027815 255 255 255
177.35983 242.79929 0.7195431 255 255 255
-121335.72 -52671.75 -151.29518 255 255 255
-1473.4922 -4109.4165 -7.2480893 255 255 255
624.37183 746.72498 1.5892476 255 255 255
3134.7134 3068.4441 4.4531517 255 255 255
-111.53085 169.56357 -0.15008649 255 255 255
1775.8867 1024.0925 2.9993153 255 255 255
717.3606 945.2157 1.7334164 255 255 255
661.0343 732.09399 1.6321564 255 255 255
230.80251 896.11884 1.3547082 255 255 255
1537.651 1069.7833 1.5981376 255 255 255
2475.4363 1712.3564 3.1700094 255 255 255
1116.3 2271.6687 2.425235 255 255 255
102.70472 533.16339 0.9782182 255 255 255
152.72256 733.62195 1.2811594 255 255 255
101.36756 559.67645 1.0062761 255 255 255
193.08336 185.43419 0.7016362 255 255 255
1497.7897 1427.6472 2.4599483 255 255 255
652.41357 780.31238 1.6292392 255 255 255
47.975731 187.51843 0.48086753 255 255 255
1179.7178 647.815 2.4626517 255 255 255
-697.56531 -303.96988 -1.7273507 255 255 255
-15688.014 -11686.198 -39.020527 255 255 255
1532.9438 1358.5225 2.5124991 255 255 255
2328.2852 1880.9205 2.9458883 255 255 255
3332.5647 1630.3313 4.018774 255 255 255
2458.8022 1245.4084 3.6056054 255 255 255
1801.4108 589.21997 3.7126575 255 255 255
-1045.6418 -1953.681 -4.1590204 255 255 255
4164.2485 2306.658 3.8176777 255 255 255
598.75885 490.19809 1.536889 255 255 255
74.30526 292.16098 0.66399896 255 255 255
31924.148 12555.927 34.691936 255 255 255
-6455.873 -11621.537 -20.661161 255 255 255
648.38281 1281.087 1.7820551 255 255 255
34.533543 348.92465 0.72937477 255 255 255
2232.2603 1190.344 3.3963082 255 255 255
343.58807 1145.3553 1.5657209 255 255 255
-3125.759 -18686.783 -31.564365 255 255 255
93.754677 447.47009 0.87676877 255 255 255
4491.7231 1363.2252 5.6807117 255 255 255
60.49609 430.96368 0.84427512 255 255 255
-6428.3081 -5482.5312 -9.6993189 255 255 255
233.30785 898.79144 1.3576452 255 255 255
-813.46942 -2183.6292 -4.2907133 255 255 255
1016.8112 886.50928 2.0789011 255 255 255
1380.5409 897.04767 1.4341098 255 255 255
50.123535 396.40887 0.79758734 255 255 255
339.66129 1137.5437 1.558596 255 255 255
-7716.5952 -6314.6406 -10.209666 255 255 255
1153.3553 3599.0879 5.4873967 255 255 255
2875.3804 1877.7727 3.3595545 255 255 255
457.43457 558.00647 1.3237344 255 255 255
93308.109 66231.594 153.9664 255 255 255
2352.2283 1885.9274 2.9641616 255 255 255
341.43536 1135.8914 1.5580531 255 255 255
2654.6758 1407.5068 3.6324048 255 255 255
766.34601 1101.1285 1.8148098 255 255 255
