ply
format ascii 1.0
comment PCL generated
element vertex 1081
property float x
property float y
property float z
property uchar red
property uchar green
property uchar blue
element face 0
element camera 0
property float view_px
property float view_py
property float view_pz
property float x_axisx
property float x_axisy
property float x_axisz
property float y_axisx
property float y_axisy
property float y_axisz
property float z_axisx
property float z_axisy
property float z_axisz
property float focal
property float scalex
property float scaley
property float centerx
property float centery
property int viewportx
property int viewporty
property float k1
property float k2
end_header
20.327749 358.7084 -0.67470354 255 255 255
4.8779931 324.26447 -0.64711326 255 255 255
-5386.8208 3818.9424 -8.1525269 255 255 255
-2.7018697 368.57495 -0.56323624 255 255 255
50.778851 251.10361 -0.74178946 255 255 255
30.881405 464.90561 -0.40137282 255 255 255
-3349.2961 989.36835 -4.4360948 255 255 255
61.445381 450.76102 -0.43700215 255 255 255
35.78875 494.7879 -0.44498178 255 255 255
-51.273117 535.72864 -0.51627558 255 255 255
124.42452 437.82083 -0.49249384 255 255 255
-774.65515 389.56909 -2.0475855 255 255 255
-1205.5171 579.97253 -2.5541604 255 255 255
-40.366776 380.32474 -0.5963006 255 255 255
63.60569 308.98703 -0.28235942 255 255 255
1414.7908 -159.43604 1.9567908 255 255 255
53.919933 443.6922 -0.42799979 255 255 255
125.76713 437.15771 -0.49364614 255 255 255
123.4644 406.9783 -0.58954579 255 255 255
-14.895595 441.8335 -0.44512796 255 255 255
30.108252 412.51736 -0.37771049 255 255 255
43.053314 464.34824 -0.42752108 255 255 255
127.65279 438.74503 -0.49509332 255 255 255
208.56783 489.02963 -0.52900219 255 255 255
5.7731771 477.82602 -0.41188282 255 255 255
10.728217 433.23035 -0.39227769 255 255 255
198.47182 485.47208 -0.52575445 255 255 255
1840.5283 -773.77954 1.7652915 255 255 255
71.866096 495.15451 -0.45273626 255 255 255
72.221313 448.15549 -0.44531539 255 255 255
34.890125 410.21823 -0.37013665 255 255 255
55598.52 -13414.97 55.611515 255 255 255
48.541111 455.49661 -0.42866811 255 255 255
142.59814 480.43301 -0.49778536 255 255 255
-21833.998 7469.6934 -24.759768 255 255 255
-627.44208 19.569613 -1.4788878 255 255 255
18.664911 563.94733 -0.51616359 255 255 255
1343.5341 -551.5072 1.3815898 255 255 255
82.159927 395.97726 -0.53014201 255 255 255
-24.327768 375.8974 -0.60664332 255 255 255
28.277784 399.50616 -0.34853679 255 255 255
210.77899 241.02321 -0.71534622 255 255 255
27.314999 399.67273 -0.34927669 255 255 255
-65.048645 457.15918 -0.45705697 255 255 255
32.492764 450.20901 -0.41507575 255 255 255
1036.5922 -81.543358 1.1113304 255 255 255
-9.9877338 356.24182 -0.30978218 255 255 255
61.167721 448.01736 -0.43586075 255 255 255
124.27081 491.92465 -0.48542869 255 255 255
-4837.8628 1661.9142 -6.5535436 255 255 255
73.524734 639.44397 -0.52161258 255 255 255
-522.41937 362.46417 -1.6160177 255 255 255
79.369186 479.23889 -0.45616969 255 255 255
89.494804 305.38947 -0.44089407 255 255 255
708.81299 -244.17232 0.54034966 255 255 255
-5.1675954 468.78281 -0.42389643 255 255 255
75.162346 459.6073 -0.42219827 255 255 255
-30.045559 316.32495 -0.66415161 255 255 255
50.527267 314.02194 -0.39499077 255 255 255
69.638985 485.38995 -0.45018438 255 255 255
39.470844 462.93353 -0.46815491 255 255 255
40.460621 436.36685 -0.41327974 255 255 255
124.41103 438.85068 -0.49227351 255 255 255
-21.898781 386.78976 -0.33802938 255 255 255
-717.18506 404.62439 -1.9051198 255 255 255
36.666714 451.57858 -0.41868401 255 255 255
2772.0005 -896.53113 3.1986699 255 255 255
25.708986 421.43506 -0.36243629 255 255 255
37.844616 457.478 -0.42171904 255 255 255
223.81355 574.53143 -0.40664744 255 255 255
811.40869 -42.146557 0.79680705 255 255 255
65.223274 446.4285 -0.43873423 255 255 255
-239.43985 8.8374901 -1.336787 255 255 255
43.412567 448.8074 -0.38913226 255 255 255
128.02129 479.95325 -0.48902786 255 255 255
115.22949 459.40594 -0.48242536 255 255 255
824.79962 -36.732185 0.79548764 255 255 255
-2782.1521 936.69226 -3.7907565 255 255 255
56.361935 456.61993 -0.43495798 255 255 255
39.666462 623.13428 -0.48342776 255 255 255
1940.8768 -653.30054 1.3038733 255 255 255
-885.57086 430.13864 -2.3084383 255 255 255
66.567894 215.44943 -0.65666777 255 255 255
26.965466 449.76096 -0.41108653 255 255 255
25.655939 288.2778 -0.65242797 255 255 255
174.27505 401.40616 -0.55120027 255 255 255
44.610451 437.74704 -0.41708532 255 255 255
36.00264 414.3945 -0.36057222 255 255 255
841.56598 59.92823 0.69238245 255 255 255
-1256.0487 555.31134 -2.7416375 255 255 255
41.122662 416.47842 -0.38686183 255 255 255
26.677841 339.13205 -0.32058421 255 255 255
149.10579 619.3996 -0.50392681 255 255 255
38.786255 505.89233 -0.4565407 255 255 255
129.77213 481.98135 -0.48967326 255 255 255
51.241501 443.78699 -0.42583323 255 255 255
51.638172 442.9144 -0.42576963 255 255 255
-872.55273 446.97372 -2.1395051 255 255 255
54.383308 458.76456 -0.43408728 255 255 255
-739.99255 413.67752 -1.9276836 255 255 255
-7994.2871 34.340149 -7.3567758 255 255 255
-380.62329 271.72299 -1.4662795 255 255 255
52.218494 371.66245 -0.70757014 255 255 255
60.249531 270.39505 -0.76354039 255 255 255
7711.6797 -1539.5283 7.0355744 255 255 255
37.645523 460.23444 -0.42243966 255 255 255
-993.30298 464.64905 -2.3670037 255 255 255
115.93427 459.42361 -0.48296934 255 255 255
-19061.111 9201.7236 -19.736969 255 255 255
-51.320995 231.92365 -0.20673235 255 255 255
60.112755 469.75003 -0.44091305 255 255 255
106.37007 543.89075 -0.49047726 255 255 255
14.149082 317.07111 -0.66357505 255 255 255
50.667236 454.33267 -0.42989925 255 255 255
-32.104931 277.09177 -0.73160738 255 255 255
-902.99896 457.62231 -2.9057841 255 255 255
40.944115 406.96008 -0.3757537 255 255 255
31.838736 467.23782 -0.44643417 255 255 255
57.482239 454.62296 -0.43517283 255 255 255
-871.10657 445.03299 -2.1403484 255 255 255
7425.6475 985.25793 7.7774053 255 255 255
78.885742 554.08801 -0.47134316 255 255 255
-1042.9082 476.26593 -2.4529512 255 255 255
41.337502 464.24887 -0.424449 255 255 255
56.843376 450.53836 -0.43328488 255 255 255
-1187.5798 569.00391 -2.541749 255 255 255
42.508789 458.80896 -0.42538473 255 255 255
104.7215 547.51733 -0.456249 255 255 255
-772.15082 416.72498 -1.9922436 255 255 255
-474.46298 340.97418 -1.5597628 255 255 255
143.12183 418.37878 -0.50875604 255 255 255
-2967.354 976.02222 -3.9794211 255 255 255
70.679893 495.2869 -0.45206261 255 255 255
45.392891 452.64655 -0.42532197 255 255 255
177.83882 462.41946 -0.52175391 255 255 255
-779.88342 393.39697 -2.0512078 255 255 255
46.495586 457.13953 -0.42771772 255 255 255
63.690609 449.05139 -0.43832099 255 255 255
172.51077 449.81796 -0.50629604 255 255 255
-1767.2939 -6.6422229 -2.4909866 255 255 255
44.322453 480.35202 -0.43905446 255 255 255
126.99837 485.11896 -0.48767141 255 255 255
66.904343 260.19321 -0.72569561 255 255 255
-691.21112 439.09039 -1.8115677 255 255 255
66.416664 446.36432 -0.43960953 255 255 255
-1227.5554 590.47839 -2.575743 255 255 255
98.300537 422.00546 -0.48190776 255 255 255
167.1611 473.75806 -0.48801666 255 255 255
289.08893 271.06857 -0.54713839 255 255 255
123.59125 491.23886 -0.48512241 255 255 255
-673.34705 339.95563 -1.7016923 255 255 255
69.608025 470.85971 -0.44818625 255 255 255
227.53227 464.18292 -0.54489189 255 255 255
2031.1479 -297.25787 2.1830058 255 255 255
51.013798 486.73166 -0.44010463 255 255 255
1474.9745 -381.12955 2.6071947 255 255 255
52.473022 461.681 -0.39603049 255 255 255
45.797688 452.98105 -0.42571521 255 255 255
39.341267 450.73126 -0.44701383 255 255 255
1468.7489 -379.48584 2.5929375 255 255 255
120.04848 487.65985 -0.48322994 255 255 255
44.254608 462.95856 -0.42792496 255 255 255
77.875702 495.88837 -0.45663637 255 255 255
63.716724 436.20508 -0.59665757 255 255 255
81.252602 474.20398 -0.45708287 255 255 255
9.3640709 488.71774 -0.43903288 255 255 255
-876.81915 552.05573 -1.9725944 255 255 255
32.253643 488.48029 -0.42584777 255 255 255
120.70319 575.03894 -0.51193225 255 255 255
51.993664 451.07275 -0.42959389 255 255 255
-467.90689 329.39172 -1.558723 255 255 255
77.08651 482.94363 -0.45488712 255 255 255
68.083351 366.3638 -0.54649103 255 255 255
126.90824 481.64798 -0.48804829 255 255 255
-26.690954 495.9996 -0.40143302 255 255 255
140.93123 484.16315 -0.49596384 255 255 255
-916.25153 -411.77533 -2.4443722 255 255 255
64.04512 469.75952 -0.44378537 255 255 255
240.43776 455.63971 -0.55272812 255 255 255
58.680653 456.87991 -0.43668559 255 255 255
60.50013 443.2868 -0.43323892 255 255 255
83.604454 226.66048 -0.77339554 255 255 255
45.907017 450.14407 -0.42476937 255 255 255
57.439281 476.3172 -0.4403519 255 255 255
51.778259 456.33813 -0.43137133 255 255 255
-1530.1436 680.93896 -3.0182004 255 255 255
124.20422 254.64439 -0.36906734 255 255 255
151.14238 414.35513 -0.51681209 255 255 255
3059.8735 -2149.8828 3.0573504 255 255 255
-1256.9432 614.37762 -2.5805833 255 255 255
213.8268 241.52965 -0.71071184 255 255 255
50.912731 319.66043 -0.31088302 255 255 255
147.63806 480.43558 -0.50091815 255 255 255
-1211.7384 586.12994 -2.5523875 255 255 255
-781.68951 388.24509 -2.065037 255 255 255
131.25636 408.42419 -0.34044304 255 255 255
48.403797 410.76779 -0.35991713 255 255 255
145.95876 478.70547 -0.50015551 255 255 255
145.13481 624.21777 -0.55323189 255 255 255
-1136.8335 569.32996 -2.432061 255 255 255
171.7607 450.11002 -0.60622013 255 255 255
51.162331 475.63608 -0.40062171 255 255 255
95.89389 411.13239 -0.41964486 255 255 255
19.869642 393.87393 -0.36440787 255 255 255
-958.95801 453.42487 -2.3145647 255 255 255
90.883369 258.84702 -0.73908597 255 255 255
-7.9007306 327.85492 -0.64741737 255 255 255
239.35966 456.48163 -0.55197877 255 255 255
-679.34375 146.47385 -2.2211821 255 255 255
124.00034 597.7569 -0.5150485 255 255 255
152.33804 472.84225 -0.50549859 255 255 255
-30.462442 266.345 -0.63532966 255 255 255
-1545.2981 431.45856 -2.904952 255 255 255
38.757954 441.48969 -0.40711847 255 255 255
19.352757 305.3522 -0.65569502 255 255 255
113.52961 543.23688 -0.48626289 255 255 255
75.879417 364.1395 -0.53468853 255 255 255
56.443535 475.60049 -0.45207119 255 255 255
-724.69275 482.20062 -1.8077149 255 255 255
49.094475 294.82922 -0.6381765 255 255 255
56.623722 458.48492 -0.4355436 255 255 255
-15304.63 4645.9355 -29.01169 255 255 255
13.91178 334.25143 -0.63301086 255 255 255
192.90187 478.74234 -0.5252521 255 255 255
52.070446 454.20926 -0.4307808 255 255 255
150.20894 359.121 -0.63685787 255 255 255
150.11279 482.23941 -0.50170064 255 255 255
-909.82062 457.10181 -2.197912 255 255 255
1.3413731 259.40845 -0.55038118 255 255 255
-1440.7058 -227.1801 -2.8014216 255 255 255
812.98517 -47.028488 0.80847812 255 255 255
36.103542 485.47818 -0.45498964 255 255 255
23.064543 457.68848 -0.44130713 255 255 255
-892.61584 448.60208 -2.1788919 255 255 255
-1586.9104 695.27826 -3.1098175 255 255 255
79.157913 491.34702 -0.45704314 255 255 255
90.560516 511.32999 -0.46510574 255 255 255
-1800.2444 -403.77487 -2.61744 255 255 255
-639.32074 381.10114 -1.7942567 255 255 255
55.065983 451.72089 -0.43220663 255 255 255
239.6936 526.68066 -0.52260894 255 255 255
-473.24023 -87.009949 -1.4938958 255 255 255
64.771034 532.04712 -0.49084345 255 255 255
11.994268 161.6017 -0.79046357 255 255 255
44.673283 462.30243 -0.42793185 255 255 255
59.811592 469.94205 -0.44066465 255 255 255
-41.415165 406.32483 -0.35193422 255 255 255
54.616276 444.03879 -0.42868191 255 255 255
21.536711 318.78537 -0.28065062 255 255 255
118.52567 597.71478 -0.54709589 255 255 255
-2375.5642 -443.01569 -3.7459037 255 255 255
-1253.6428 688.24847 -2.3850706 255 255 255
86.790871 460.45731 -0.40287206 255 255 255
50.241295 346.84903 -0.68852705 255 255 255
20.354988 472.95709 -0.45079312 255 255 255
133.04002 532.94904 -0.45380369 255 255 255
-1196.5917 25.853626 -1.9103106 255 255 255
51.421673 470.83047 -0.42563519 255 255 255
66.601372 450.67307 -0.44132462 255 255 255
28.768234 450.9368 -0.41283828 255 255 255
205.56609 344.87527 -0.61594665 255 255 255
143.33904 480.29114 -0.49834624 255 255 255
-63.611549 339.22577 -0.37277585 255 255 255
-19633.039 4983.3521 -20.563812 255 255 255
23.991899 450.57309 -0.44364113 255 255 255
-484.00452 -117.41903 -1.4523125 255 255 255
141.90378 589.86462 -0.50772876 255 255 255
-13.929385 370.17355 -0.36019683 255 255 255
38.446236 552.97357 -0.48986587 255 255 255
72.37793 268.52402 -0.40462264 255 255 255
109.55035 450.73904 -0.47837186 255 255 255
214.86797 323.40628 -0.63760608 255 255 255
17.95484 485.18588 -0.43182024 255 255 255
43.382668 451.1937 -0.4231492 255 255 255
92.668602 362.82312 -0.40164655 255 255 255
-27.33889 495.41296 -0.40100944 255 255 255
42.713295 231.64653 -0.69590688 255 255 255
32.56926 251.63966 -0.67675936 255 255 255
-218.71408 -70.441872 -1.2225494 255 255 255
118.82809 392.61374 -0.42999077 255 255 255
-618.11285 346.87384 -1.8235402 255 255 255
124.78539 291.67331 -0.6637854 255 255 255
66.823677 499.70435 -0.45037284 255 255 255
-996.16327 554.42273 -2.5442216 255 255 255
2800.8699 -1297.4987 2.7396657 255 255 255
32.001526 449.7569 -0.41453817 255 255 255
152.02731 472.0275 -0.50542182 255 255 255
-36.022903 377.65555 -0.59974211 255 255 255
419.47015 218.06969 -0.33216324 255 255 255
-235.51794 46.991611 -1.261938 255 255 255
166.70697 416.32156 -0.53608513 255 255 255
145.58836 587.06763 -0.50165355 255 255 255
-705.76892 476.66858 -1.7876446 255 255 255
76.511894 276.71774 -0.32100096 255 255 255
-968.95807 -191.97643 -2.1181092 255 255 255
-3034.7832 -703.10162 -4.2786088 255 255 255
12.971973 251.44664 -0.71308905 255 255 255
4914.1719 -3387.9978 4.3042712 255 255 255
31.295637 499.88162 -0.46416661 255 255 255
-650.71008 376.10504 -2.0379071 255 255 255
-3003.1648 -615.9718 -4.2438407 255 255 255
118.07237 460.37039 -0.48458111 255 255 255
728.12256 -239.74463 0.58525318 255 255 255
4229.2275 -2116.8152 4.0629802 255 255 255
1361.6615 -705.60925 1.392714 255 255 255
11.978069 194.17276 -0.74491161 255 255 255
63.558414 487.73111 -0.44649568 255 255 255
63.889488 494.78104 -0.4479413 255 255 255
35.413433 465.17542 -0.47616637 255 255 255
166.35497 415.36069 -0.53650272 255 255 255
2.3678114 449.09543 -0.43524736 255 255 255
235.55373 199.82899 -0.70571959 255 255 255
-489.29358 271.8515 -1.513916 255 255 255
-342.22351 -36.993958 -1.2825668 255 255 255
-20.155001 613.85022 -0.4982968 255 255 255
98.724854 303.45218 -0.68765175 255 255 255
-1185.2129 -507.12231 -2.360158 255 255 255
2548.6375 839.86371 1.6847097 255 255 255
68.479584 551.67273 -0.4876022 255 255 255
24.164673 497.36432 -0.44775781 255 255 255
96.690712 310.60464 -0.38534281 255 255 255
130.80028 538.7713 -0.41138193 255 255 255
6.6392784 338.76825 -0.60758585 255 255 255
2390.6384 -559.51654 3.6730456 255 255 255
-7.8177218 296.26297 -0.5826388 255 255 255
-1440.0074 -3.9232349 -2.3701272 255 255 255
57.026192 447.15561 -0.43193397 255 255 255
42.398754 456.80801 -0.42464125 255 255 255
122.21968 491.70856 -0.48429251 255 255 255
63.692078 462.78357 -0.40752128 255 255 255
-545.45898 282.29834 -1.7525742 255 255 255
1588.265 -861.26196 1.5806944 255 255 255
-2923.5989 966.42462 -3.9344127 255 255 255
-1412.6046 -152.38004 -2.1183162 255 255 255
-764.6358 -179.07791 -1.8651171 255 255 255
-609.55914 -114.05202 -1.7447149 255 255 255
91.944046 633.57568 -0.52605009 255 255 255
-769.66248 -100.49187 -1.654072 255 255 255
206.70067 219.74706 -0.73318702 255 255 255
105.77776 571.29022 -0.53385282 255 255 255
89.51577 597.01154 -0.49100956 255 255 255
30.539742 448.0527 -0.41279438 255 255 255
49.767189 456.20026 -0.42985854 255 255 255
65.652802 334.12613 -0.534154 255 255 255
1579.234 -804.0434 1.3272415 255 255 255
1396.0824 -753.85577 1.2791281 255 255 255
223.33423 463.61508 -0.54346031 255 255 255
124.58644 481.06732 -0.48671797 255 255 255
163.09654 446.2493 -0.57854307 255 255 255
5.416101 327.97787 -0.64103246 255 255 255
132.93825 483.89304 -0.49126762 255 255 255
58.604107 493.04742 -0.44462878 255 255 255
69.129196 523.63184 -0.50294989 255 255 255
43.819218 463.73865 -0.4278003 255 255 255
-1630.0387 737.22479 -4.0385919 255 255 255
94.681664 538.30817 -0.46955448 255 255 255
118.40004 461.42737 -0.48467335 255 255 255
-656.07831 14.325527 -1.5079594 255 255 255
52.099117 455.55392 -0.43127862 255 255 255
167.74121 437.97568 -0.52476448 255 255 255
108.43982 594.88666 -0.50752574 255 255 255
-77.950844 190.45039 -0.6561206 255 255 255
18.206444 252.43654 -0.65951616 255 255 255
46.683212 461.58499 -0.42923778 255 255 255
70.124001 487.7128 -0.45083556 255 255 255
-3.6577077 245.46094 -0.70231318 255 255 255
45.514744 462.60156 -0.4286955 255 255 255
43.426353 455.29678 -0.42493361 255 255 255
-563.92725 367.39258 -1.6792102 255 255 255
59.829166 430.69513 -0.42337704 255 255 255
21.988972 207.96117 -0.60804713 255 255 255
-1880.3481 394.75635 -3.8026476 255 255 255
48.822861 257.41794 -0.75576639 255 255 255
-1086.7354 632.94794 -2.1988626 255 255 255
61.415493 400.4241 -0.35782447 255 255 255
203.8696 442.23984 -0.54392058 255 255 255
153.07071 406.69739 -0.61264658 255 255 255
-585.08136 408.3862 -1.6256348 255 255 255
92.666138 404.03171 -0.42394596 255 255 255
-636.63611 413.73822 -1.7992846 255 255 255
32.965366 500.28986 -0.43800336 255 255 255
-1238.6688 624.61584 -2.3999486 255 255 255
209.51701 499.00116 -0.54272801 255 255 255
37.749107 458.04285 -0.42166933 255 255 255
196.76859 467.75598 -0.53070134 255 255 255
74.02272 493.42557 -0.45392656 255 255 255
206.27934 375.49747 -0.58661973 255 255 255
33.830505 483.07437 -0.45144016 255 255 255
3000.3633 -1458.5597 2.4658878 255 255 255
47.187225 452.35486 -0.43716174 255 255 255
85.588547 262.53476 -0.62428212 255 255 255
61.875546 279.64417 -0.68169254 255 255 255
21.082483 324.65204 -0.59844381 255 255 255
130.40634 482.46445 -0.49008119 255 255 255
-359.86246 -60.137371 -1.3593943 255 255 255
2842.3403 -684.62952 4.3738875 255 255 255
163.84497 417.17322 -0.53349066 255 255 255
-20.036867 196.12744 -0.81641257 255 255 255
121.19529 511.68796 -0.48232219 255 255 255
80.865028 492.61298 -0.45821717 255 255 255
12.763268 524.31335 -0.41306388 255 255 255
114.12056 456.71982 -0.4817307 255 255 255
26.579157 479.23328 -0.42393842 255 255 255
-1701.2528 -337.83139 -2.6995561 255 255 255
59.634171 456.98129 -0.43744758 255 255 255
-326.57797 249.88405 -1.3971845 255 255 255
164.493 432.36536 -0.52645308 255 255 255
162.86292 449.26212 -0.51841664 255 255 255
92.242188 330.07953 -0.25173089 255 255 255
67.774353 483.65887 -0.44855443 255 255 255
38.225067 459.58594 -0.42266464 255 255 255
2462.4392 -1178.9525 2.6550295 255 255 255
56.786568 502.97095 -0.47146478 255 255 255
61.145359 454.59009 -0.41662973 255 255 255
-3017.2693 -630.69128 -4.2483234 255 255 255
-11261.401 7525.6646 -16.298357 255 255 255
-1248.1759 550.65924 -3.1268411 255 255 255
186.49269 481.26199 -0.52171779 255 255 255
128.71045 430.75925 -0.42918879 255 255 255
-1691.9036 97.817741 -2.7009473 255 255 255
145.13676 478.96692 -0.49958768 255 255 255
41.093182 457.55441 -0.42397782 255 255 255
74.505707 254.78381 -0.65582794 255 255 255
60.159397 459.24109 -0.43843216 255 255 255
18.106337 481.51907 -0.45425582 255 255 255
74.49675 361.19473 -0.6996721 255 255 255
-2358.5674 -970.46991 -5.0638108 255 255 255
-445.03433 -104.3209 -1.4349391 255 255 255
-518.86438 -14.132612 -1.4246498 255 255 255
202.15434 485.18051 -0.52743655 255 255 255
124.15929 420.38968 -0.58202881 255 255 255
34.580318 213.22719 -0.61427206 255 255 255
146.08562 470.55145 -0.50208461 255 255 255
104.68919 384.86902 -0.42003077 255 255 255
-90.196548 171.13518 -0.69995469 255 255 255
1439.6991 -981.6452 1.245216 255 255 255
122.04724 509.37332 -0.48296005 255 255 255
11.829329 312.99304 -0.5837487 255 255 255
29.395876 452.90497 -0.41409954 255 255 255
2866.7585 -1587.3353 2.8909445 255 255 255
1165.4236 -102.93324 1.2445136 255 255 255
96.466049 233.55563 -0.76625955 255 255 255
239.05905 554.95764 -0.44352293 255 255 255
199.56985 487.31268 -0.52576047 255 255 255
-1006.329 -402.12167 -2.2099752 255 255 255
-9.8306303 308.49673 -0.66073048 255 255 255
70.46003 466.5939 -0.4482556 255 255 255
59.713654 268.71725 -0.63411403 255 255 255
251.75233 507.23349 -0.48468369 255 255 255
-1906.4626 758.18591 -3.734653 255 255 255
229.99036 461.85449 -0.54660904 255 255 255
161.71585 419.82486 -0.62529379 255 255 255
-107.86916 221.33052 -0.60143173 255 255 255
-67.624252 250.78165 -0.40737948 255 255 255
-52.990524 368.43774 -0.62202942 255 255 255
-1319.014 -25.472797 -2.0422204 255 255 255
44.058117 458.14166 -0.39593226 255 255 255
-1183.7567 567.84064 -2.536505 255 255 255
153.96385 631.67035 -0.50874984 255 255 255
-579.71881 366.48749 -1.7067093 255 255 255
204.71198 475.19965 -0.53161532 255 255 255
144.67059 483.57141 -0.49840906 255 255 255
182.2487 400.33795 -0.55566114 255 255 255
-1506.7551 -406.25128 -3.5401947 255 255 255
65.575844 233.41339 -0.70577729 255 255 255
-65.261856 411.0524 -0.34672439 255 255 255
46.193466 500.10236 -0.41163522 255 255 255
130.7429 504.02637 -0.51256627 255 255 255
123.32759 509.25134 -0.48358482 255 255 255
-1044.1805 474.21198 -2.4621458 255 255 255
69.525528 329.73431 -0.5313201 255 255 255
-1385.4725 645.68396 -3.3471332 255 255 255
-872.13446 445.48373 -2.1418846 255 255 255
235.48512 199.72836 -0.70589006 255 255 255
-1206.8635 580.59668 -2.5558641 255 255 255
13.218096 576.37842 -0.5312748 255 255 255
-544.90582 -5.2090945 -1.61316 255 255 255
-1243.8915 -6.5349488 -2.0124359 255 255 255
-7456.6978 -488.71503 -7.3017435 255 255 255
-1193.1853 351.33066 -2.0436146 255 255 255
127.04024 450.44223 -0.59896541 255 255 255
35.786938 364.63809 -0.32183877 255 255 255
53.711113 443.2247 -0.42745724 255 255 255
141.25226 343.21466 -0.65840435 255 255 255
56.519131 330.30649 -0.48868549 255 255 255
96.070717 291.20291 -0.45382491 255 255 255
31.02434 383.04837 -0.3287442 255 255 255
61.666401 446.6326 -0.43570766 255 255 255
26238.789 -11558.089 23.332972 255 255 255
26.140821 550.18658 -0.51840878 255 255 255
130.74344 483.66061 -0.4898639 255 255 255
-322.28116 -30.360346 -1.2860423 255 255 255
3.3261728 359.48584 -0.36331877 255 255 255
-14130.689 840.96814 -15.850471 255 255 255
102.66951 543.57855 -0.48554748 255 255 255
-1229.524 -188.83035 -2.4796255 255 255 255
2943.1321 -1114.5358 2.9181976 255 255 255
45.574532 462.67819 -0.42870522 255 255 255
128.28938 323.87674 -0.25655609 255 255 255
267.40555 288.9187 -0.59800708 255 255 255
81.255493 474.1626 -0.45699558 255 255 255
116.73642 525.41693 -0.46659914 255 255 255
163.49962 403.57697 -0.55285299 255 255 255
109.54772 450.70096 -0.47827318 255 255 255
55.929268 292.49557 -0.59508562 255 255 255
93.237434 269.67392 -0.75618297 255 255 255
80.142761 479.173 -0.45638496 255 255 255
90.588745 511.36786 -0.46518117 255 255 255
-3.291353 366.47067 -0.30335954 255 255 255
-544.81287 282.19366 -1.7512965 255 255 255
54.461502 458.78583 -0.43410307 255 255 255
42.83078 474.02283 -0.42233679 255 255 255
60.978767 461.90674 -0.42383111 255 255 255
69.621254 322.78589 -0.68277389 255 255 255
79.028053 479.98792 -0.45592198 255 255 255
104.88857 230.70612 -0.77188516 255 255 255
191.80273 484.67215 -0.4867124 255 255 255
5.7985873 562.5733 -0.53266156 255 255 255
17.555479 288.06409 -0.63356507 255 255 255
117.8828 294.01361 -0.71293283 255 255 255
-1254.9493 604.69794 -2.6017084 255 255 255
-28.283613 183.34717 -0.17302494 255 255 255
44.30085 466.96161 -0.42822102 255 255 255
127.55312 438.83072 -0.49513546 255 255 255
128.30817 480.99753 -0.48893294 255 255 255
-23.088312 455.7616 -0.44413525 255 255 255
63.895706 363.15875 -0.3344326 255 255 255
2029.7178 -297.53314 2.1820033 255 255 255
2384.9507 -557.95465 3.6620793 255 255 255
227.49661 464.14621 -0.54484808 255 255 255
243.91379 237.67027 -0.67330915 255 255 255
8698.4971 -4941.6006 7.3569565 255 255 255
71.883278 493.39963 -0.4524743 255 255 255
-23.499222 231.40163 -0.527179 255 255 255
-545.89441 -97.460968 -1.4957143 255 255 255
-43.997314 497.07962 -0.45009124 255 255 255
73.081764 356.64658 -0.42006037 255 255 255
143.23763 418.25916 -0.50862312 255 255 255
77.818832 495.92776 -0.45664451 255 255 255
117.93034 598.30713 -0.52521294 255 255 255
128.51065 417.1181 -0.41833106 255 255 255
1479.8975 -382.85126 2.617414 255 255 255
198.48102 485.66806 -0.52564782 255 255 255
-1822.6626 -257.63168 -2.6915343 255 255 255
-38.795143 293.91782 -0.69830745 255 255 255
-27.304197 495.38187 -0.40089777 255 255 255
-446.54889 -82.755531 -1.3911998 255 255 255
61.195759 447.87247 -0.43552804 255 255 255
103.68045 523.3562 -0.4682067 255 255 255
-46.79525 453.87961 -0.41749251 255 255 255
-11.422325 469.17264 -0.47161382 255 255 255
35.323235 189.83907 -0.64863116 255 255 255
79.160622 491.38754 -0.45702592 255 255 255
-818.02271 -231.80321 -1.8109099 255 255 255
-37.531567 362.70773 -0.57820469 255 255 255
-24.972973 378.62149 -0.60660571 255 255 255
239.39301 456.44278 -0.55201942 255 255 255
-522.72632 362.82037 -1.616237 255 255 255
115.03484 458.71143 -0.48229048 255 255 255
-467.51816 329.01981 -1.5581063 255 255 255
2556.1589 -1317.9658 3.9462645 255 255 255
-454.25052 307.19067 -1.5558211 255 255 255
40.671761 590.48053 -0.48982772 255 255 255
-474.92346 341.27313 -1.5603081 255 255 255
5.721848 477.72534 -0.41197985 255 255 255
-533.82483 -228.48468 -1.6862156 255 255 255
-9.5933571 393.51712 -0.6093092 255 255 255
2519.5522 -1308.7987 3.9221535 255 255 255
32.476994 450.23315 -0.41512531 255 255 255
2120.9189 790.57721 2.9634655 255 255 255
79.007744 465.61963 -0.45445666 255 255 255
186.82317 524.30432 -0.53876394 255 255 255
31.005411 402.254 -0.35279208 255 255 255
-3172.6414 1056.1292 -4.0730214 255 255 255
1028.619 -79.009361 1.0996329 255 255 255
39.612118 457.6459 -0.42279184 255 255 255
-1042.9553 476.42752 -2.451997 255 255 255
-14.298646 445.64792 -0.43558714 255 255 255
48.498005 428.31537 -0.4105871 255 255 255
92.520691 284.93295 -0.70172316 255 255 255
124.57612 438.84399 -0.49240524 255 255 255
61.449825 422.63425 -0.50570142 255 255 255
210.46928 491.0845 -0.52897757 255 255 255
-52.858578 510.22931 -0.50426525 255 255 255
27.82255 387.84286 -0.55041075 255 255 255
-1819.9102 -138.5919 -2.6600699 255 255 255
-17.401539 245.11792 -0.71440315 255 255 255
82.612022 433.65079 -0.38081977 255 255 255
-489.45953 316.68771 -1.6057546 255 255 255
141.28171 471.67914 -0.49885616 255 255 255
52.117672 456.27493 -0.43125942 255 255 255
167.37202 437.64816 -0.52470779 255 255 255
-1136.8163 569.14807 -2.4316399 255 255 255
166.61951 417.61072 -0.64214337 255 255 255
124.29035 395.48242 -0.43664107 255 255 255
122.42658 505.87552 -0.4833129 255 255 255
-2609.0698 -559.57074 -3.6341417 255 255 255
-22.576403 387.05753 -0.33817145 255 255 255
-594.8822 362.26382 -1.737972 255 255 255
-1242.1227 682.62781 -2.3735445 255 255 255
87.912125 501.73022 -0.46310395 255 255 255
-493.6506 283.7384 -1.6495261 255 255 255
91.708672 280.48877 -0.72622955 255 255 255
-602.53125 391.81586 -1.7114732 255 255 255
53.734463 449.86896 -0.43046916 255 255 255
-27558.996 5470.0093 -27.206686 255 255 255
40.991779 452.61688 -0.40498185 255 255 255
-778.64807 393.05231 -2.0495017 255 255 255
1693.9983 -515.70435 1.9360756 255 255 255
2068.5046 -979.49316 1.7713788 255 255 255
25.212791 363.41837 -0.69946194 255 255 255
76.642761 364.82138 -0.57081646 255 255 255
186.23215 410.15118 -0.55150127 255 255 255
121.92802 574.18292 -0.49648124 255 255 255
77.85968 272.6579 -0.67529708 255 255 255
0.28791526 311.80435 -0.64880198 255 255 255
51.614876 475.1925 -0.40509799 255 255 255
-482.48642 85.7864 -1.6789212 255 255 255
70.175339 449.60294 -0.44403613 255 255 255
6091.062 -2146.6299 4.9583139 255 255 255
151.31442 475.06314 -0.50438142 255 255 255
192.73846 390.67636 -0.56987429 255 255 255
1784.6196 -467.34357 1.9343977 255 255 255
49.656971 442.24667 -0.42377242 255 255 255
166.41473 469.72852 -0.46960613 255 255 255
-1331.3683 290.08542 -2.3494027 255 255 255
125.67688 437.25311 -0.49366856 255 255 255
-9.9640827 330.76498 -0.25812116 255 255 255
28.40729 451.7468 -0.41307017 255 255 255
142.2485 427.64706 -0.61754829 255 255 255
78.33297 435.9707 -0.38280526 255 255 255
-22.800735 207.87239 -0.61597222 255 255 255
-1358.3513 -742.77319 -2.566328 255 255 255
20.530169 462.09491 -0.4152503 255 255 255
34.258324 410.7796 -0.37278 255 255 255
203.82814 483.66895 -0.52852052 255 255 255
-70.007751 464.47955 -0.37212393 255 255 255
60.627792 469.7518 -0.44116282 255 255 255
57.484539 476.20618 -0.44032383 255 255 255
143.79158 608.72168 -0.49614406 255 255 255
66.23391 446.14285 -0.43943769 255 255 255
149.36436 401.4234 -0.59751844 255 255 255
-380.20071 271.06656 -1.4658128 255 255 255
-578.25452 -23.127916 -1.5096903 255 255 255
56.986969 171.22708 -0.8065424 255 255 255
-609.53851 -29.397362 -1.4924744 255 255 255
24.5807 266.38242 -0.65199542 255 255 255
210.86606 240.90685 -0.71545351 255 255 255
64.231323 469.54736 -0.44392627 255 255 255
43.51757 455.17886 -0.42488942 255 255 255
127.2864 565.27368 -0.49527174 255 255 255
669.60297 -417.22971 0.6238547 255 255 255
5461.2295 -1662.1562 4.2186117 255 255 255
131.44824 625.07227 -0.51102871 255 255 255
1059.2963 -83.148491 1.1296905 255 255 255
166.58891 428.185 -0.45413274 255 255 255
79.930756 493.00919 -0.45764726 255 255 255
-1583.5277 693.40991 -3.104599 255 255 255
-1082.0323 495.55307 -2.4947886 255 255 255
41.664986 416.64917 -0.38659626 255 255 255
125.67738 484.00436 -0.4869253 255 255 255
36.149693 451.27213 -0.39396256 255 255 255
32.312466 250.04039 -0.70506757 255 255 255
-927.94031 462.70633 -2.2239025 255 255 255
57.52504 454.54007 -0.43510199 255 255 255
166.49661 415.35745 -0.53643841 255 255 255
13669.644 4551.438 18.629896 255 255 255
-70.183289 464.52414 -0.37198201 255 255 255
-1245.453 685.99213 -2.3753197 255 255 255
-130.85391 329.18311 -0.41136464 255 255 255
187.42494 572.5307 -0.47862393 255 255 255
28.697823 458.19867 -0.4138011 255 255 255
253.18127 237.0097 -0.66168135 255 255 255
-38.91264 511.39035 -0.47425985 255 255 255
143.03439 418.4704 -0.51161474 255 255 255
-38.435345 515.90497 -0.47430158 255 255 255
-2586.561 941.74585 -3.4747596 255 255 255
1035.6891 -81.510773 1.110343 255 255 255
-861.93951 439.85928 -2.1319623 255 255 255
-2221.9392 -1011.5208 -4.285614 255 255 255
146.86482 532.50916 -0.45331913 255 255 255
213.88538 241.45433 -0.71069998 255 255 255
-16034.744 1006.2355 -18.011395 255 255 255
-638.95233 380.81683 -1.79408 255 255 255
-62.149704 505.24258 -0.4999598 255 255 255
43.117775 454.05005 -0.42424813 255 255 255
59.569252 456.9649 -0.43747884 255 255 255
82.902016 350.26871 -0.5439449 255 255 255
126.97167 481.69803 -0.48812032 255 255 255
164.6523 416.70554 -0.5345583 255 255 255
9.6778669 316.80832 -0.60613793 255 255 255
53.339184 514.0202 -0.44238493 255 255 255
-58.792416 431.8483 -0.58806688 255 255 255
73.337906 652.53326 -0.52247339 255 255 255
54.351593 444.17273 -0.42851833 255 255 255
120.06188 487.70551 -0.48321933 255 255 255
240.50322 455.76202 -0.55267125 255 255 255
79.534859 479.27216 -0.45623812 255 255 255
60.562874 463.37555 -0.4397791 255 255 255
-588.59027 351.3241 -1.6563052 255 255 255
36.248787 474.55139 -0.43342325 255 255 255
-472.71808 308.80362 -1.5853471 255 255 255
219.8929 267.97943 -0.62681186 255 255 255
229.89357 461.91809 -0.54654777 255 255 255
37.978283 457.37268 -0.42169586 255 255 255
132.46506 579.32739 -0.52043629 255 255 255
-457.51962 -90.148705 -1.6998003 255 255 255
142.84087 599.1214 -0.48798603 255 255 255
-562.77191 374.3735 -1.6699435 255 255 255
181.3278 523.92487 -0.47545472 255 255 255
58.850857 491.71716 -0.44461235 255 255 255
127.64539 479.94357 -0.48871833 255 255 255
103.8187 430.67215 -0.571477 255 255 255
-2961.4641 975.09845 -3.9732711 255 255 255
-22.812168 388.17676 -0.61393481 255 255 255
146.5683 480.27194 -0.50021815 255 255 255
2807.0015 -672.94397 4.302155 255 255 255
18.750082 287.03152 -0.65777075 255 255 255
-556.41687 370.00552 -1.6640297 255 255 255
10.002236 469.1207 -0.41141951 255 255 255
92.582359 596.14038 -0.52920878 255 255 255
-426.06985 -81.640343 -1.4101624 255 255 255
43.862267 463.18747 -0.42766178 255 255 255
60.378033 260.29614 -0.73670441 255 255 255
-2636.4502 -1202.1178 -6.2285876 255 255 255
132.19414 546.4173 -0.46622333 255 255 255
132.22775 562.46271 -0.52109474 255 255 255
16771.443 -1929.7205 16.460634 255 255 255
39.768513 456.46964 -0.42254069 255 255 255
38.993706 217.75316 -0.6187467 255 255 255
133.33496 598.08026 -0.51201755 255 255 255
-31.578028 367.58905 -0.31665131 255 255 255
3342.4031 -1788.9934 2.8449275 255 255 255
145.06952 483.68234 -0.49861234 255 255 255
202.23056 472.69424 -0.53146297 255 255 255
208.28226 336.69571 -0.62516534 255 255 255
74.960556 551.72888 -0.5147332 255 255 255
-1023.1299 -250.06654 -1.9498309 255 255 255
32.661026 405.74271 -0.3618829 255 255 255
142.62473 480.39496 -0.49770784 255 255 255
131.39526 487.48669 -0.52212727 255 255 255
16.393738 398.3923 -0.35272482 255 255 255
1122.3062 -659.42957 0.97481024 255 255 255
4037.5857 -1294.2864 4.6550097 255 255 255
48.041718 422.10117 -0.39697376 255 255 255
-15286.088 4191.4438 -17.793623 255 255 255
1422.37 -519.16675 1.4560484 255 255 255
-30.363773 245.11284 -0.59934229 255 255 255
-1308.2521 -34.354195 -2.0816967 255 255 255
-68.543381 339.11459 -0.38109905 255 255 255
121.5818 634.31403 -0.50236255 255 255 255
33.199215 450.19965 -0.41557187 255 255 255
53.118271 457.9606 -0.43293884 255 255 255
545.40149 417.70123 -0.17162965 255 255 255
205.38779 344.832 -0.61593533 255 255 255
-1081.6493 494.31876 -2.4971991 255 255 255
-583.69092 36.728893 -1.4311869 255 255 255
-548.25446 -153.36662 -1.5147842 255 255 255
-15652.928 6807.1987 -16.795502 255 255 255
-11949.958 -3662.3174 -23.414022 255 255 255
61.518295 450.79364 -0.43691024 255 255 255
-2.5359631 260.93085 -0.53827995 255 255 255
8.1828995 253.45345 -0.71285367 255 255 255
-2041.1509 437.4549 -4.1145821 255 255 255
57.825329 446.23724 -0.43229064 255 255 255
2758.8728 -992.32941 2.7867248 255 255 255
1792.432 -1255.0669 2.4824548 255 255 255
158.91643 476.93561 -0.50789422 255 255 255
29.0284 220.76923 -0.60831112 255 255 255
-4190.1001 1486.2112 -5.7982635 255 255 255
25.25498 299.7103 -0.67075896 255 255 255
140.43079 502.05444 -0.48870516 255 255 255
-1273.1075 -365.60886 -2.3138778 255 255 255
-1373.9092 722.31586 -2.5221062 255 255 255
23.787306 467.78284 -0.49237785 255 255 255
62.434925 478.47687 -0.44412565 255 255 255
76.440399 509.49289 -0.45097938 255 255 255
-924.20972 -186.09854 -1.9551674 255 255 255
17.677847 319.57648 -0.66831005 255 255 255
92.737251 580.42944 -0.48792785 255 255 255
-1450.8409 -53.440727 -2.1453321 255 255 255
13.937027 472.96579 -0.41475955 255 255 255
-30.30982 477.02866 -0.39321032 255 255 255
113.34452 565.09271 -0.53526282 255 255 255
69.549515 470.9476 -0.44821212 255 255 255
27.570286 447.52875 -0.41048941 255 255 255
152.85425 618.00726 -0.50237232 255 255 255
72.549782 460.17178 -0.44871852 255 255 255
130.11461 483.57977 -0.48973849 255 255 255
65.636589 335.75125 -0.69752157 255 255 255
128.61427 481.52502 -0.48913187 255 255 255
1520.332 -829.57513 1.3649698 255 255 255
66.759277 449.39844 -0.44105098 255 255 255
11026.773 -3529.4968 9.9890652 255 255 255
66.636925 450.71817 -0.44135702 255 255 255
3467.3835 -1619.9666 2.9079721 255 255 255
289.92981 312.69113 -0.34162062 255 255 255
-35.486996 397.79364 -0.58423489 255 255 255
68.904282 464.50146 -0.4233979 255 255 255
-44.867332 469.60037 -0.47753805 255 255 255
-671.54126 392.45471 -1.8372048 255 255 255
3.8665001 225.45033 -0.23257793 255 255 255
-1354.6602 44.403275 -2.0229418 255 255 255
-11.725328 243.31441 -0.24334176 255 255 255
48.802807 451.83167 -0.42753959 255 255 255
79.664711 463.50931 -0.4274919 255 255 255
37.00687 259.9628 -0.68008262 255 255 255
138.89001 626.28973 -0.53394932 255 255 255
47.71553 478.16736 -0.39652136 255 255 255
45.057343 453.58078 -0.42548421 255 255 255
1471.3405 -379.89716 2.597707 255 255 255
206.67984 219.89343 -0.73308146 255 255 255
1295.3153 -932.30255 1.3094034 255 255 255
121.94361 576.3866 -0.46885681 255 255 255
35.230862 506.08987 -0.43099833 255 255 255
153.75854 466.58722 -0.5077976 255 255 255
29.26899 464.50903 -0.44323733 255 255 255
-1901.5116 -165.84654 -3.1796274 255 255 255
-7776.5024 2165.0437 -14.202407 255 255 255
37.771633 457.80356 -0.42153984 255 255 255
-183.07643 -39.261116 -1.1730969 255 255 255
-1084.9556 632.70331 -2.1970506 255 255 255
8906.1699 -2879.9451 7.9699397 255 255 255
117.90563 452.44214 -0.48475799 255 255 255
140.89691 484.20984 -0.4959648 255 255 255
116.77943 376.23239 -0.57447416 255 255 255
5164.8203 -3102.0256 4.6644821 255 255 255
-268.97638 -87.53537 -1.2744683 255 255 255
-33.792194 378.3981 -0.60375988 255 255 255
-11.564971 487.97638 -0.40587273 255 255 255
47.95245 448.48944 -0.42538282 255 255 255
137.06224 483.11911 -0.49372905 255 255 255
108.02335 455.74817 -0.47698611 255 255 255
-25.621391 291.99222 -0.66025329 255 255 255
173.61993 615.46307 -0.53644329 255 255 255
190.28441 432.08228 -0.5417251 255 255 255
51.385231 500.45575 -0.50131333 255 255 255
32.637867 255.94324 -0.68353182 255 255 255
159.18929 494.32306 -0.50446993 255 255 255
153.59444 473.9321 -0.50590414 255 255 255
66.756592 185.4584 -0.60556781 255 255 255
234.55766 222.29932 -0.69532877 255 255 255
127.86963 427.98169 -0.49635801 255 255 255
1473.0593 -881.58984 1.7741778 255 255 255
22.50206 387.39713 -0.36924142 255 255 255
151.99898 483.03348 -0.50262964 255 255 255
100.51411 513.93903 -0.47731262 255 255 255
6.8619919 384.48184 -0.34992528 255 255 255
-22.074305 423.17389 -0.55339342 255 255 255
41.561337 301.86798 -0.77224624 255 255 255
142.8508 481.10065 -0.49772829 255 255 255
-755.75452 -107.37147 -1.9573612 255 255 255
248.88817 498.08493 -0.47102767 255 255 255
186.61383 444.57004 -0.53419828 255 255 255
-295.01202 -24.599842 -1.253481 255 255 255
-1212.3888 586.96991 -2.5527406 255 255 255
-2372.2734 590.91553 -4.2322044 255 255 255
173.19881 407.89307 -0.54586667 255 255 255
-423.0961 -62.789005 -1.4053503 255 255 255
237.77789 455.87421 -0.55167484 255 255 255
4008.6921 -993.29742 2.8369291 255 255 255
123.53835 439.01987 -0.49149185 255 255 255
-857.51556 -371.34589 -2.3529558 255 255 255
59.460388 459.4028 -0.43803099 255 255 255
-14.275936 331.74454 -0.65245956 255 255 255
-5.3711705 257.82898 -0.71516597 255 255 255
121.68155 507.96762 -0.48273784 255 255 255
-1412.2032 675.5495 -2.5988059 255 255 255
121.53561 495.91339 -0.4834106 255 255 255
82.810112 221.84792 -0.74135458 255 255 255
154.00258 467.97974 -0.50765568 255 255 255
39.853329 460.15778 -0.43666184 255 255 255
51.1474 463.89859 -0.41807368 255 255 255
68.70887 216.50523 -0.675255 255 255 255
1164.3092 -567.59143 0.95826161 255 255 255
21.304346 384.04404 -0.37168363 255 255 255
16.996218 172.29723 -0.62646902 255 255 255
133.09961 408.65067 -0.58716059 255 255 255
-2830.7825 -1089.0607 -5.0067015 255 255 255
6180.5654 -4224.5571 5.6667175 255 255 255
164.63939 432.46616 -0.52632099 255 255 255
1811.9205 -833.2323 1.6586434 255 255 255
8.5597534 491.78973 -0.41042066 255 255 255
-2102.8044 -105.95591 -2.9798865 255 255 255
-361.13489 -31.317587 -1.4003606 255 255 255
5243.7026 -2826.5806 7.0841064 255 255 255
24.111134 253.87639 -0.35816744 255 255 255
227.06551 462.8595 -0.54517651 255 255 255
-181.89484 -37.872913 -1.1681083 255 255 255
-778.52673 392.73203 -2.0495963 255 255 255
59.040142 482.24417 -0.44284022 255 255 255
91.638603 551.4176 -0.49494874 255 255 255
-789.80597 463.52042 -2.4053912 255 255 255
35.055111 449.85977 -0.40313694 255 255 255
-2958.3269 972.59796 -3.9706709 255 255 255
-24.079992 409.01407 -0.35784969 255 255 255
21.19644 423.30231 -0.39022541 255 255 255
-973.92767 457.47626 -2.3396113 255 255 255
-21.82535 388.58621 -0.33990622 255 255 255
-21.655235 386.67896 -0.33845872 255 255 255
9.7744007 469.20822 -0.41149679 255 255 255
22.472801 219.35886 -0.58024633 255 255 255
76.600166 472.81793 -0.39737791 255 255 255
75.344719 311.07996 -0.74280268 255 255 255
180.68793 429.02213 -0.51043487 255 255 255
67.17778 249.09932 -0.29390338 255 255 255
52.754002 480.48071 -0.40630016 255 255 255
237.7962 240.45865 -0.67947346 255 255 255
31.949505 447.03497 -0.41304544 255 255 255
47.082981 478.61771 -0.44105011 255 255 255
51.061981 442.45633 -0.42505884 255 255 255
-1081.1055 495.18411 -2.4933681 255 255 255
-554.44263 -10.555921 -1.5993075 255 255 255
2655.9551 -1405.0509 2.3709316 255 255 255
87.713173 477.6973 -0.44175255 255 255 255
195.80504 470.62177 -0.53064978 255 255 255
77.95211 471.93134 -0.41658878 255 255 255
59.816196 262.84552 -0.73167151 255 255 255
196.71306 479.85587 -0.53965187 255 255 255
127.85271 313.4563 -0.68889403 255 255 255
94.92807 401.00381 -0.40343294 255 255 255
841.37103 -48.126011 0.90131193 255 255 255
-43.122307 243.49915 -0.27437833 255 255 255
29.297161 453.03683 -0.41423997 255 255 255
-168.76093 -21.247528 -1.1414539 255 255 255
-1080.6454 493.70316 -2.4962573 255 255 255
-479.0665 287.47305 -1.6183013 255 255 255
15.042912 313.28937 -0.65699631 255 255 255
38.081539 412.78485 -0.37616581 255 255 255
-2719.9363 124.9062 -6.105804 255 255 255
13.626425 418.01324 -0.38144666 255 255 255
40833.559 -8459.8018 39.547676 255 255 255
-516.51044 325.64896 -1.6433388 255 255 255
129.10617 438.38657 -0.4964675 255 255 255
-870.73431 -397.30276 -2.2908249 255 255 255
20.169596 423.11603 -0.38960412 255 255 255
820.55225 -87.450386 0.91221905 255 255 255
233.41234 200.15898 -0.70823687 255 255 255
193.38591 243.04118 -0.63679093 255 255 255
119.97687 493.89938 -0.48273888 255 255 255
53440.867 -10475.709 56.130234 255 255 255
189.13162 404.52185 -0.55701065 255 255 255
-2905.4309 958.5929 -3.9288812 255 255 255
1784.2206 -899.6626 1.500594 255 255 255
3946.2913 -1392.7891 4.5027447 255 255 255
133.81665 601.52142 -0.51197141 255 255 255
16.975096 315.89371 -0.60516119 255 255 255
151.71674 375.95499 -0.38282901 255 255 255
344.80908 413.53897 -0.41195267 255 255 255
30.086782 481.82727 -0.46767661 255 255 255
-549.98987 377.15338 -1.6462828 255 255 255
-625.36407 361.28934 -1.7955478 255 255 255
125.70468 550.59253 -0.48663643 255 255 255
1727.8369 36.136288 1.6929631 255 255 255
-2640.5139 -830.90857 -3.5170012 255 255 255
189.22081 476.3121 -0.52381009 255 255 255
43.511082 455.24213 -0.4249149 255 255 255
-772.48633 416.35568 -1.992341 255 255 255
128.80272 432.48297 -0.61849856 255 255 255
65.848427 434.1297 -0.39486113 255 255 255
151.48648 607.82831 -0.50220323 255 255 255
-4256.3965 1497.0183 -5.8782163 255 255 255
18.873192 421.40811 -0.38720515 255 255 255
34.323704 291.30536 -0.61816835 255 255 255
88.179115 625.61523 -0.50719321 255 255 255
2242.5142 -1552.9132 3.0030696 255 255 255
177.64204 435.61453 -0.53313041 255 255 255
71.538353 256.23651 -0.6343202 255 255 255
57.434975 454.49576 -0.4350802 255 255 255
68.410461 489.00806 -0.44980514 255 255 255
60.465961 469.48386 -0.44111839 255 255 255
83.700081 497.03748 -0.46043238 255 255 255
70.456787 474.23792 -0.41948026 255 255 255
-91.203148 253.90088 -0.67774928 255 255 255
139.76813 452.08209 -0.52379328 255 255 255
-379.96533 271.11508 -1.465714 255 255 255
-603.20239 -243.32579 -1.7512379 255 255 255
42.573975 357.54401 -0.31198627 255 255 255
57.941906 451.08618 -0.43440288 255 255 255
1426.2533 -740.14807 1.2123737 255 255 255
-2244.6477 683.78607 -4.2778568 255 255 255
27.400349 404.1767 -0.37795803 255 255 255
-1587.6613 494.41879 -3.442785 255 255 255
79.59285 478.99927 -0.45629588 255 255 255
-1430.9194 -129.23354 -2.1989484 255 255 255
229.8196 461.82401 -0.54670268 255 255 255
130.8055 583.84967 -0.46963763 255 255 255
3.5171001 465.81711 -0.46428117 255 255 255
202.0544 485.05722 -0.5274905 255 255 255
286.93344 347.28781 -0.40145728 255 255 255
166.97868 416.17712 -0.53631622 255 255 255
-1819.9474 725.65955 -4.0320368 255 255 255
41.745358 471.73914 -0.44778419 255 255 255
-461.84525 -132.86902 -1.5081542 255 255 255
43.745747 462.70865 -0.43657911 255 255 255
77.915413 349.06448 -0.55553538 255 255 255
-928.79718 463.32297 -2.2247701 255 255 255
-0.79968429 205.99034 -0.61505598 255 255 255
60.29657 483.54733 -0.4437888 255 255 255
21766.686 -11047.499 23.427998 255 255 255
-14.293416 491.26608 -0.489189 255 255 255
-771.99695 388.82379 -2.0433879 255 255 255
60.532825 452.21387 -0.43687308 255 255 255
67.298309 496.37494 -0.45027259 255 255 255
141.36855 609.73053 -0.49189016 255 255 255
126.87038 481.677 -0.48815393 255 255 255
154.80945 623.13898 -0.5037173 255 255 255
61.927006 476.25507 -0.44360921 255 255 255
191.53462 391.43939 -0.56859404 255 255 255
-129.916 381.01471 -0.58300251 255 255 255
-3670.9233 -1497.2783 -6.4749975 255 255 255
176.91243 639.95392 -0.50542545 255 255 255
56.607986 458.48312 -0.43571839 255 255 255
-1468.0627 -49.475121 -2.2491198 255 255 255
-1658.4874 -620.07928 -3.1555774 255 255 255
43.288422 454.04745 -0.42442051 255 255 255
-872.82196 445.9624 -2.142087 255 255 255
59.306541 456.96512 -0.43739855 255 255 255
145.03935 478.73441 -0.4995912 255 255 255
127.85378 428.06406 -0.49651912 255 255 255
37.703876 457.92191 -0.42164892 255 255 255
53.636944 449.802 -0.43036965 255 255 255
10.143376 252.43019 -0.6855408 255 255 255
206.93459 218.77127 -0.73318684 255 255 255
198.26442 485.56729 -0.52575374 255 255 255
1582.597 -806.16742 1.3310955 255 255 255
-56.299011 228.92307 -0.57942247 255 255 255
50.00351 447.9613 -0.42679116 255 255 255
70.134041 485.6329 -0.4506937 255 255 255
48.266758 452.44318 -0.42736888 255 255 255
32.800358 406.77591 -0.36137167 255 255 255
121.73902 389.9339 -0.39406317 255 255 255
208.49644 489.02472 -0.52899176 255 255 255
123.5486 491.15302 -0.48506883 255 255 255
-994.44043 465.48444 -2.3682926 255 255 255
13.485836 343.69244 -0.34738049 255 255 255
-2774.0093 935.56921 -3.7809961 255 255 255
-1825.5999 -351.67542 -2.8605905 255 255 255
76.774834 389.95563 -0.52098542 255 255 255
28.562319 450.21918 -0.41257569 255 255 255
28.230841 451.7298 -0.41291839 255 255 255
-1528.2549 681.16528 -3.0136015 255 255 255
-2961.2891 1045.4005 -3.7855823 255 255 255
97.39373 545.32947 -0.44953489 255 255 255
210.47516 491.07141 -0.5291819 255 255 255
202.4747 485.7384 -0.52745515 255 255 255
-3.8470433 452.74988 -0.40182105 255 255 255
2592.5745 -1335.687 4.0002875 255 255 255
106.15935 325.24295 -0.4065707 255 255 255
79.624817 252.72441 -0.3784371 255 255 255
153.38896 248.52252 -0.6983124 255 255 255
130.60555 483.52429 -0.48984584 255 255 255
226.04793 466.39069 -0.54351944 255 255 255
-556.01404 369.67856 -1.6634454 255 255 255
227.39778 463.95328 -0.54492801 255 255 255
47.820045 447.83603 -0.42506912 255 255 255
189.36827 392.314 -0.56611103 255 255 255
-32.243164 415.31693 -0.42542702 255 255 255
-636.8194 379.48074 -1.7919579 255 255 255
-52.727898 510.11209 -0.50425845 255 255 255
72.892601 389.75833 -0.34376681 255 255 255
19.803452 480.52921 -0.42889503 255 255 255
2046.545 -759.50397 2.3789475 255 255 255
53.752548 262.48483 -0.74487633 255 255 255
-717.95526 405.00165 -1.9066705 255 255 255
-1183.7231 568.27429 -2.5366244 255 255 255
-53.423168 403.61197 -0.56764662 255 255 255
51.258739 440.53784 -0.40520272 255 255 255
-425.12598 150.32535 -1.462401 255 255 255
30.756952 294.74347 -0.6311233 255 255 255
158.80525 477.07516 -0.50819755 255 255 255
-664.98566 5.3472762 -1.4994966 255 255 255
76.047089 446.13068 -0.42284974 255 255 255
-70.540512 444.26746 -0.48682579 255 255 255
210.65887 240.85103 -0.71553475 255 255 255
121.40438 546.86755 -0.4720825 255 255 255
123.07243 388.94699 -0.59193951 255 255 255
124.40257 437.61182 -0.43978715 255 255 255
-266.83228 17.613401 -1.4409209 255 255 255
3805.0774 -417.11359 6.2242832 255 255 255
226.32341 437.87363 -0.51972598 255 255 255
