ply
format ascii 1.0
comment PCL generated
element vertex 1107
property float x
property float y
property float z
property uchar red
property uchar green
property uchar blue
element face 0
element camera 0
property float view_px
property float view_py
property float view_pz
property float x_axisx
property float x_axisy
property float x_axisz
property float y_axisx
property float y_axisy
property float y_axisz
property float z_axisx
property float z_axisy
property float z_axisz
property float focal
property float scalex
property float scaley
property float centerx
property float centery
property int viewportx
property int viewporty
property float k1
property float k2
end_header
3848.3159 9367.5967 14.568737 255 255 255
2803.1018 1590.5883 4.418014 255 255 255
254.62923 491.3978 1.1403871 255 255 255
-491.54526 -1187.2258 -3.1266358 255 255 255
-3589.9397 -8752.9229 -14.355332 255 255 255
6657.0493 2812.03 7.344552 255 255 255
1444.2344 7975.7153 12.448941 255 255 255
17493.646 17362.629 46.615799 255 255 255
170.95319 1026.1151 1.6737798 255 255 255
-3182.0005 -1341.3264 -4.9848447 255 255 255
-1978.4565 -823.88135 -3.0411298 255 255 255
3517.0005 17479.891 27.653439 255 255 255
-475.13638 -683.0943 -1.7244235 255 255 255
-1056.8884 -816.25708 -2.3527062 255 255 255
547.15967 2247.3188 3.4310291 255 255 255
-2120.821 -1256.0089 -3.3648169 255 255 255
-523.84778 -620.02594 -1.7475479 255 255 255
720.43921 1478.4818 2.2663476 255 255 255
-973.39923 -1703.4929 -2.8880365 255 255 255
-736.82104 -2262.2202 -4.0699797 255 255 255
412.79797 1445.61 2.1091452 255 255 255
251.00903 1282.541 1.9304199 255 255 255
161.22842 650.48535 0.86841047 255 255 255
1290.8849 2148.7246 3.9498327 255 255 255
6000.5244 3675.4299 6.2176585 255 255 255
-1814.8722 -2414.6577 -3.801841 255 255 255
25.67049 734.2301 1.3427147 255 255 255
-1496.847 -2064.5974 -3.638638 255 255 255
-2183.0994 -2524.8501 -4.0117955 255 255 255
5897.999 3963.8501 6.1050882 255 255 255
42275.457 20258.359 58.283669 255 255 255
-5810.6543 -12567.169 -20.239223 255 255 255
-1078.0983 -1144.963 -2.4071603 255 255 255
-557.08087 -804.38721 -1.8318971 255 255 255
-798.19989 -1191.5576 -2.2439096 255 255 255
-1083.098 -1467.7316 -2.6934953 255 255 255
82.991173 212.85039 0.47898358 255 255 255
220.3302 937.75507 1.5966883 255 255 255
-1260.5918 -1401.1652 -2.7441232 255 255 255
382.64194 2534.8267 4.7697954 255 255 255
1197.174 1126.7677 1.6578479 255 255 255
108.17488 234.23933 0.41115052 255 255 255
286.40787 491.24319 1.1748227 255 255 255
4849.332 2856.8989 5.7281089 255 255 255
408.81326 1066.9967 1.7968024 255 255 255
543.48566 963.52631 1.80802 255 255 255
5249.8359 11072.591 15.975197 255 255 255
814.89423 1505.2416 2.3370223 255 255 255
679.79736 1519.2795 2.272001 255 255 255
-4220.0381 -2506.665 -5.7282219 255 255 255
61824.895 30461.301 66.727707 255 255 255
21700.152 55167.637 144.55835 255 255 255
-512.44189 -639.87073 -1.7528687 255 255 255
6666.0767 2815.6338 7.3559308 255 255 255
164.85037 1163.771 1.8076369 255 255 255
155.40291 171.90726 0.36601746 255 255 255
6794.6514 2526.7327 7.817636 255 255 255
7976.0913 2519.4338 8.8906851 255 255 255
14577.69 11061.667 22.897999 255 255 255
910.43622 3175.2061 4.6317787 255 255 255
234.48436 448.80539 1.0731629 255 255 255
1047.5608 1880.4071 4.168478 255 255 255
-254.28136 -262.01794 -1.3538942 255 255 255
422.35928 620.66809 1.4390455 255 255 255
-1166.9514 -710.26624 -2.7010958 255 255 255
2343.0767 2063.9031 3.7553947 255 255 255
229.63898 444.2905 1.0628431 255 255 255
235.23082 549.3606 1.1881429 255 255 255
112.68179 537.70422 1.0012423 255 255 255
922.71936 1078.8578 2.2425094 255 255 255
940.40338 1087.6752 2.2633712 255 255 255
-455.45096 -558.63287 -1.6448838 255 255 255
-899.56439 -2435.0571 -5.0945559 255 255 255
338.02393 1203.9108 1.8838543 255 255 255
-1198.9736 -3968.4314 -7.1074777 255 255 255
-3627.1221 -3297.5247 -10.975819 255 255 255
1081.4507 1459.5349 2.5251834 255 255 255
-308.32645 -493.08426 -1.5022758 255 255 255
-1226.5426 -1511.5527 -2.8438644 255 255 255
1545.7443 7198.6406 15.474619 255 255 255
-66.419624 -98.507759 -1.2124896 255 255 255
559.23389 917.34094 1.7891454 255 255 255
63006.805 37131.008 79.321007 255 255 255
692.50275 1238.7489 2.7855539 255 255 255
72.595741 191.84898 0.54769796 255 255 255
-789.91785 -1540.4681 -3.4999113 255 255 255
-264.17346 -454.86734 -1.4593903 255 255 255
-1199.6335 -2113.7937 -3.0912907 255 255 255
5041.1899 2793.9563 5.9404631 255 255 255
474.51105 1354.0884 2.0590587 255 255 255
-3773.7649 -1617.7467 -5.2776222 255 255 255
237.18089 1170.9254 1.8250921 255 255 255
-520.57196 -662.43378 -1.7466545 255 255 255
758.97382 1562.259 3.4438529 255 255 255
332.92419 555.68744 1.2858697 255 255 255
6637.458 2812.2458 7.3336034 255 255 255
-474.04538 -2609.072 -5.2699199 255 255 255
-532.61987 -764.77185 -1.8172582 255 255 255
-75.284012 -78.660751 -1.1878725 255 255 255
1061.0356 779.76733 2.4144409 255 255 255
217.90208 610.47906 1.1926358 255 255 255
163.80106 1158.2494 1.8024939 255 255 255
-3795.4941 -1944.5309 -6.7076168 255 255 255
283.41577 556.98975 1.2355394 255 255 255
101.74781 1011.734 1.6521887 255 255 255
-2960.7239 -8871.4277 -16.800873 255 255 255
3796.8359 2609.0034 4.9362507 255 255 255
5403.916 3518.3953 5.8335142 255 255 255
194.72081 391.578 0.96709633 255 255 255
316.81647 266.54813 0.44394752 255 255 255
-497.87766 -1803.4543 -4.2390609 255 255 255
-944.00824 -708.01062 -2.3673038 255 255 255
921.61218 978.00885 2.2133563 255 255 255
920.53943 1797.8536 2.5584252 255 255 255
143.75174 339.2388 0.85038823 255 255 255
800.91278 1090.1884 2.0124097 255 255 255
-1092.3054 -2341.2671 -5.2936244 255 255 255
376.75748 1262.1958 1.9455684 255 255 255
161.09715 859.41882 1.1259766 255 255 255
201.26297 492.38092 1.0959617 255 255 255
-22889.129 -8192.6309 -24.738535 255 255 255
265.37979 505.87357 1.1660099 255 255 255
278.80359 617.49335 1.2947311 255 255 255
-600.75208 -729.51965 -1.8286638 255 255 255
4518.7261 10508.946 15.418181 255 255 255
-2251.9753 -3725.9326 -7.3646965 255 255 255
-886.81445 -1141.5653 -2.2940073 255 255 255
926.41968 1082.2819 2.24788 255 255 255
-24740.809 -15575.249 -31.485544 255 255 255
-720.41803 -797.61487 -2.1705132 255 255 255
396.91876 1597.0143 2.2286062 255 255 255
-713.33258 -897.87915 -2.5324473 255 255 255
-2568.7166 -6418.2119 -10.69058 255 255 255
384.92917 979.25696 1.7085246 255 255 255
-10845.628 -22514.678 -39.800953 255 255 255
5130.9243 2762.5439 6.045403 255 255 255
2625.2498 2483.7903 4.0875354 255 255 255
874.85242 925.03003 2.1422312 255 255 255
650.83801 1164.1694 2.0823379 255 255 255
803.0506 1104.0419 1.7563766 255 255 255
1104.228 2034.7079 3.6278346 255 255 255
-1445.484 -3776.4958 -6.6085324 255 255 255
310.28424 1409.3541 2.054322 255 255 255
-27269.447 -54921.883 -100.53763 255 255 255
10369.002 2510.8816 10.991751 255 255 255
597.49402 579.53979 0.85632282 255 255 255
50.447701 188.36766 0.52470458 255 255 255
363.73331 1284.6643 1.9604369 255 255 255
4586.3711 3100.1504 5.4116545 255 255 255
295.07504 487.98584 1.1793666 255 255 255
5649.9102 2600.2759 6.6485391 255 255 255
335.33148 490.75635 1.2311807 255 255 255
1953.1614 6360.561 10.501628 255 255 255
12795.888 5984.9858 13.235765 255 255 255
331.55292 587.39435 1.3120174 255 255 255
-291.84384 -270.32419 -1.3778019 255 255 255
695.08679 1694.4935 2.3925803 255 255 255
-2884.0417 -8325.9805 -14.198893 255 255 255
516.12897 1438.9399 2.139322 255 255 255
1103.5763 2870.8799 4.5066314 255 255 255
348.24246 1197.4958 1.8825079 255 255 255
512.81421 1323.5503 2.2634084 255 255 255
266.3338 874.21606 1.5512019 255 255 255
483.76257 1083.4949 1.8551271 255 255 255
436.45383 2811.0068 6.8957205 255 255 255
310.6636 1276.6406 1.8038056 255 255 255
254.65891 200.75266 0.30320632 255 255 255
-4140.2227 -2597.9734 -5.7401972 255 255 255
663.21771 1543.0841 2.2837782 255 255 255
421.45947 1440.6125 2.8693492 255 255 255
375.63409 1379.4078 2.0457456 255 255 255
-3354.6995 -14831.805 -30.993372 255 255 255
-320.21207 -968.8479 -2.577522 255 255 255
-1526.3387 -1498.9567 -2.9977489 255 255 255
-2398.2112 -1485.5548 -4.6522021 255 255 255
298.58347 638.03833 1.331508 255 255 255
-590.474 -702.68616 -1.8311393 255 255 255
420.70218 428.34305 1.3139334 255 255 255
306.92902 1514.7156 2.1446354 255 255 255
-1646.7032 -1241.6305 -3.0094831 255 255 255
178.21797 909.43134 1.5523561 255 255 255
3997.6772 2675.8855 5.0832047 255 255 255
275.61172 1382.7212 2.0247355 255 255 255
183.67291 412.53552 0.98177296 255 255 255
-1120.1464 -1524.1317 -2.7033927 255 255 255
549.07343 1507.9427 2.2042768 255 255 255
-228.3096 -2006.3591 -5.0596967 255 255 255
4110.0542 17878.969 32.74033 255 255 255
556.94232 1512.6099 2.2118852 255 255 255
-1631.5806 -3975.6094 -8.8133068 255 255 255
4888.6436 2844.0791 5.7784348 255 255 255
872.01855 917.15704 2.133076 255 255 255
-650.29639 -1136.0638 -2.2483304 255 255 255
5461.8638 2490.6785 5.7278805 255 255 255
1068.9791 2244.7036 3.6618476 255 255 255
-835.3382 -1137.5615 -2.2882469 255 255 255
213.144 207.81004 0.26588771 255 255 255
607.24854 530.09552 0.86129123 255 255 255
282.27853 563.91162 1.2442086 255 255 255
134.73984 634.56506 0.88485974 255 255 255
416.53864 783.19904 1.2370459 255 255 255
780.06708 3262.6392 4.8964281 255 255 255
540.45111 1116.3582 1.9155148 255 255 255
-1973.9332 -581.12616 -4.4965968 255 255 255
4641.9199 2286.1506 5.956264 255 255 255
494.37103 874.12354 1.2616498 255 255 255
78.252708 921.23224 1.5562726 255 255 255
144.53094 1049.9331 1.6944355 255 255 255
2668.8213 1943.2781 5.4844322 255 255 255
26.229546 845.36475 1.4763495 255 255 255
-3786.0469 -9759.1641 -17.147579 255 255 255
241.10741 1268.3021 1.9153132 255 255 255
219.61168 386.82336 0.72590035 255 255 255
-604.36035 -838.82281 -1.9337662 255 255 255
968.26367 687.80652 2.2781584 255 255 255
348.26956 622.69397 1.3626792 255 255 255
11302.89 26400.531 57.18811 255 255 255
189.9281 413.97711 0.99087614 255 255 255
-2118.6804 -1928.7994 -3.6803651 255 255 255
4850.1211 2927.2268 5.7152724 255 255 255
-148.67412 -780.67145 -2.3854632 255 255 255
-419.5665 -364.41229 -1.5235095 255 255 255
163.72134 259.07214 0.7622003 255 255 255
249.4073 567.2287 1.2199665 255 255 255
913.50751 1073.0289 1.2726616 255 255 255
287.289 1065.6826 1.7417697 255 255 255
-2962.3623 -1859.9818 -5.733489 255 255 255
-1320.2964 -1336.1584 -2.7841723 255 255 255
-90439.242 -137558.02 -272.18106 255 255 255
931.83044 650.32367 2.2292829 255 255 255
-691.04547 -1833.3494 -4.2676558 255 255 255
282.86411 604.28375 1.2855055 255 255 255
393.47144 1572.1278 2.2065766 255 255 255
21322.611 11650.217 25.803619 255 255 255
206.59084 394.28799 0.65100026 255 255 255
5105.9248 2773.0481 6.0143008 255 255 255
389.92447 1170.7856 1.8746271 255 255 255
-1017.8143 -1262.218 -3.2270722 255 255 255
603.97089 1275.5806 2.0699811 255 255 255
822.30939 1145.6075 1.2146736 255 255 255
478.08286 1163.9688 1.9129648 255 255 255
-900.01868 -1315.5719 -2.3811259 255 255 255
1546.0103 1685.9364 3.0107207 255 255 255
1208.2999 256.70691 1.2626947 255 255 255
924.73694 648.1001 2.2159233 255 255 255
424.38882 1339.0891 2.0272541 255 255 255
755.98907 486.42691 1.9530681 255 255 255
681.31012 947.83209 1.4767257 255 255 255
-474.90308 -592.04071 -1.6761205 255 255 255
1430.759 1773.6594 2.6811142 255 255 255
515.29456 1574.5391 2.2395225 255 255 255
716.95001 1559.9622 2.3173776 255 255 255
-1865.1042 -2306.9934 -3.6659982 255 255 255
4606.3408 3084.051 5.4216051 255 255 255
-1834.0085 -2130.731 -3.5856287 255 255 255
672.6358 1160.5125 2.0381014 255 255 255
-873.00604 -1087.2865 -5.4819384 255 255 255
43.913692 204.70514 0.55288506 255 255 255
6723.7949 3401.488 8.1106653 255 255 255
593.2406 1366.3777 2.125386 255 255 255
690.24158 1029.1288 1.19063 255 255 255
231.43584 1077.2344 1.7366405 255 255 255
433.70547 1146.9716 1.5742009 255 255 255
-2545.2808 -1397.4728 -3.986892 255 255 255
256.43497 441.16714 1.0887691 255 255 255
5542.5034 4431.0176 6.5838466 255 255 255
376.57431 1363.3037 2.0307462 255 255 255
696.94733 1516.3995 2.2799163 255 255 255
-2006.3665 -6451.8306 -11.372171 255 255 255
267.68106 734.34973 1.4033631 255 255 255
-1804.3126 -4905.3301 -8.3576927 255 255 255
-17939.639 -10272.98 -20.592232 255 255 255
1085.1705 804.48901 2.4437511 255 255 255
57.711628 204.30548 0.56032044 255 255 255
-428.97821 -821.21075 -2.3238044 255 255 255
729.21588 416.3472 0.90679199 255 255 255
-319.10483 -444.16101 -1.5170683 255 255 255
879.83435 918.68939 2.1480169 255 255 255
12690.402 2675.9465 12.57527 255 255 255
-715.51086 -2034.8258 -5.5570168 255 255 255
935.29626 657.43195 2.2318835 255 255 255
1724.0587 1300.3746 4.241096 255 255 255
521.33624 1578.5183 2.2427902 255 255 255
-1897.3287 -1755.983 -4.4977584 255 255 255
1561.0676 4198.4424 8.5535364 255 255 255
-596.44073 -400.40683 -1.8991489 255 255 255
-2006.8218 -3705.3853 -5.9327736 255 255 255
620.4704 779.46326 1.7756981 255 255 255
111.92471 248.33104 0.48734066 255 255 255
967.18732 2653.3438 5.0357304 255 255 255
-4862.3604 -16810.594 -25.411665 255 255 255
4623.5132 12522.402 20.420782 255 255 255
408.07999 967.21484 1.7303795 255 255 255
6911.3286 2179.8347 7.6639299 255 255 255
187.40855 385.46048 0.95370114 255 255 255
-490.73526 -2903.866 -5.1722097 255 255 255
-260.74829 -421.03891 -1.4157786 255 255 255
206.14143 332.28085 0.90803403 255 255 255
624.95514 1380.1552 2.14783 255 255 255
-347.7294 -693.55212 -2.104475 255 255 255
541.08978 1114.6523 1.9148955 255 255 255
362.9996 439.47214 1.1522998 255 255 255
342.64926 744.59198 1.4678673 255 255 255
-73.108315 -389.20486 -1.6397413 255 255 255
-1128.6831 -1717.2141 -3.0185325 255 255 255
-811.82941 -1180.7936 -2.3292234 255 255 255
-621.51874 -684.63068 -1.8433759 255 255 255
-300.93253 -405.17099 -1.6761453 255 255 255
323.84805 943.94055 1.643961 255 255 255
-247.08238 -1108.6121 -2.5847406 255 255 255
179.11667 919.57343 1.6228943 255 255 255
657.81628 1608.9393 2.3204117 255 255 255
283.93228 924.08777 1.6077007 255 255 255
369.3212 999.96893 1.7155461 255 255 255
889.97205 1744.2198 2.5141134 255 255 255
1275.3425 1054.7043 2.677161 255 255 255
7529.3975 3402.1702 7.4711447 255 255 255
-1157.4957 -4012.0737 -9.5088243 255 255 255
4684.7568 2277.3943 6.0060515 255 255 255
564.40204 1149.9998 1.9570544 255 255 255
5060.9033 2777.8027 5.9617729 255 255 255
9251.1123 13327.232 22.846777 255 255 255
519.55487 1551.0825 2.2259369 255 255 255
269.05914 497.15482 1.1613687 255 255 255
1159.8809 879.39777 2.5440023 255 255 255
384.55151 610.38367 1.3884575 255 255 255
-11266.453 -20211.492 -36.598133 255 255 255
255.61548 535.45569 1.1885691 255 255 255
-2183.708 -2326.3486 -4.137126 255 255 255
183.88432 404.06213 1.011703 255 255 255
2286.4175 2040.7596 3.7045441 255 255 255
4819.8843 1791.9589 5.2524343 255 255 255
-308.47574 -415.63022 -1.6880713 255 255 255
267.57828 487.66187 1.1495551 255 255 255
8574.4912 4771.3677 8.9882345 255 255 255
7331.144 3342.626 7.3783002 255 255 255
5120.5728 2775.075 6.0305276 255 255 255
266.36823 1094.9208 1.7627263 255 255 255
-1608.0239 -5609.9937 -12.172084 255 255 255
308.76031 738.83435 1.4382421 255 255 255
582.98175 1510.062 2.2203507 255 255 255
-1488.416 -1850.2711 -3.1116552 255 255 255
2196.2588 2003.5365 3.6272881 255 255 255
-671.18445 -666.48029 -1.9127667 255 255 255
462.71115 1411.2446 2.7710137 255 255 255
464.80219 3135.4795 6.9698076 255 255 255
160.241 1189.8282 1.832958 255 255 255
79395.492 247971.86 433.55035 255 255 255
18.405176 306.04031 0.7330814 255 255 255
87.311798 1010.89 1.6522194 255 255 255
202.78291 388.34427 0.62369996 255 255 255
379.76913 1281.3959 1.9636884 255 255 255
1457.213 4159.4536 9.3792486 255 255 255
342.67609 766.95758 1.4877872 255 255 255
-749.59326 -1137.1246 -2.1374705 255 255 255
-1114.2638 -4730.7036 -7.5137858 255 255 255
176.67351 652.35699 1.2693526 255 255 255
15357.609 7101.5146 21.346548 255 255 255
12821.719 12458.047 25.171288 255 255 255
719.10413 1620.364 2.3557703 255 255 255
375.50302 1370.0383 2.0366797 255 255 255
295.24203 526.32233 1.2178181 255 255 255
4436.8047 3315.519 5.2336869 255 255 255
5785.0518 2546.0906 6.8258281 255 255 255
-1081.7505 -2272.1567 -4.584444 255 255 255
-556.93799 -690.03705 -1.8283222 255 255 255
656.65228 1379.728 2.1708632 255 255 255
-658.30005 -3233.6531 -6.2666931 255 255 255
-586.07562 -585.96045 -1.7734965 255 255 255
-412.56866 -320.95209 -1.6066017 255 255 255
45255.188 120883.8 181.33057 255 255 255
228.15898 1011.7669 1.6709962 255 255 255
-496.22919 -613.55518 -1.7137839 255 255 255
296.5892 1497.3389 2.7116051 255 255 255
6642.3491 2807.3167 7.3470035 255 255 255
646.547 1291.0902 1.8410727 255 255 255
-7783.1914 -5954.5996 -14.490503 255 255 255
-941.21027 -1153.2878 -2.3345153 255 255 255
152.29399 327.81824 0.84259695 255 255 255
-14874.788 -36732.332 -58.349239 255 255 255
736.7876 1056.0991 1.2675638 255 255 255
658.73859 1386.6614 2.1762705 255 255 255
6588.6274 2540.6152 7.6077194 255 255 255
2131.4832 894.95929 4.1907191 255 255 255
-1537.0891 -2966.2131 -5.1027842 255 255 255
392.00122 746.93176 1.7592194 255 255 255
-488.50217 -2010.9152 -4.3228927 255 255 255
249.12556 286.67215 0.42729929 255 255 255
2454.3738 1755.8251 3.9423769 255 255 255
782.16785 1909.9401 3.027704 255 255 255
163.3075 495.51724 0.93252015 255 255 255
-829.29413 -2525.9011 -4.7616558 255 255 255
-6389.563 -16388.705 -26.168119 255 255 255
2502.3655 4438.9043 7.9903235 255 255 255
525.25482 1437.3575 2.9894478 255 255 255
4761.4424 2976.6292 5.6092262 255 255 255
-1217.0388 -1272.6591 -3.1624196 255 255 255
1142.2422 2315.6484 3.3080652 255 255 255
-525.76813 -699.20477 -1.7681047 255 255 255
-561.32928 -1463.1804 -3.1859081 255 255 255
4559.6807 12052.01 24.709642 255 255 255
283.80487 601.70233 1.2839917 255 255 255
254.50914 491.5708 1.1412528 255 255 255
886.14728 951.4295 2.1633334 255 255 255
200.93935 407.17538 0.99242246 255 255 255
378.53558 1284.5968 1.9655842 255 255 255
288.20761 604.29486 1.290475 255 255 255
818.32465 1717.7123 2.4644663 255 255 255
-3933.333 -1691.7339 -10.824221 255 255 255
-1198.1873 -3291.0369 -7.1338282 255 255 255
286.22293 1095.9467 1.7689675 255 255 255
910.58905 1042.0143 2.2130139 255 255 255
105.47359 282.16531 0.45839074 255 255 255
-302.09402 -951.685 -2.3924575 255 255 255
1544.2423 1673.1543 3.0082335 255 255 255
23819.098 77521.766 190.6028 255 255 255
-683.98151 -3533.2419 -8.6118488 255 255 255
1748.2605 1434.1267 3.1877177 255 255 255
604.15399 1412.9735 2.3506312 255 255 255
1648.2631 1715.6718 3.0944605 255 255 255
-2744.8774 -10412.092 -19.224789 255 255 255
-964.44147 -1096.6877 -2.3461826 255 255 255
-244.34232 -387.6087 -1.3879217 255 255 255
-51.995556 -329.24777 -1.4792879 255 255 255
-418.93158 -700.6687 -1.6855961 255 255 255
-516.33521 -2051.0398 -4.2630701 255 255 255
566.02673 1455.0002 3.3827226 255 255 255
-3599.4294 -10195.852 -15.791017 255 255 255
-813.80176 -1448.1522 -2.5742865 255 255 255
-797.67358 -925.57861 -2.1185622 255 255 255
562.81042 957.08624 1.8176589 255 255 255
133.32971 282.75586 0.63401484 255 255 255
-410.50964 -588.13342 -2.1303401 255 255 255
45.043064 883.5448 1.5160674 255 255 255
266.19226 1120.0065 1.7857165 255 255 255
19780.084 13850.641 29.641945 255 255 255
471.52631 1445.6438 2.1302028 255 255 255
4978.5054 2829.1936 5.8661361 255 255 255
1506.8857 1576.1674 2.9622788 255 255 255
-673.5929 -1002.0397 -2.0463872 255 255 255
-397.20898 -655.39148 -2.1556318 255 255 255
413.63474 795.14258 2.3241184 255 255 255
548.83496 522.2373 0.70505393 255 255 255
-767.27454 -1105.5704 -2.1971073 255 255 255
275.19186 1827.5132 2.4665949 255 255 255
595.35547 2163.6494 3.4628689 255 255 255
4051.595 2309.7588 5.344079 255 255 255
1000.4379 716.95801 2.3250301 255 255 255
-246.65152 -342.1384 -1.3643268 255 255 255
392.34433 972.7934 1.7071315 255 255 255
748.6239 3186.9993 6.8925781 255 255 255
216.58098 463.17291 0.72621 255 255 255
290.93539 517.30676 1.2040958 255 255 255
238.03993 793.37292 1.5734162 255 255 255
-719.38947 -2525.7708 -5.4524074 255 255 255
-2931.3306 -2646.9927 -4.815691 255 255 255
621.99323 1835.2722 2.747719 255 255 255
-577.09839 -679.26733 -1.7991986 255 255 255
503.8981 1222.1049 1.9437939 255 255 255
110.22672 244.30663 0.49571106 255 255 255
-637.61365 -804.02539 -2.0501018 255 255 255
-463.44992 -1170.391 -2.7971952 255 255 255
1551.8849 1974.1694 3.9831693 255 255 255
2025.2694 2156.2996 3.8408713 255 255 255
637.33624 1404.5635 2.1744361 255 255 255
-516.43237 -1210.9841 -2.6726618 255 255 255
-2589.7817 -1979.9855 -4.0345283 255 255 255
1539.947 1587.4716 2.9946027 255 255 255
205.05763 1253.1163 1.8977232 255 255 255
5996.9023 3673.314 6.2141776 255 255 255
2985.8 6472.4043 8.8113699 255 255 255
-6323.063 -21101.566 -51.80489 255 255 255
-3032.2551 -2941.0225 -7.6276054 255 255 255
602.99567 1330.7075 2.106262 255 255 255
307.46939 923.07208 1.6262717 255 255 255
911.8089 1134.9171 1.611804 255 255 255
-304.43942 -502.14194 -2.0707309 255 255 255
23.691458 1044.7258 1.6912861 255 255 255
-917.72162 -751.91925 -2.9040155 255 255 255
-1785.1421 -3754.7515 -9.6953144 255 255 255
2413.7437 6173.4888 9.0000086 255 255 255
2240.051 5083.4712 9.0211372 255 255 255
-8361.793 -22745.639 -40.106838 255 255 255
446.12689 357.80237 0.58382183 255 255 255
-1224.3867 -1614.6791 -2.8859942 255 255 255
793.18915 1017.7098 1.1166463 255 255 255
-600.12024 -725.26038 -1.8266041 255 255 255
379.77347 1579.6765 2.2102239 255 255 255
-677.46533 -730.52289 -1.933943 255 255 255
-84.887314 -218.58929 -1.5905142 255 255 255
-1088.5006 -1320.8137 -2.5701296 255 255 255
-1386.7821 -1597.978 -2.9245858 255 255 255
856.6994 1567.8008 2.4002967 255 255 255
-1069.9302 -1867.101 -4.0312386 255 255 255
-1785.1752 -576.98822 -3.0700479 255 255 255
-3495.7942 -10903.803 -18.799263 255 255 255
2917.6685 8804.4336 16.425385 255 255 255
-652.92908 -868.07428 -1.9460502 255 255 255
-578.29474 -1934.5164 -4.6883836 255 255 255
31765.691 17519.369 35.920994 255 255 255
176.07455 651.60925 1.2676544 255 255 255
1401.0189 590.96698 1.7448306 255 255 255
264.72992 505.21359 1.1646379 255 255 255
384.94858 979.70062 1.7094362 255 255 255
227.12576 1068.7526 1.7281408 255 255 255
283.51108 604.86908 1.2874875 255 255 255
5095.7104 2767.2708 6.0006728 255 255 255
473.61963 1477.8472 2.1276002 255 255 255
-992.47186 -1424.9257 -2.5249534 255 255 255
208.32593 1118.5195 1.6055523 255 255 255
891.44659 612.92706 2.1653454 255 255 255
936.24371 973.8714 2.2320445 255 255 255
-1061.3511 -1236.4388 -2.5181696 255 255 255
4034.782 2326.7327 5.3187985 255 255 255
5818.9058 3666.988 6.0874319 255 255 255
-1133.483 -5969.48 -12.61629 255 255 255
6619.5605 2796.3818 7.3233485 255 255 255
-1521.8613 -576.74438 -2.5947537 255 255 255
2605.5603 2449.2146 3.9442327 255 255 255
295.15451 409.82257 0.73819649 255 255 255
420.29007 428.04987 1.3126354 255 255 255
285.44363 404.33316 1.0885738 255 255 255
556.77399 2469.9373 4.486414 255 255 255
12775.732 2666.8801 12.659985 255 255 255
-465.00046 -573.50879 -1.6636057 255 255 255
-695.68494 -875.33502 -1.9956616 255 255 255
658.41992 1385.932 2.1749518 255 255 255
87.000214 1009.6506 1.6502033 255 255 255
265.82864 531.37189 1.1932989 255 255 255
727.75653 1119.7341 1.9568902 255 255 255
285.99478 1590.6721 3.0165687 255 255 255
-497.25217 -1684.6354 -3.4158316 255 255 255
194.16786 341.83685 0.50323725 255 255 255
-4582.8062 -3743.165 -7.8600249 255 255 255
1082.3606 1458.9854 2.5257151 255 255 255
928.09625 651.08545 2.2210705 255 255 255
4821.0381 2906.4277 5.6789432 255 255 255
-373.80627 -585.86108 -1.6186786 255 255 255
141.89012 474.32251 1.0335678 255 255 255
734.19507 1683.8292 2.4029317 255 255 255
3933.1362 1041.6981 5.922708 255 255 255
543.14349 962.90912 1.8077586 255 255 255
258.86606 1038.595 1.7061908 255 255 255
111.62212 950.89655 1.5891551 255 255 255
-992.27136 -1233.7371 -2.4118538 255 255 255
2583.7156 1135.255 3.8417106 255 255 255
4427.7524 2390.0525 5.656147 255 255 255
1402.0739 1665.6266 2.8742137 255 255 255
1161.1501 862.7207 2.6646514 255 255 255
268.61728 495.76825 1.1589257 255 255 255
7103.9126 3155.115 7.4047213 255 255 255
-2841.3469 -1566.3401 -4.4446974 255 255 255
1258.1935 1046.7407 2.6553202 255 255 255
224.54536 1059.7247 1.7154984 255 255 255
5902.4321 5980.4521 10.958066 255 255 255
208.78935 1061.1262 1.7164952 255 255 255
399.384 1456.8137 2.2179832 255 255 255
426.13477 2941.5911 5.0584431 255 255 255
-11995.461 -7042.7036 -14.510044 255 255 255
751.96265 1366.5117 2.2189839 255 255 255
3025.8335 2376.7991 4.9125547 255 255 255
57558.434 32255.699 64.837128 255 255 255
248.7012 808.64069 1.4737014 255 255 255
-690.03571 -853.16089 -2.504256 255 255 255
-650.77246 -588.04248 -2.0256164 255 255 255
5062.3945 1646.4664 7.2362938 255 255 255
4637.8188 2284.2803 5.949523 255 255 255
379.61813 1267.0198 1.9519902 255 255 255
-389.69736 -1288.3434 -3.3349471 255 255 255
289.00357 610.35254 1.2981098 255 255 255
12738.677 11928.062 28.235729 255 255 255
282.69461 1219.2604 1.8791727 255 255 255
-8937.8291 -6086.6284 -12.67574 255 255 255
-12800.214 -38306.039 -75.348236 255 255 255
-710.74756 -879.89233 -2.1567819 255 255 255
281.00818 209.25548 0.31982723 255 255 255
-1139.6105 -947.96576 -2.3743973 255 255 255
-735.03912 -1010.7954 -2.0950642 255 255 255
6671.1025 2816.4368 7.3620572 255 255 255
-700.24744 -818.41132 -1.9845884 255 255 255
922.53455 978.79639 2.2150145 255 255 255
359.99384 485.50427 1.2595978 255 255 255
57459.582 94485.688 316.57672 255 255 255
648.30316 893.87628 1.2276369 255 255 255
273.75992 350.38513 1.4141043 255 255 255
24.112816 903.39526 1.5397135 255 255 255
18646.242 17353.783 29.233366 255 255 255
163.88499 1165.1893 1.808148 255 255 255
6098.9136 2562.5444 7.1121168 255 255 255
-1427.8182 -3407.2603 -7.9927206 255 255 255
12633.664 2663.7297 12.5172 255 255 255
133.82411 886.86774 1.5226878 255 255 255
291.08749 517.14661 1.2039473 255 255 255
-1042.3374 -1319.317 -3.4186268 255 255 255
18447.662 11530.962 19.903297 255 255 255
-15358.305 -7088.1758 -17.376381 255 255 255
629.32196 2553.6013 4.3498473 255 255 255
1157.0325 1514.0836 3.1114199 255 255 255
140.87413 913.55371 1.6153854 255 255 255
-1991.0994 -2257.5391 -3.6865785 255 255 255
-2382.282 -1051.7832 -3.8771663 255 255 255
180.7108 656.68671 1.2771927 255 255 255
-635.41168 -1276.8439 -3.0363364 255 255 255
-335.19235 -1340.7849 -3.8003964 255 255 255
108.51172 218.25374 0.35054445 255 255 255
186.74977 384.70145 0.95101315 255 255 255
2457.3313 1757.2391 3.9468598 255 255 255
466.26236 463.51999 0.64556426 255 255 255
-318.8259 -401.6322 -1.7862128 255 255 255
183.78015 412.81262 0.9822523 255 255 255
7999.0898 2523.7903 8.9170122 255 255 255
-2253.658 -1259.9877 -3.5496547 255 255 255
-16686.32 -7034.4009 -18.656389 255 255 255
133.17812 322.18726 0.73937064 255 255 255
-1244.4424 -1698.8912 -2.9200997 255 255 255
227.82565 549.34607 1.1826652 255 255 255
57503.691 40364.406 95.58889 255 255 255
348.22751 1196.2343 1.8804854 255 255 255
3724.7534 2581.6968 4.883162 255 255 255
1547.8678 1604.437 3.0040164 255 255 255
1549.3207 1673.1725 3.0141423 255 255 255
12168.237 16720.621 31.219685 255 255 255
990.30621 3113.4761 6.2996745 255 255 255
492.22513 910.71271 1.5226979 255 255 255
3996.9004 2675.3191 5.0824394 255 255 255
266.37329 872.97205 1.5490626 255 255 255
558.88947 917.08875 1.7886891 255 255 255
337.19196 1195.1313 1.8742826 255 255 255
1581.3745 1696.4739 3.0464494 255 255 255
-1133.1846 -3882.2144 -6.8117771 255 255 255
-2973.7629 -7514.7778 -17.046814 255 255 255
-1108.5267 -3256.5632 -8.4116726 255 255 255
1544.5552 1673.3398 3.0094652 255 255 255
-2037.9803 -501.05655 -3.5120773 255 255 255
4872.8169 2880.499 5.7401338 255 255 255
1640.7222 1296.3217 2.2433636 255 255 255
2107.6184 3580.4578 7.7568712 255 255 255
357.64572 638.05945 1.3836446 255 255 255
-991.88416 -1419.2944 -2.5075972 255 255 255
278.49362 487.52298 1.1670908 255 255 255
183.74162 373.72574 0.93409151 255 255 255
-275.27783 -945.11737 -2.3346796 255 255 255
73.313713 1134.1747 1.7748063 255 255 255
2833.2117 1605.9103 4.44526 255 255 255
704.09039 1262.1295 2.1259723 255 255 255
-685.9801 -2066.7605 -5.2353172 255 255 255
283.96149 923.69537 1.6078885 255 255 255
5791.3247 2548.1416 6.8316417 255 255 255
-525.8219 -1946.4543 -4.7840786 255 255 255
-63346.414 -23535.561 -67.978394 255 255 255
676.42194 1553.1154 2.2942352 255 255 255
-2766.1545 -2002.0254 -6.5865707 255 255 255
6747.7563 2522.0012 7.767488 255 255 255
703.53613 1501.4333 2.273876 255 255 255
8092.8311 2536.2156 9.0041294 255 255 255
221.31078 379.54498 0.67635328 255 255 255
5019.4224 23221.223 37.166386 255 255 255
2546.4807 1219.1716 4.3932786 255 255 255
4188.4165 1318.3663 6.6419086 255 255 255
177.8019 909.06219 1.5518614 255 255 255
975.79871 1843.2864 4.6369953 255 255 255
176.63144 913.27423 1.5589381 255 255 255
-1559.2159 -6237.6538 -11.628345 255 255 255
1195.5786 947.59637 2.3945978 255 255 255
690.49927 1487.5444 2.256861 255 255 255
-417.23364 -1193.2919 -3.0158401 255 255 255
1274.4446 7658.835 14.412297 255 255 255
266.2204 1094.2885 1.7619014 255 255 255
194.11501 390.56973 0.96484023 255 255 255
-117.92928 -121.9056 -1.2717612 255 255 255
202.67482 406.98657 0.99482846 255 255 255
-193.13942 -539.26276 -2.0238836 255 255 255
521.17334 1578.4163 2.2433093 255 255 255
297.36978 614.29669 1.3064194 255 255 255
-298.07394 -465.12973 -1.4718639 255 255 255
298.11923 638.19354 1.3312488 255 255 255
304.0097 703.61273 1.3990213 255 255 255
288.80246 606.40521 1.2950838 255 255 255
283.45053 600.76727 1.2823786 255 255 255
1130.0421 7424.459 15.88716 255 255 255
-1411.1876 -1420.5476 -3.2044306 255 255 255
323.42752 540.75708 1.2622463 255 255 255
-503.09167 -668.03394 -1.7469209 255 255 255
12083.959 6644.4873 12.853401 255 255 255
-482.54633 -631.5697 -1.8236049 255 255 255
-10534.754 -6364.5215 -12.860433 255 255 255
1602.199 1725.8297 2.4638436 255 255 255
-526.04645 -617.0321 -1.767563 255 255 255
6626.7114 2806.2068 7.3185697 255 255 255
1554.8149 1694.135 3.0231073 255 255 255
-2413.052 -7545.7583 -11.441069 255 255 255
608.06738 256.54401 0.73460311 255 255 255
1748.7394 2279.6179 4.8990297 255 255 255
818.29504 1709.8949 2.4613552 255 255 255
474.63293 1355.2592 2.0605941 255 255 255
4684.8682 2276.4995 6.0070639 255 255 255
-8201.8818 -22827.771 -39.338776 255 255 255
-461.9086 -887.08228 -2.4249754 255 255 255
346.72479 602.97076 1.3425226 255 255 255
135.11076 678.50317 1.2815051 255 255 255
18.565577 306.53488 0.73460704 255 255 255
160.29965 1126.552 1.7704487 255 255 255
252.34329 608.70679 1.5964168 255 255 255
143.00775 338.18958 0.84709287 255 255 255
4878.7827 2877.1235 5.7475524 255 255 255
127.18336 919.56799 1.5576117 255 255 255
439.45844 1091.1694 1.8325036 255 255 255
-310.13367 -895.64008 -2.3271859 255 255 255
669.729 2886.512 5.1632066 255 255 255
266.38147 740.90314 1.3986831 255 255 255
1463.079 1179.2003 1.6859303 255 255 255
234.98703 449.80612 1.0755213 255 255 255
774.75159 503.50668 1.9829501 255 255 255
-526.41791 -541.68732 -1.7166283 255 255 255
2291.2832 2043.6093 3.7116728 255 255 255
681.9184 1278.1219 2.120132 255 255 255
6579.2886 2805.0667 7.2764449 255 255 255
666.14178 1284.0339 1.8565668 255 255 255
5012.6079 2809.7297 5.9040365 255 255 255
793.98676 1125.3083 2.3196032 255 255 255
4435.9419 3315.8293 5.2357035 255 255 255
158.89378 756.39935 1.3833851 255 255 255
6056.2046 2565.9197 7.1156301 255 255 255
231.31015 1077.5966 1.7374291 255 255 255
207.41235 1434.3719 2.0618351 255 255 255
513.05908 1568.2161 2.2352762 255 255 255
-1074.7233 -2402.177 -5.468082 255 255 255
-13708.061 -47689.762 -81.045113 255 255 255
676.42328 1408.5588 2.1999724 255 255 255
625.47815 1381.5519 2.1519017 255 255 255
5118.0991 2771.7026 6.0272121 255 255 255
1082.2113 800.88666 2.4446979 255 255 255
593.39923 1366.3802 2.1255498 255 255 255
-981.78162 -3705.2593 -7.1858196 255 255 255
-483.60037 -1557.1453 -3.5518939 255 255 255
255.88936 259.10168 0.33277336 255 255 255
1548.3077 4492.2954 7.1277714 255 255 255
-3374.7402 -12669.879 -27.764523 255 255 255
10564.913 21791.912 47.557583 255 255 255
-1184.2671 -3149.6638 -6.7851596 255 255 255
338.02652 939.59003 1.6486472 255 255 255
-438.30862 -375.21799 -1.5552669 255 255 255
-702.43378 -373.65143 -1.8487738 255 255 255
-1070.7883 -1507.5002 -2.5680139 255 255 255
477.33408 1163.7604 1.911924 255 255 255
4054.2258 2312.4048 5.3413887 255 255 255
270.21634 586.72687 1.2553087 255 255 255
459.49997 255.55197 0.56807226 255 255 255
-297.23599 -900.08008 -2.458832 255 255 255
-891.2334 -2279.8252 -5.3101478 255 255 255
-1256.616 -2618.4224 -5.6872444 255 255 255
-83.849915 -35.283447 -1.088513 255 255 255
-23.354544 -172.29878 -1.2911875 255 255 255
5394.3584 9426.3408 17.163893 255 255 255
24591.062 15932.23 31.39234 255 255 255
2632.8022 1819.46 4.1128225 255 255 255
290.81488 890.87067 1.5776753 255 255 255
543.72723 1585.2214 2.2574441 255 255 255
451.42206 673.29681 1.5119398 255 255 255
-715.93909 -1680.6116 -3.9136479 255 255 255
-2451.5474 -1557.1443 -3.8405557 255 255 255
-693.66791 -1131.23 -2.1191924 255 255 255
227.81177 1297.8162 2.3112881 255 255 255
-774.21521 -967.2179 -2.6618083 255 255 255
155.18852 1333.8937 2.4635673 255 255 255
615.82611 751.15601 1.7560685 255 255 255
-909.61963 -1163.3035 -2.3400481 255 255 255
389.32043 1112.665 1.8252192 255 255 255
400.05777 745.80011 0.88809538 255 255 255
282.02182 424.23373 0.95825362 255 255 255
443.04877 1654.7985 4.2445836 255 255 255
-880.2337 -2060.1091 -4.8513265 255 255 255
-3428.4536 -1253.4979 -5.2739015 255 255 255
5110.936 2884.7205 6.0388141 255 255 255
68.201942 74.190941 0.12867805 255 255 255
50.174149 188.24226 0.52436614 255 255 255
549.47314 926.34296 1.7857345 255 255 255
677.69263 1679.9652 2.3756788 255 255 255
582.15015 469.92493 1.1240553 255 255 255
25.624456 263.27286 0.65823013 255 255 255
-2377.8794 -1671.8328 -3.8310196 255 255 255
725.77869 1824.9199 2.8329489 255 255 255
85.21711 1129.1393 1.7709986 255 255 255
1513.8573 1587.5485 2.974968 255 255 255
251.09938 1281.6819 1.9283019 255 255 255
691.19342 1947.5803 3.0783017 255 255 255
-68945.852 -36993.828 -80.421692 255 255 255
-867.94934 -1585.4205 -3.5703795 255 255 255
6341.2681 2755.3872 7.3600669 255 255 255
-1242.8485 -1561.6588 -2.7876828 255 255 255
-379.15482 -758.89984 -1.9970599 255 255 255
-13291.978 -31794.633 -49.001953 255 255 255
221.92998 576.22632 1.2082249 255 255 255
-616.2124 -850.77179 -1.9339868 255 255 255
-1135.7664 -1188.5365 -2.5864415 255 255 255
-206.96091 -1844.8234 -4.1230187 255 255 255
135.27966 588.24982 0.9835366 255 255 255
572.92438 597.28638 1.0182146 255 255 255
270.80444 488.94647 1.1551073 255 255 255
1578.3284 1611.4879 3.0365329 255 255 255
4048.8103 2307.3772 5.3395634 255 255 255
3561.7344 3187.3381 5.3463244 255 255 255
-1217.2261 -3026.7095 -5.5197568 255 255 255
-166.19484 -913.56171 -2.8959198 255 255 255
7708.4287 7336.2134 14.244439 255 255 255
-827.78192 -1278.2479 -2.3137522 255 255 255
8889.4736 4616.4106 9.4645414 255 255 255
2491.4766 2116.8184 3.8859293 255 255 255
411.28976 434.03644 1.3014628 255 255 255
296.77039 1449.176 2.0868051 255 255 255
-594.55219 -864.1983 -2.0612493 255 255 255
1089.0219 2283.4038 3.5345564 255 255 255
641.4278 382.66544 0.70514512 255 255 255
189.65492 413.38861 0.98919535 255 255 255
35.891174 81.710793 0.19772749 255 255 255
-1943.4307 -2317.3091 -4.9438658 255 255 255
1071.0856 5019.1406 8.6844854 255 255 255
389.73959 1169.7015 1.8730278 255 255 255
115.78072 322.64981 0.80269057 255 255 255
-309.02484 -456.48401 -1.6474351 255 255 255
-313.85422 -483.2641 -1.8106685 255 255 255
37.110958 1085.0302 1.7291551 255 255 255
-922.80847 -2090.0996 -4.6259441 255 255 255
137.95895 974.28845 1.4681203 255 255 255
-508.53296 -280.00153 -1.6805253 255 255 255
256.22433 476.68512 1.1191285 255 255 255
531.43909 1368.1437 2.0694959 255 255 255
-564.09155 -2180.9507 -6.3987141 255 255 255
-300.84271 -545.26239 -1.9977508 255 255 255
-373.37103 -550.33252 -1.5539225 255 255 255
-1243.2261 -3584.7864 -7.6037965 255 255 255
384.91153 609.09503 1.387216 255 255 255
7245.2666 3351.8374 8.6284552 255 255 255
-3379.3784 -2010.3497 -4.8130751 255 255 255
566.60205 1217.5887 1.8788488 255 255 255
663.49969 1437.3773 2.210072 255 255 255
-1372.8585 -1920.7325 -3.1272893 255 255 255
2246.0076 1043.3676 3.1478007 255 255 255
1134.5271 469.81357 1.1150469 255 255 255
-1418.1002 -1443.0319 -2.8823564 255 255 255
4617.3721 3092.3958 5.435492 255 255 255
-443.39252 -737.72772 -1.8313353 255 255 255
-534.94983 -845.33801 -1.9724385 255 255 255
1320.2317 5082.7578 9.3705711 255 255 255
4547.1304 1424.0382 4.9018712 255 255 255
405.01807 524.27509 0.53935146 255 255 255
-6943.8794 -13412.009 -31.574198 255 255 255
328.37021 720.70081 1.43408 255 255 255
592.45386 1373.011 2.1281257 255 255 255
2382.8035 10129.938 19.157406 255 255 255
-826.72345 -1494.2856 -3.4583168 255 255 255
-3428.7483 -2843.0361 -5.33289 255 255 255
1352.0553 3539.1487 7.240891 255 255 255
17943.16 3963.0544 19.207636 255 255 255
-938.00562 -1371.5603 -2.4322295 255 255 255
266.45337 1120.1798 1.7860256 255 255 255
608.25153 1498.8759 2.2219234 255 255 255
-739.26624 -2355.6021 -4.9376392 255 255 255
-785.03088 -1009.9819 -2.1287949 255 255 255
-2404.8123 -2561.9651 -4.5869908 255 255 255
151.33543 1247.6986 1.8857918 255 255 255
15219.621 9336.4473 16.617001 255 255 255
3691.9976 15750.331 33.34024 255 255 255
498.39075 1257.6173 3.1585295 255 255 255
-972.66571 -1061.5928 -2.2998958 255 255 255
-846.69598 -1235.8976 -2.2679143 255 255 255
3905.5857 2392.9771 5.1409974 255 255 255
669.97394 1448.0922 2.2203984 255 255 255
-683.43732 -1373.4609 -3.1961253 255 255 255
583.93817 860.48376 1.9866474 255 255 255
-51.479027 -170.87541 -1.2751256 255 255 255
-2607.8831 -1934.1097 -4.2083592 255 255 255
607.8562 1342.5042 2.1168785 255 255 255
-1403.0255 -7021.6968 -11.747602 255 255 255
390.98904 1328.4456 2.0058775 255 255 255
1272.9318 4045.7585 7.4954295 255 255 255
-1345.9032 -3048.9985 -5.7157702 255 255 255
3978.5474 9649.0186 15.946239 255 255 255
-124.86593 -563.93597 -1.9223237 255 255 255
623.21863 978.73273 0.92565513 255 255 255
717.896 1561.1835 2.3203413 255 255 255
701.89642 1141.5378 2.051857 255 255 255
115.67905 1063.4182 1.7056862 255 255 255
816.86755 1473.6311 2.5280659 255 255 255
164.54205 306.99594 0.81294447 255 255 255
237.1291 1170.6112 1.824495 255 255 255
818.53961 1716.3828 2.4624906 255 255 255
661.96448 1032.6262 1.9522238 255 255 255
-3065.1284 -7405.2007 -16.938944 255 255 255
-332.0878 -456.95584 -1.5719357 255 255 255
3483.9158 11371.15 18.126629 255 255 255
498.5918 1361.558 2.0741339 255 255 255
-80048.094 -308539.03 -657.51489 255 255 255
215.16957 1020.2481 1.6765641 255 255 255
-741.80096 -778.82697 -2.0905957 255 255 255
187.43105 1312.4703 1.9496992 255 255 255
120.97261 90.944885 0.24941929 255 255 255
-210.65111 -903.23584 -2.1640737 255 255 255
-377.31427 -565.6618 -1.6095071 255 255 255
-659.42645 -878.8432 -1.9744347 255 255 255
44.728184 883.74951 1.5162592 255 255 255
-811.24768 -2906.0176 -6.2829833 255 255 255
412.81195 1444.1832 2.108573 255 255 255
480.70142 720.72931 1.4936361 255 255 255
1320.8375 1809.0618 2.6626871 255 255 255
7149.1865 3677.5076 6.9957571 255 255 255
1699.2842 1771.2289 2.5130663 255 255 255
-1611.886 -2482.4221 -3.6297791 255 255 255
26.437439 845.74609 1.4773394 255 255 255
390.29193 1344.6865 2.0196648 255 255 255
-607362.19 -1752431.9 -2654.071 255 255 255
-468.43173 -1551.2734 -3.6943169 255 255 255
-901210.12 -6696318.5 -13212.743 255 255 255
23.40008 1043.8987 1.6896065 255 255 255
-2107.4622 -1966.6533 -4.1788702 255 255 255
-1700.8568 -1875.9573 -4.0567794 255 255 255
6725.1143 3723.2878 6.6887717 255 255 255
1508.6333 1576.7365 2.9641414 255 255 255
374.76404 1003.8887 1.7215579 255 255 255
-3572.2979 -9478.042 -14.940146 255 255 255
767.62103 1434.74 2.2700117 255 255 255
2813.5889 1600.0625 4.4271498 255 255 255
4635.7554 2285.0415 5.9496574 255 255 255
-2007.0917 -798.16083 -3.094187 255 255 255
-467.22995 -565.10327 -1.6558909 255 255 255
6644.2959 2965.5408 7.1679688 255 255 255
6225.5435 1981.2659 8.0916624 255 255 255
35094.582 9168.3066 36.802879 255 255 255
890.74036 612.38513 2.1633844 255 255 255
-1198.2587 -1457.3567 -2.7339542 255 255 255
-877.95392 -1112.9332 -2.3159978 255 255 255
72.486618 192.36589 0.54902565 255 255 255
5474.2085 4042.1936 7.1417189 255 255 255
506056.5 2874612.8 7061.7339 255 255 255
702.11707 1501.4406 2.2724628 255 255 255
-697.7749 -748.00714 -2.0872598 255 255 255
21720.883 69173.75 152.17882 255 255 255
-807.91833 -863.63702 -2.4552245 255 255 255
6567.6587 2802.0962 7.2655301 255 255 255
-321.41034 -423.12964 -1.7331152 255 255 255
4034.8562 2327.7668 5.3212552 255 255 255
4418.3848 2385.7153 5.6460533 255 255 255
186.09457 221.37302 0.58010203 255 255 255
269.31085 447.52423 1.0184941 255 255 255
89.944199 397.25104 0.89805752 255 255 255
2566.1406 1229.3379 4.4279256 255 255 255
133.1619 432.52756 0.54697084 255 255 255
130.49637 1096.2128 1.688471 255 255 255
2284.6025 2038.2489 3.6998792 255 255 255
-695.00177 -730.70593 -1.9437612 255 255 255
531.97784 874.79242 1.7333027 255 255 255
7519.6978 3400.0764 7.4653482 255 255 255
1279.1105 2916.9536 4.4261231 255 255 255
160.01054 1184.9636 1.8272525 255 255 255
-400.02451 -580.31775 -1.5999156 255 255 255
1555.9948 4926.7842 8.2586699 255 255 255
-451.96304 -295.41809 -1.6849282 255 255 255
259.84128 1040.7356 1.7095461 255 255 255
1433.3881 1289.0696 2.8698521 255 255 255
-1138.9545 -947.34125 -2.3734457 255 255 255
-429.41019 -511.70514 -1.7843102 255 255 255
63.496361 117.33987 0.39307439 255 255 255
2770.321 1581.9175 4.3797593 255 255 255
-650.30811 -587.49414 -2.903708 255 255 255
1336.7469 816.58838 1.7281753 255 255 255
-389.3205 -976.35809 -2.4901977 255 255 255
225.70892 399.66031 1.0092176 255 255 255
192.68611 400.63864 0.97571975 255 255 255
1082.1671 1459.2867 2.5262675 255 255 255
-395.76691 -1389.4866 -3.5346508 255 255 255
164.15155 1165.1259 1.8079281 255 255 255
239.65947 577.32062 1.2522783 255 255 255
226.30923 1066.1166 1.7238896 255 255 255
555.98877 1512.6403 2.2112157 255 255 255
6638.6104 2813.7686 7.3345118 255 255 255
349.6972 626.39331 1.3673314 255 255 255
4684.9546 2277.8745 6.0088892 255 255 255
-1601.4136 -1794.2281 -3.1952269 255 255 255
1432.4557 1292.749 2.8682184 255 255 255
-495.64868 -651.42413 -1.714722 255 255 255
1831.213 4274.2695 7.5435529 255 255 255
10408.112 2519.8037 11.037819 255 255 255
408.63318 937.0592 1.6865598 255 255 255
1817.2924 2429.54 3.7469633 255 255 255
86.090088 1010.0257 1.6508086 255 255 255
669.10193 1447.6467 2.2198205 255 255 255
1596.0974 2124.1104 4.5032477 255 255 255
-299.33493 -429.71661 -1.4518272 255 255 255
416.00299 482.7261 0.56014162 255 255 255
170.21986 400.47656 0.89200968 255 255 255
6637.6162 2803.76 7.3451767 255 255 255
1400.0168 1663.2506 2.8689055 255 255 255
-143.18228 -2347.0693 -7.0096545 255 255 255
-4146.6709 -9441.0791 -17.903816 255 255 255
-793.69952 -1598.3262 -5.0938997 255 255 255
142.03607 474.91983 1.0347186 255 255 255
539.56366 1115.5182 1.9147331 255 255 255
5111.9087 2766.9539 6.0224519 255 255 255
22739.922 12133.341 26.307047 255 255 255
4210.376 1926.0714 4.2023568 255 255 255
1509.5028 1583.1993 2.966675 255 255 255
-465.13425 -509.16971 -1.7690637 255 255 255
110.0294 349.19128 0.8362987 255 255 255
208.31796 1060.5402 1.7147843 255 255 255
-2499.0276 -8300.7871 -13.308375 255 255 255
268.04581 437.92706 1.0998765 255 255 255
287.97003 609.09546 1.2952875 255 255 255
147.83217 884.95258 1.5225669 255 255 255
321.20929 1496.2472 2.1280859 255 255 255
-741.86304 -1498.7284 -3.6667943 255 255 255
-336.03317 -1412.731 -3.2223713 255 255 255
12897.996 2676.4524 12.762231 255 255 255
-319.81955 -431.50299 -1.461949 255 255 255
543.12939 1584.0417 2.2552886 255 255 255
-1409.2125 -1418.5531 -3.2006941 255 255 255
474.67636 1355.1155 2.0601094 255 255 255
410.55789 1327.6863 2.0119731 255 255 255
523.18195 1574.2616 2.2398021 255 255 255
12758.067 2660.9998 12.646028 255 255 255
118.43662 201.2966 0.3092052 255 255 255
-1027.6238 -2162.6833 -4.8954635 255 255 255
357.36545 699.54608 1.6293226 255 255 255
-397.11661 -1114.3971 -2.6269646 255 255 255
542.47821 963.13715 1.8064445 255 255 255
-565.4621 -2591.7874 -4.6341052 255 255 255
623.10101 782.3866 1.7815125 255 255 255
74.401192 1128.6182 1.7693671 255 255 255
445.78778 1272.274 2.4119887 255 255 255
-619.26642 -2118.1038 -4.8101516 255 255 255
-75.954323 -72.512924 -1.1641822 255 255 255
175.87874 653.06244 1.269744 255 255 255
-703.85675 -954.80853 -2.0131025 255 255 255
590.05011 1086.9161 1.9293237 255 255 255
-512.28394 -1412.734 -3.3260992 255 255 255
-11850.566 -36865.074 -77.029816 255 255 255
255.95264 536.73743 1.1910661 255 255 255
7297.6333 4978.3994 10.382819 255 255 255
1927.7927 1954.2911 2.4644754 255 255 255
823.0188 2070.9539 3.8384953 255 255 255
-385.37952 -578.4317 -1.5902116 255 255 255
-1344.297 -815.26654 -3.0321207 255 255 255
-880.76855 -914.86353 -2.6074078 255 255 255
-2525.4023 -9143.8496 -13.915325 255 255 255
796.18121 2620.0422 5.2208495 255 255 255
265.58536 506.14987 1.1669016 255 255 255
-789.92792 -1469.2961 -3.3832021 255 255 255
436.87863 988.68109 1.7474047 255 255 255
1025.9 468.87155 2.414855 255 255 255
1316.972 4216.3501 9.6922417 255 255 255
741.48499 945.58087 1.3967714 255 255 255
1614.6073 1332.4612 1.9419504 255 255 255
4943.5127 2834.0457 5.8271723 255 255 255
410.52994 433.11505 1.2988811 255 255 255
419.366 673.47235 0.72334087 255 255 255
-1965.429 -1283.1555 -3.3029096 255 255 255
565.95898 961.05237 1.8253344 255 255 255
1919.9746 4883.3555 7.3525677 255 255 255
2455.3596 1916.9429 3.8932512 255 255 255
926.71802 649.77094 2.217711 255 255 255
391.13309 565.33112 1.3596408 255 255 255
78.857262 920.40601 1.5547611 255 255 255
49.361561 644.26544 1.2307571 255 255 255
2627.3591 1816.6464 4.1038966 255 255 255
1276.4636 1055.7461 2.6801901 255 255 255
-1460.5735 -1905.2631 -3.1587374 255 255 255
4421.5312 2241.6233 5.7587218 255 255 255
45.036995 463.04218 0.98640418 255 255 255
524.93665 632.16455 0.79273915 255 255 255
6108.3086 2569.7151 7.1273003 255 255 255
36.949368 1084.6825 1.7296054 255 255 255
2807.1082 1591.1971 4.4263992 255 255 255
113.75503 1091.5818 1.7343954 255 255 255
1523.9948 2744.0129 4.3557596 255 255 255
-15867.691 -10166.819 -19.399555 255 255 255
1323.104 1502.3425 3.1827018 255 255 255
4869.9126 1782.4865 6.7947426 255 255 255
234.9789 449.58401 1.0752008 255 255 255
-381.26431 -1189.1487 -2.916676 255 255 255
154.59004 1094.114 1.7395695 255 255 255
1069.0708 4042.4492 7.5588789 255 255 255
1255.7318 1949.7396 1.9977431 255 255 255
159.92546 1092.6654 1.7375498 255 255 255
2851.2385 7673.7695 14.36647 255 255 255
-148.32022 -562.46771 -1.9056355 255 255 255
201.09018 492.77896 1.0964319 255 255 255
-466.4317 -1455.4568 -3.7320714 255 255 255
-4350.936 -2835.7666 -7.1338625 255 255 255
516.74597 1969.9004 3.6756508 255 255 255
227.27199 548.22839 1.1806425 255 255 255
591.94617 3384.9409 5.8565607 255 255 255
289.34448 605.39191 1.2931871 255 255 255
865.16589 913.04822 2.1217756 255 255 255
282.99887 601.6524 1.2838355 255 255 255
-3248.8892 -3189.0769 -9.0280676 255 255 255
-1211.7012 -4365.8223 -8.0515366 255 255 255
220.60452 731.17145 1.3783078 255 255 255
-4746.3535 -2821.4622 -6.4293475 255 255 255
-28374.568 -17995.451 -36.308613 255 255 255
638.5578 1130.0895 1.9924612 255 255 255
1523.7299 3668.6565 5.8879461 255 255 255
390.53293 999.02612 1.7262094 255 255 255
1579.2384 1695.1309 3.0438037 255 255 255
4033.7253 1991.6613 4.4189019 255 255 255
-876.28204 -2477.6255 -5.4146361 255 255 255
-2058.0413 -4004.7742 -8.8088293 255 255 255
175.96446 980.24054 1.6279874 255 255 255
150.90063 332.38266 0.84608787 255 255 255
