ply
format ascii 1.0
comment PCL generated
element vertex 1114
property float x
property float y
property float z
property uchar red
property uchar green
property uchar blue
element face 0
element camera 0
property float view_px
property float view_py
property float view_pz
property float x_axisx
property float x_axisy
property float x_axisz
property float y_axisx
property float y_axisy
property float y_axisz
property float z_axisx
property float z_axisy
property float z_axisz
property float focal
property float scalex
property float scaley
property float centerx
property float centery
property int viewportx
property int viewporty
property float k1
property float k2
end_header
245.86755 1278.201 1.8980989 255 255 255
1982.5664 2503.2856 3.583585 255 255 255
406.97327 770.48682 0.82419348 255 255 255
4644.7471 4780.1348 7.6304293 255 255 255
1532.7955 797.08209 1.7478845 255 255 255
14533.246 7999.9951 18.921751 255 255 255
-6964.3032 -4716.3247 -9.6804543 255 255 255
17180.924 8536.3555 21.897661 255 255 255
485.33685 975.48303 1.1998129 255 255 255
17494.91 8611.9375 22.310234 255 255 255
426.47739 830.28705 0.85791463 255 255 255
16525.393 8177.1982 21.203091 255 255 255
-269364.19 -500843.75 -792.92889 255 255 255
17357.842 8534.9502 22.171829 255 255 255
302.23303 745.4375 0.75001806 255 255 255
124562.88 81265.664 170.00093 255 255 255
-4159.3765 -2579.7275 -6.5569377 255 255 255
-4352.7773 -4236.8843 -6.8082099 255 255 255
954.28619 1265.2592 1.6774549 255 255 255
626.79388 751.89429 1.0409179 255 255 255
-46569.562 -25079.639 -62.030605 255 255 255
16588.939 9185.752 20.910694 255 255 255
-3755.5825 -2590.3638 -5.4933014 255 255 255
46.557919 -16728.221 -37.714046 255 255 255
13608.835 10489.355 17.016323 255 255 255
409.11957 1488.3002 2.3499229 255 255 255
344.68942 838.21088 0.87517804 255 255 255
-1502.9454 -1046.4065 -3.0465295 255 255 255
-146.44606 -222.92862 -1.2348264 255 255 255
609.39319 1140.537 1.4333534 255 255 255
357.45184 837.52643 1.0254028 255 255 255
-18.318419 1357.0128 2.0388863 255 255 255
368.74802 846.37921 0.92545217 255 255 255
619.89026 1285.9951 1.5530959 255 255 255
779.11432 1300.8114 1.7137439 255 255 255
511.67035 833.51501 0.96678662 255 255 255
-21138.398 -12617.135 -31.904547 255 255 255
3010.2366 3859.7566 5.4594402 255 255 255
1002.025 1600.5223 2.0611229 255 255 255
806.98041 1496.8026 1.8612822 255 255 255
6966.4702 4900.6948 8.510067 255 255 255
4008.791 2630.0867 4.443193 255 255 255
4587.1919 2251.9688 5.2768178 255 255 255
397891.03 344656.62 570.48737 255 255 255
-3672.7468 -1579.0081 -5.7005024 255 255 255
-1186.7737 -1209.8761 -2.6642308 255 255 255
-2003.0077 -4527.4097 -6.4426928 255 255 255
-1756.7557 -3022.8701 -8.0352936 255 255 255
13978.621 12624.44 22.340145 255 255 255
3430.0835 3487.479 5.8095174 255 255 255
-166.90225 -206.91348 -1.5009094 255 255 255
8122.0537 4420.7012 10.057641 255 255 255
-5227.1362 -5820.6284 -8.8760338 255 255 255
1510.4742 3044.2954 5.2613616 255 255 255
485.7981 1218.2604 1.4096426 255 255 255
21096.271 9193.334 26.621452 255 255 255
206.69235 1992.2861 2.855463 255 255 255
8129.6968 3782.9795 9.4307499 255 255 255
5624.7017 6349.4907 9.8214655 255 255 255
-4656.7271 -2621.3518 -6.181931 255 255 255
469.59378 1258.7217 1.4678861 255 255 255
378.72995 818.71313 0.87179804 255 255 255
349.64853 17662.363 25.557299 255 255 255
-10476.446 -7752.9077 -15.322568 255 255 255
-683.20337 -895.8103 -2.4115684 255 255 255
-3747.4014 -1606.5897 -5.8026443 255 255 255
-598.67792 -565.87396 -1.8692925 255 255 255
740.37738 1042.5591 1.4300381 255 255 255
15066.518 6328.709 18.75613 255 255 255
1293.83 1922.5206 2.3007717 255 255 255
-1403.0796 -1043.7764 -2.9126737 255 255 255
8224.6797 5754.0078 11.704945 255 255 255
-623.19287 -522.02716 -1.8698229 255 255 255
-427748.06 -164342.73 -476.49591 255 255 255
522.40332 921.43585 1.182128 255 255 255
-4255.2656 -2713.6802 -5.9179888 255 255 255
623.81384 1087.4979 1.3372754 255 255 255
358.52386 875.02686 0.9789921 255 255 255
991.6264 1888.855 2.966532 255 255 255
34941.688 45607.598 67.160469 255 255 255
6500.8135 5509.1582 9.5494862 255 255 255
3.7652628 -19032.863 -43.84256 255 255 255
19844.268 9038.9395 25.347551 255 255 255
3636.5415 3967.5022 6.4901757 255 255 255
13501.889 8082.1606 17.254875 255 255 255
865.32404 924.00714 1.4325683 255 255 255
17395.324 10209.217 22.023148 255 255 255
-7712.8901 -5466.6201 -10.62923 255 255 255
395.76077 815.43719 0.9544825 255 255 255
1413.6572 2179.6094 2.8432977 255 255 255
16536.164 9863.665 21.232803 255 255 255
16017.901 8809.9697 20.489616 255 255 255
6736.9229 5491.5083 9.7863483 255 255 255
2780.0667 2083.5657 4.0806074 255 255 255
875.15546 1266.296 1.5814955 255 255 255
7658.0171 3779.2617 10.142222 255 255 255
-607469.56 -232766.5 -678.5954 255 255 255
-1053.004 -1679.6437 -4.3566236 255 255 255
-110.35197 2442.3655 3.4700375 255 255 255
890.72815 1267.7794 1.6073921 255 255 255
1255.2972 2449.8042 4.0027781 255 255 255
587.65411 1347.0514 1.5457054 255 255 255
16429.127 8757.9189 21.078217 255 255 255
15604.282 8410.2363 20.175316 255 255 255
535.04211 1080.9537 1.2835516 255 255 255
3423.407 3013.9355 6.213243 255 255 255
1287.6322 2468.301 5.3867755 255 255 255
3676.3892 4011.3025 6.5448923 255 255 255
6865.7373 5613.0767 9.893671 255 255 255
778.59406 921.6123 1.2982905 255 255 255
-2667871 -663869.88 -4807.1938 255 255 255
1082.3162 1252.0256 1.8415601 255 255 255
14427.825 8232.6719 18.599897 255 255 255
3614.3123 3972.9009 6.4684868 255 255 255
649.51727 1266.1476 1.5757185 255 255 255
16127.423 8649.7373 20.726973 255 255 255
4456.5801 2748.1479 7.5757136 255 255 255
1055.9379 1354.8181 1.8735762 255 255 255
1099.7188 1303.0323 1.8533552 255 255 255
409.67944 1194.3104 1.3172112 255 255 255
15210.642 8245.792 19.692677 255 255 255
3698.6985 4027.0789 6.5592704 255 255 255
889.79834 1182.8552 1.591436 255 255 255
584.06946 1206.1631 1.4587678 255 255 255
531.04846 978.78748 1.2387829 255 255 255
1135.8107 1295.214 1.9048706 255 255 255
-3735.7495 -3819.7812 -6.2486796 255 255 255
-1163.1765 -3160.9045 -5.0263467 255 255 255
-3286.1536 -2826.501 -5.1325159 255 255 255
6831.8164 5554.3872 10.030504 255 255 255
11398.778 6066.3286 14.238485 255 255 255
125010.36 80854.656 166.97473 255 255 255
1131.5182 1940.8167 2.7586982 255 255 255
1119.2596 2561.2639 2.9501569 255 255 255
1727.0155 2132.7532 3.1345694 255 255 255
-990.9776 -1215.0637 -2.4764657 255 255 255
-27554.613 -9981.3232 -35.648731 255 255 255
-733.7804 -1487.5514 -3.0021193 255 255 255
15407.346 8600.3213 19.814997 255 255 255
15970.114 9269.3477 20.123358 255 255 255
103495.88 36200.453 124.355 255 255 255
8847.8799 6245.3491 12.302616 255 255 255
1062.1945 2201.9028 3.5110815 255 255 255
494.51569 959.97388 0.99409068 255 255 255
-865.34961 -609.82147 -2.5196457 255 255 255
84.496033 43909.992 64.346893 255 255 255
442.27747 911.1731 1.0777663 255 255 255
529.98743 792.15881 0.96522325 255 255 255
225.03592 997.95245 1.9883056 255 255 255
-1015.1612 -1210.1675 -2.4691257 255 255 255
431.33298 838.76404 1.0077927 255 255 255
14791.033 8383.585 19.071844 255 255 255
14784.104 8125.019 19.198248 255 255 255
15768.499 8753.0596 20.041332 255 255 255
16036.177 11846.224 19.541647 255 255 255
16099.562 8918.0576 20.463779 255 255 255
15823.669 8763.9482 20.08572 255 255 255
-989.14453 -1060.103 -3.3967428 255 255 255
1119.902 1114.5464 1.775826 255 255 255
654.58136 937.87408 1.1846691 255 255 255
14777.127 8467.1514 19.042782 255 255 255
415.78714 853.1897 0.98666048 255 255 255
698.88367 1152.9188 1.4451602 255 255 255
770.70465 1222.4836 1.4580271 255 255 255
839.71356 973.18524 1.416316 255 255 255
6374.0513 5500.4727 9.8550425 255 255 255
428.73007 915.99042 1.0496264 255 255 255
6806.6748 5495.1499 9.8653641 255 255 255
296.80432 1675.2006 2.6769054 255 255 255
18179.539 8611.1826 23.311182 255 255 255
652.68005 1133.4087 1.4582142 255 255 255
297.19867 1720.9902 2.7183342 255 255 255
5629.083 3112.6682 9.1161537 255 255 255
297.86902 1706.5634 2.7072966 255 255 255
13693.064 8148.1885 17.439842 255 255 255
16681.578 9340.2725 21.048428 255 255 255
89801.57 48763.754 116.26011 255 255 255
6683.564 5511.7686 9.7248878 255 255 255
16308.733 9137.5771 20.561882 255 255 255
291.75919 1687.1713 2.6858342 255 255 255
13059.319 9319.458 17.044113 255 255 255
5008.854 5000.1543 8.0362186 255 255 255
4986.9946 4987.0244 8.01297 255 255 255
10147.768 5809.1675 12.782239 255 255 255
512.02759 1179.417 1.315245 255 255 255
2079.7434 2798.9287 4.7075963 255 255 255
34620.504 18581.572 42.809994 255 255 255
353.80707 782.24384 0.87965399 255 255 255
-118.25586 -245.98048 -1.3419152 255 255 255
4116.1382 23609.549 34.599545 255 255 255
-499.88831 -5096.1748 -11.389177 255 255 255
-2400.6755 -2245.0366 -4.7426467 255 255 255
1594.0592 1822.7876 2.4650774 255 255 255
-369.15958 -385.5585 -1.5069642 255 255 255
264.13806 793.79578 0.88760096 255 255 255
-2548.9329 -4186.2583 -10.800728 255 255 255
-266.12411 -636.81683 -2.2198977 255 255 255
12003.77 6862.458 15.205488 255 255 255
18.768021 1570.7954 2.1435623 255 255 255
13741.683 11028.705 20.801031 255 255 255
-126.21423 1904.5964 2.6261251 255 255 255
-122.37673 -2177.2744 -4.8737192 255 255 255
-146.02513 -222.45314 -1.2341722 255 255 255
-9310.4219 -6371.5522 -12.552735 255 255 255
281.71625 947.12164 0.96687847 255 255 255
7219.6152 10879.774 14.314246 255 255 255
606.25793 798.72528 1.0583558 255 255 255
729.93597 1229.7368 1.5582631 255 255 255
194.87901 -2997.6665 -6.8887029 255 255 255
-684.82416 -925.07147 -2.0227818 255 255 255
321.96564 858.39227 0.95777941 255 255 255
572.37866 1290.7842 1.5049988 255 255 255
9890.8574 11949.111 19.001511 255 255 255
331.34955 3147.1379 6.6239471 255 255 255
423.23264 932.23468 1.0857522 255 255 255
-503142.75 -191737.69 -561.89148 255 255 255
4043.6523 29651.463 40.993484 255 255 255
4228.2744 4615.0542 7.6811852 255 255 255
332.31229 1503.972 2.2561252 255 255 255
3455.4714 4655.438 5.851274 255 255 255
4377.5874 2922.9597 5.0545115 255 255 255
5361.4214 4403.7231 8.439291 255 255 255
8737.9551 6173.5181 12.199067 255 255 255
1917.0378 2007.946 2.6302197 255 255 255
505.38184 1086.2068 1.4248792 255 255 255
16190.087 8955.5898 20.522684 255 255 255
-3422.979 -3300.6382 -5.8725853 255 255 255
1154.2242 1156.1139 1.6816293 255 255 255
-3634.9319 -5576.9355 -9.4309978 255 255 255
3971.5315 4305.0073 6.8972702 255 255 255
1089.8293 2865.2886 3.4351811 255 255 255
581.2829 1399.9618 1.6666974 255 255 255
-841.97003 -338.84995 -2.1228235 255 255 255
36958.57 20131.559 48.084385 255 255 255
7669.2246 7029.1675 10.832775 255 255 255
241.00337 1495.9714 2.1811652 255 255 255
1658.3367 1837.9811 2.2336822 255 255 255
-62.55616 -302.92651 -1.6030731 255 255 255
-2055.5249 81484.07 126.93956 255 255 255
5222.9487 3638.425 6.5933061 255 255 255
-1001.6062 -8313.7002 -16.118057 255 255 255
-40.493004 -768.74835 -2.4705138 255 255 255
1122.7384 -22368.631 -33.892872 255 255 255
-2690.2776 -2443.3372 -4.2879324 255 255 255
-11178.247 -11759.076 -16.447889 255 255 255
-16322.968 -16466.42 -31.190088 255 255 255
-2523.2732 -12309.207 -21.661747 255 255 255
635.19806 2374.6157 3.3779349 255 255 255
107600.67 61026.781 143.63481 255 255 255
5.9353099 -162.92322 -1.342314 255 255 255
3640.2083 5025.584 6.9967275 255 255 255
7764.2173 6981.4385 10.929771 255 255 255
-2504.8706 -6877.7793 -9.7667465 255 255 255
1482086.2 645633.19 1953.9209 255 255 255
27192.598 32739.863 47.728428 255 255 255
1160.7593 1508.3754 2.0558047 255 255 255
-1177.8973 -2058.6323 -5.2017074 255 255 255
-8275.793 -4770.8521 -12.104753 255 255 255
25717.031 11012.754 32.391357 255 255 255
550.4809 945.94385 0.97741663 255 255 255
3213.0432 2713.8301 4.9668193 255 255 255
451.42319 911.58105 1.1156665 255 255 255
-203787.12 -117641.55 -269.98819 255 255 255
684.53778 1363.0836 1.5933014 255 255 255
-1110.3315 -1828.6644 -3.0375333 255 255 255
691.67261 965.72455 1.3128353 255 255 255
11273.113 6569.5386 14.261841 255 255 255
15593.739 11653.483 19.056856 255 255 255
13535.229 10404.024 16.948097 255 255 255
-3564.8369 -4303.8286 -6.3153276 255 255 255
-156.0027 -203.31123 -1.4924793 255 255 255
-25436.266 -23390.068 -41.317543 255 255 255
1893.7166 2338.6709 3.3700624 255 255 255
495.3436 1094.0154 1.3902082 255 255 255
1500.2146 1771.7374 2.3099594 255 255 255
29145.158 10410.806 37.778744 255 255 255
-295.83289 -715.98865 -2.4324999 255 255 255
614.41217 1133.5892 1.2799518 255 255 255
21.551563 544.64093 1.2265352 255 255 255
18942.316 13545.466 23.113602 255 255 255
-98268.609 -75453.539 -137.78864 255 255 255
6926.3257 4156.04 8.224803 255 255 255
483.1759 883.71295 0.87928826 255 255 255
12355.88 7884.7373 18.654396 255 255 255
15832.858 11684.709 19.340374 255 255 255
341.22867 783.84991 0.78410912 255 255 255
238.34552 445.06943 0.55293316 255 255 255
3621.1514 3989.4456 6.4808769 255 255 255
459.85965 772.81543 0.85363877 255 255 255
-106.28286 -164.40355 -1.247979 255 255 255
-104.76468 -149.71399 -1.3478957 255 255 255
7410.4395 5538.7202 10.696441 255 255 255
5726.7075 -76922.93 -118.87808 255 255 255
3894.1367 4625.9219 6.6755166 255 255 255
741.89203 1154.9608 1.4956456 255 255 255
462.24243 876.03906 1.0410925 255 255 255
4635.2148 4772.8228 7.6177945 255 255 255
5005.1714 4674.7334 8.2190132 255 255 255
114.3328 289.59146 0.34743062 255 255 255
998.42651 1271.6082 1.7355471 255 255 255
71.064583 2434.7983 3.650512 255 255 255
-32.702221 1325.9211 1.9893763 255 255 255
365.7027 734.96735 0.77109003 255 255 255
651.99487 975.53046 1.1910917 255 255 255
2919.6758 3249.1216 5.6699162 255 255 255
561.67126 1151.8013 1.3810997 255 255 255
6734.2544 5164.4175 8.3166399 255 255 255
152.24782 2459.2639 4.1835041 255 255 255
284.23792 1294.536 1.9371563 255 255 255
2745.1394 3406.3926 5.0161796 255 255 255
609.28711 1520.9756 1.9795698 255 255 255
513.06201 900.76422 1.1521331 255 255 255
485.48495 986.70245 0.97138691 255 255 255
-39325.824 -21173.072 -53.367523 255 255 255
-338.29834 -906.92059 -3.0143971 255 255 255
1012.2615 2140.7002 3.4453409 255 255 255
11433.379 6677.272 15.493887 255 255 255
-1331.54 -1216.5165 -2.8893135 255 255 255
17.85043 1615.8396 2.5094438 255 255 255
1006.2615 2146.9653 3.4371314 255 255 255
796.5274 1051.9227 1.5281551 255 255 255
-5212.4614 -13128.947 -20.657728 255 255 255
728.27014 1245.6099 2.6174572 255 255 255
1423.2887 1823.8269 2.2754757 255 255 255
-1465.2211 -1089.3749 -2.7252333 255 255 255
438.96625 849.10828 0.91421992 255 255 255
292.85196 856.34918 0.99195611 255 255 255
-965.0365 -2170.9553 -5.3408871 255 255 255
309.93219 1717.9664 2.7126856 255 255 255
-1117.306 -4134.0547 -10.109221 255 255 255
7649.3613 7329.8242 12.798643 255 255 255
-81.410851 -6074.4531 -13.792773 255 255 255
-4973.0522 -3448.0361 -6.9853935 255 255 255
208.36716 2774.9983 3.9634886 255 255 255
-2900.2078 -4378.8857 -7.4066529 255 255 255
-961.66675 -2156.9998 -5.317852 255 255 255
371.66739 8601.4678 15.106323 255 255 255
-732.04596 -2792.2996 -4.891293 255 255 255
3408.7666 3597.0464 6.2329903 255 255 255
1851.4484 2621.3357 3.7223663 255 255 255
-11355.716 -9616.4648 -18.047762 255 255 255
535.60083 1133.2557 1.2075242 255 255 255
5524.5107 3081.1887 8.9771328 255 255 255
14595.95 7035.1694 18.77367 255 255 255
37447.48 12933.842 46.449863 255 255 255
14554.361 8248.5088 18.443701 255 255 255
11.555527 1235.5553 1.7745767 255 255 255
155.92067 272.37753 0.33188406 255 255 255
4610.0645 4894.9243 7.5988374 255 255 255
3506.9067 3586.9585 5.9562898 255 255 255
542.97321 823.54846 0.98595005 255 255 255
973.88342 1195.7643 1.5750363 255 255 255
-9542.0244 -7887.1919 -13.220605 255 255 255
508.0224 979.98419 1.0075314 255 255 255
271.8244 1474.1539 2.2113242 255 255 255
-309.08041 -985.9671 -3.2161295 255 255 255
-67920.875 -30499.627 -91.104301 255 255 255
5109.8438 2133.7678 5.6650982 255 255 255
114.41861 297.22583 0.40227053 255 255 255
-254.52376 -110.63471 -1.3304476 255 255 255
1113.3149 1549.3159 1.8927273 255 255 255
135.37151 1213.2993 2.1867845 255 255 255
1421.4911 1714.9232 2.3532622 255 255 255
-435.9173 -608.71051 -1.8828682 255 255 255
-652.63409 -1760.0892 -2.5632803 255 255 255
1282.218 2254.5791 2.5331066 255 255 255
75.689545 4790.4556 6.9314232 255 255 255
540.33533 903.92334 1.126413 255 255 255
-842.93622 -690.17523 -2.1592579 255 255 255
-53810.355 -42362.352 -68.288971 255 255 255
11401.827 8044.376 16.052334 255 255 255
710.36932 1163.1519 1.3281027 255 255 255
403.14426 975.37341 1.002769 255 255 255
2314.5593 2302.6729 3.6372674 255 255 255
729.80927 2261.7065 2.9531157 255 255 255
9363.6699 4593.7134 11.307917 255 255 255
6748.1865 5500.4736 9.8041439 255 255 255
5582.7212 3085.3552 9.0377636 255 255 255
-3934.9077 -2743.0515 -5.702714 255 255 255
18753.252 9199.207 22.82324 255 255 255
6910.8457 5646.1787 9.9585876 255 255 255
4753.752 5014.6479 7.7544584 255 255 255
6656.9019 5487.1768 9.7834282 255 255 255
-798.97943 -381.07407 -2.0613799 255 255 255
16280.668 8968.9355 20.630312 255 255 255
1605.9497 2657.8801 3.3266466 255 255 255
640.72076 964.38959 1.1929033 255 255 255
209.47809 262.0726 0.35332254 255 255 255
271.03281 464.59738 0.61328059 255 255 255
15460.734 8729.7129 19.644318 255 255 255
296.45959 1674.3737 2.6763597 255 255 255
-3207.3655 -2334.7092 -4.8504095 255 255 255
-3140.844 -3306.9729 -5.5205336 255 255 255
-668.56445 -1216.5229 -2.9779959 255 255 255
4578.2207 4430.5288 7.6749849 255 255 255
483.91202 896.3421 0.88762093 255 255 255
-61.139668 -215.40086 -1.2421985 255 255 255
-24378.234 -16290.767 -35.36771 255 255 255
-6184.9751 -5485.2544 -9.134902 255 255 255
156.0265 -3941.563 -9.1624079 255 255 255
1297.0917 1648.7582 1.9614062 255 255 255
5320.748 2647.6797 8.8580503 255 255 255
1941.8831 2770.1174 3.8158987 255 255 255
-547010.81 -209580.55 -611.22852 255 255 255
361.26358 938.70532 1.1163107 255 255 255
971.92224 1579.3107 2.1179383 255 255 255
5383.2261 4411.5786 8.4775305 255 255 255
-1384.6764 -2824.0789 -4.5874958 255 255 255
31155.768 18795.303 41.317558 255 255 255
15384.767 8678.4209 19.578974 255 255 255
256.98825 448.29367 0.57621419 255 255 255
560.7594 1214.021 1.4040678 255 255 255
2787.5793 6895.6787 9.6603718 255 255 255
7266.4233 5503.1338 10.412813 255 255 255
602.40198 1300.7195 1.5696084 255 255 255
15768.036 11637.936 19.255402 255 255 255
6834.8804 5516.4712 9.9067678 255 255 255
331.85684 1227.4088 1.3701295 255 255 255
1020.2875 2151.7466 3.4524519 255 255 255
476.31693 926.99689 1.1381826 255 255 255
17547.873 8633.168 22.396132 255 255 255
8826.6318 6234.6411 12.270904 255 255 255
-27.350391 -155.70261 -1.3096648 255 255 255
-53.054676 8081.1392 11.845385 255 255 255
8168.918 6187.6689 11.428217 255 255 255
-125.40311 -82.435028 -1.1859965 255 255 255
14934.188 8457.543 19.231356 255 255 255
-3928.625 -2724.0195 -5.7784147 255 255 255
609.91217 1003.1693 1.2692113 255 255 255
1752.8517 3975.2012 7.9376626 255 255 255
379.28995 809.38141 0.94919688 255 255 255
3383.9902 4893.9932 6.6495638 255 255 255
416.24103 894.07605 1.0791992 255 255 255
633.02448 2365.5962 3.3651273 255 255 255
-49.31118 1268.4922 1.8462898 255 255 255
-438.58807 -1115.4722 -2.0490112 255 255 255
358.09479 813.41681 0.91406053 255 255 255
9084.2939 6143.3677 13.052181 255 255 255
-35502.207 -13830.753 -44.968956 255 255 255
375.09534 2679.2866 4.2691636 255 255 255
1660.5455 1782.5361 2.4719803 255 255 255
12786.264 7719.4185 19.146399 255 255 255
4962.3657 2797.2466 5.7113037 255 255 255
1364.52 1808.7516 3.2804739 255 255 255
626.54901 2367.8774 3.3624699 255 255 255
2077.9844 2808.4031 4.7147956 255 255 255
1003.4703 2128.8853 2.4793739 255 255 255
4730.9233 4181.7393 7.7346196 255 255 255
407.89709 745.62378 0.90156108 255 255 255
31552.254 20301.275 41.336227 255 255 255
-239.78372 -131.15587 -1.337618 255 255 255
-210.2635 -293.28775 -1.6475433 255 255 255
6746.0664 5506.8042 9.7956791 255 255 255
8242.1904 9360.8809 15.155479 255 255 255
530.57648 2512.9309 3.7135816 255 255 255
357.69702 1521.6635 2.3055017 255 255 255
14710.577 8398.0215 18.974298 255 255 255
306.46729 1704.507 2.7062852 255 255 255
15714.396 11736.188 19.203541 255 255 255
11924.929 6815.2808 15.103138 255 255 255
1040.4246 780.65466 1.501128 255 255 255
-4866.9995 -4319.4478 -7.414362 255 255 255
-4128.4692 -4299.1978 -6.6251836 255 255 255
8723.6758 6163.3159 12.18001 255 255 255
610.45691 1054.9601 1.3063724 255 255 255
316.54691 751.43713 0.72797102 255 255 255
257.61777 871.69189 1.0075235 255 255 255
475.16418 963.3446 1.1155645 255 255 255
-20331.752 -20609.867 -30.601856 255 255 255
150.25737 1916.6777 2.8157275 255 255 255
-219.25075 -573.55792 -1.9443518 255 255 255
856.0592 1073.0325 1.6230886 255 255 255
2263.9038 2723.6157 3.1860285 255 255 255
67.732262 1254.2499 1.7533931 255 255 255
22804.973 12264.282 34.067112 255 255 255
4756.7832 4828.8564 7.7513032 255 255 255
16638.582 9378.3145 20.746653 255 255 255
5279.3794 2661.0227 8.7920103 255 255 255
5229.4922 2648.23 8.7388172 255 255 255
-3734.4685 -2555.207 -5.537003 255 255 255
663.37244 871.84229 1.1832049 255 255 255
36920.664 20108.08 48.032913 255 255 255
349.39417 929.64764 1.333674 255 255 255
3883.0938 3631.4575 6.2086978 255 255 255
-3763.45 -3317.3489 -5.8032832 255 255 255
150.19904 479.07971 1.254328 255 255 255
-4762.1597 -3366.0178 -6.745111 255 255 255
2084.1326 2805.2402 4.7187796 255 255 255
859.37714 1099.3054 1.4954824 255 255 255
713.01312 925.4115 1.238722 255 255 255
13530.097 8186.5942 17.500582 255 255 255
388.82007 803.47443 0.87826574 255 255 255
-3344.3604 -4407.7612 -8.3415146 255 255 255
470.63028 1432.5189 1.8884966 255 255 255
10964.16 6452.27 16.409271 255 255 255
8693.624 6126.5317 12.124444 255 255 255
363.35928 910.76941 1.0500917 255 255 255
-282.28366 -525.91095 -1.9031909 255 255 255
445.14825 1295.2025 1.4999959 255 255 255
430.15784 1218.2395 1.4049805 255 255 255
1083.405 1292.8506 1.8618505 255 255 255
546.09863 1170.9082 1.0855732 255 255 255
-937561.69 -362935.72 -1045.7845 255 255 255
4373.0029 5184.8823 7.5434155 255 255 255
2965.4985 2989.1172 5.0793777 255 255 255
-451.47559 -301.2421 -1.6114953 255 255 255
-423.95166 -312.22943 -1.598829 255 255 255
10012.52 4792.9546 12.68843 255 255 255
530.14764 897.99921 1.1733793 255 255 255
545.51276 1187.376 1.3976617 255 255 255
296.98001 1705.4755 2.7024322 255 255 255
1184.1713 2360.8835 3.8028758 255 255 255
-811.88574 -2639.9678 -5.7460389 255 255 255
9341.2041 5594.0674 13.075535 255 255 255
8946.4189 7145.1748 13.71939 255 255 255
16701.545 8898.7012 21.456846 255 255 255
4061.8601 4043.9036 6.3936033 255 255 255
30340.338 17161.209 39.679115 255 255 255
15699.018 8453.4014 20.29318 255 255 255
-252.60304 -879.29712 -1.9513807 255 255 255
-1390.0017 -2063.5627 -5.4509172 255 255 255
6134.7769 4086.1494 9.4729538 255 255 255
-136.08949 -2189.2212 -4.9078751 255 255 255
16095.293 8627.8301 20.6896 255 255 255
21003.047 22244.369 36.493172 255 255 255
473.38846 785.66431 0.91170728 255 255 255
-66.576889 -2220.0842 -4.9640017 255 255 255
5573.4795 4019.718 7.6929517 255 255 255
-367.60977 -818.46674 -2.898299 255 255 255
17983.068 8517.1025 23.056969 255 255 255
6637.5371 5437.542 9.6370945 255 255 255
478.65454 1039.3271 1.2312511 255 255 255
151.63463 1366.415 2.0000515 255 255 255
17354.189 10732.261 24.222687 255 255 255
-3309.6357 -2459.0183 -4.9975548 255 255 255
16747.455 8970.7881 21.406467 255 255 255
-1009.178 -1709.0529 -2.8276575 255 255 255
528.3385 994.83447 1.2513409 255 255 255
-36631.266 -15137.081 -47.898159 255 255 255
13196.105 7918.6519 16.995291 255 255 255
629.78149 909.70721 1.1418154 255 255 255
3788.0254 3795.6555 6.6697617 255 255 255
5387.1846 2654.1038 8.9542799 255 255 255
346.85999 1083.4187 1.1881357 255 255 255
15431.678 8374.7031 19.914774 255 255 255
-732.43994 -1487.0458 -3.0018127 255 255 255
7456.2954 5571.0483 10.653536 255 255 255
338.37839 908.58771 1.060307 255 255 255
14664.275 8055.9468 19.081533 255 255 255
13138.169 7948.4595 16.960457 255 255 255
3224.4241 20551.914 40.89399 255 255 255
39.291119 2441.604 3.8613236 255 255 255
4615.5679 4079.238 7.6002297 255 255 255
309.82953 1723.4937 2.7248111 255 255 255
997.55188 2130.5818 3.4243052 255 255 255
150.03825 268.04639 0.33908606 255 255 255
2629.1199 2634.0146 4.1547503 255 255 255
3417.24 3002.4062 6.2010345 255 255 255
15076.688 8284.2432 19.511688 255 255 255
1266.9595 2925.3567 3.3915796 255 255 255
4102.8574 2466.0637 4.5630736 255 255 255
14761.209 8140.1167 19.093903 255 255 255
13755.216 8217.4111 17.501989 255 255 255
687.89697 1180.3491 1.4947085 255 255 255
14182.013 8364.7588 18.341169 255 255 255
-3037.9163 -2070.6211 -5.6561265 255 255 255
3678.6362 4035.7573 6.5442352 255 255 255
105864.72 37018.41 127.21036 255 255 255
15740.916 8670.5312 20.166327 255 255 255
-4185.0122 -4477.1846 -7.0000081 255 255 255
13368.692 8012.7715 17.019724 255 255 255
675.94666 2090.0076 3.2152431 255 255 255
-5211.7344 -13124.386 -20.649218 255 255 255
397.45908 894.94464 1.0276498 255 255 255
409.53122 811.28497 0.83862019 255 255 255
8322.9893 6118.7314 11.568179 255 255 255
534.98999 843.59851 1.0099256 255 255 255
6684.5347 5499.4067 9.7146587 255 255 255
4265.8662 5344.3525 10.057035 255 255 255
162.81639 1233.8098 2.2123535 255 255 255
3665.2124 4021.7295 6.5372562 255 255 255
3622.3713 3989.3853 6.4811349 255 255 255
-169396.75 -204715.3 -300.87927 255 255 255
945.6828 1423.0072 1.5702016 255 255 255
445.83109 1299.2943 1.6584606 255 255 255
741.30859 1251.2307 1.5952184 255 255 255
5013.4297 3250.3999 7.1229572 255 255 255
14247.088 6542.231 19.451872 255 255 255
341.10724 -9732.9453 -15.230099 255 255 255
3710.4775 4040.6143 6.5833559 255 255 255
18676.693 10356.683 23.271513 255 255 255
-1366.8845 -2359.8091 -5.9955673 255 255 255
3602.0435 3948.9604 6.445972 255 255 255
1013.3132 1230.9729 1.7093517 255 255 255
910.95337 1345.8057 1.6735697 255 255 255
567.64447 837.33484 1.0255334 255 255 255
613.93951 1518.498 1.9939038 255 255 255
-612.54492 -1114.71 -2.7686405 255 255 255
1499.4767 2597.8857 3.3543649 255 255 255
9285.1758 10943.533 17.620029 255 255 255
-5421.9912 -22227.924 -31.735044 255 255 255
2717.2361 2661.8616 5.3481169 255 255 255
292.45645 1688.204 2.6886923 255 255 255
20516.93 10964.59 24.982441 255 255 255
4035.6758 3894.8176 6.3268037 255 255 255
532.86328 842.79559 1.0062492 255 255 255
15456.339 8824.1826 19.691242 255 255 255
439.55096 889.19171 1.0574424 255 255 255
9112.9834 62252.094 91.599236 255 255 255
-793.68964 -374.85605 -2.0532975 255 255 255
-1156.4982 -1926.1992 -3.8425508 255 255 255
494.09427 763.06433 0.97198802 255 255 255
-36548.832 -25345.418 -49.071281 255 255 255
389.67163 853.73328 0.96525764 255 255 255
1155.7302 2722.9207 3.0867746 255 255 255
15810.176 8929.5469 20.044708 255 255 255
6252.9351 4775.9414 9.4846344 255 255 255
855.69598 1233.0677 1.5628275 255 255 255
1114.5665 1111.8835 1.7739947 255 255 255
-685561.19 -1275091.9 -2018.1899 255 255 255
628421.19 258008.84 818.95056 255 255 255
902.39001 1280.62 1.6363002 255 255 255
452620.97 250418.98 575.65985 255 255 255
-4624.5234 -2732.3198 -6.9735136 255 255 255
-63359.77 -41487.609 -87.308235 255 255 255
-136.36778 -313.15729 -1.7093014 255 255 255
463.94476 799.5744 0.99333262 255 255 255
21.90275 1712.4696 2.5712922 255 255 255
498.51566 866.06635 0.88685519 255 255 255
-1436.6107 -2154.6951 -5.6477261 255 255 255
906.99902 2062.1841 3.1285784 255 255 255
821.59937 2631.2197 2.8930931 255 255 255
-33353.031 -43303.969 -61.440971 255 255 255
15131.128 19050.225 27.537405 255 255 255
-26521.379 -30185.871 -45.347881 255 255 255
3417.8689 3605.519 6.2495203 255 255 255
10911.869 4688.7817 13.390643 255 255 255
132.07353 1665.8219 3.8932092 255 255 255
788.23236 1548.5839 1.7923689 255 255 255
4267.1245 2429.335 4.6277275 255 255 255
-2712.6023 -2739.7456 -4.9490757 255 255 255
7977.688 10382.947 14.468571 255 255 255
98.801292 2599.6182 4.2331123 255 255 255
212.8515 1998.9718 2.875638 255 255 255
-2158.6335 -3161.9082 -4.3545179 255 255 255
542.61536 1256.9386 1.4515754 255 255 255
702.05664 1071.6407 1.4660515 255 255 255
-161.47252 -224.38492 -1.5167106 255 255 255
1252.687 1319.9858 1.7077932 255 255 255
15329.061 11551.909 18.745834 255 255 255
415.02625 835.71094 0.91294163 255 255 255
-2548.5286 -2525.4575 -4.6008425 255 255 255
-1364.7473 -3193.8816 -4.5811071 255 255 255
5932.4858 2931.7317 6.8959165 255 255 255
677.09589 1295.3406 2.0076776 255 255 255
296.66629 1710.2256 2.7145081 255 255 255
7319.9351 5540.5884 10.491311 255 255 255
1317.5555 1982.624 2.572022 255 255 255
7489.5898 5595.3726 10.703797 255 255 255
438.94052 849.27863 1.0249926 255 255 255
9522.1924 4990.293 11.720484 255 255 255
14409.347 8306.1582 18.631813 255 255 255
15387.312 8312.1973 19.800331 255 255 255
15208.783 8587.9688 19.385958 255 255 255
1998.1562 2089.4717 3.1702631 255 255 255
-554025.25 -213130.25 -618.07495 255 255 255
-269.87207 -678.03979 -2.3196952 255 255 255
-3629.592 -3222.1292 -5.6699963 255 255 255
392.51254 826.36359 0.94626731 255 255 255
7628.5029 5544.0337 10.892125 255 255 255
15796.769 8538.9316 20.369165 255 255 255
-986.85992 -1425.6241 -3.9330058 255 255 255
14613.956 8377.8545 18.900192 255 255 255
18811.588 11101.979 23.911888 255 255 255
821.45923 31022.043 45.374146 255 255 255
2094.7886 2364.5754 3.6592488 255 255 255
498.81357 1165.9252 1.3267587 255 255 255
-23.016422 -5472.4873 -12.574592 255 255 255
14699.71 7857.8271 19.06592 255 255 255
1005.0036 1386.6523 2.4448388 255 255 255
434.93832 889.89984 1.0258081 255 255 255
25843.1 14821.484 33.107716 255 255 255
715.87909 1226.5815 1.5460995 255 255 255
15829.606 8946.0117 20.092066 255 255 255
16219.604 8690.8105 20.86212 255 255 255
5246.8242 2648.5945 8.7286015 255 255 255
12130.552 6928.3921 15.38289 255 255 255
621.73871 1031.2222 1.2647413 255 255 255
15025.837 8535.3037 19.332205 255 255 255
11483.091 14929.931 21.397947 255 255 255
2108.2083 3338.2546 4.1876745 255 255 255
13677.701 8187.998 17.439144 255 255 255
-298.30856 -1973.1136 -3.8248913 255 255 255
13422.054 8133.6733 17.429861 255 255 255
-29697.096 -12405.585 -38.913269 255 255 255
-3566.6174 -3864.5161 -6.1146941 255 255 255
15232.991 8654.79 19.39073 255 255 255
16295.828 9970.835 21.935745 255 255 255
903.83063 963.44586 1.5421627 255 255 255
-821.18866 -2527.1802 -5.6320105 255 255 255
5257.6948 2671.9941 8.7858515 255 255 255
16453.133 9018.5752 20.837717 255 255 255
130047.55 67032.938 172.35022 255 255 255
296.75439 1678.4163 2.683645 255 255 255
2853.1636 3408.6592 5.248168 255 255 255
121134.38 81132.922 161.0706 255 255 255
304.63873 1695.1542 2.7026381 255 255 255
6773.1138 5508.5068 9.8381338 255 255 255
-4086.7673 -2818.322 -5.9078913 255 255 255
-608410.56 -232893.19 -680.10303 255 255 255
44.116058 -2515.3342 -5.7578068 255 255 255
-1160.7467 -3152.9351 -5.0231886 255 255 255
3631.8799 3986.293 6.5009274 255 255 255
37.194794 -1201.8159 -2.7684028 255 255 255
3707.5383 4038.9575 6.5793333 255 255 255
-769634.81 -320984.03 -986.21185 255 255 255
299.51862 441.72879 0.5918538 255 255 255
-4681.3315 -11965.26 -23.994617 255 255 255
16235.436 9411.5156 20.430889 255 255 255
1287.9849 1635.0148 1.9413253 255 255 255
653.6601 1178.34 1.4914457 255 255 255
360.70322 1387.9197 1.6925198 255 255 255
15881.975 9075.3398 20.208101 255 255 255
6672.1079 5486.1084 9.699789 255 255 255
15224.272 8241.1191 19.714624 255 255 255
515.93054 843.9375 1.0424179 255 255 255
3707.1877 4048.6619 6.575655 255 255 255
2998.8564 2510.645 4.5312362 255 255 255
10562.334 4917.2295 14.337778 255 255 255
-6758.8247 -3175.5588 -8.8999662 255 255 255
15014.354 8496.4766 19.332962 255 255 255
14745.952 8356.0645 19.012566 255 255 255
338.84576 2152.0107 3.1285148 255 255 255
5181.1758 2614.0168 8.6738672 255 255 255
-1027.3575 -2619.6782 -4.1498713 255 255 255
-3203.7756 -8215.5801 -16.540724 255 255 255
15331.638 7873.8506 20.574623 255 255 255
104130.15 62004.238 139.43063 255 255 255
1230.5459 2705.9189 3.1251016 255 255 255
2680.5635 2127.4109 4.0252671 255 255 255
778.64868 922.03259 1.2988465 255 255 255
5241.2114 2651.8027 8.7589455 255 255 255
6860.0083 5599.9561 9.8808041 255 255 255
1014.9592 2143.4744 3.4498522 255 255 255
-723.99878 -2243.082 -4.3401046 255 255 255
411.11041 929.16644 0.90508127 255 255 255
-776151.06 -299990.78 -866.00842 255 255 255
27291.389 14995.874 33.725677 255 255 255
160.74004 1235.0376 2.2161245 255 255 255
8884.7988 6261.709 12.356688 255 255 255
-316.74078 -963.65057 -2.096082 255 255 255
1257.1035 2666.1279 3.0671933 255 255 255
13447.878 8139.8716 17.408722 255 255 255
-1624.4664 -3473.0959 -5.5577888 255 255 255
17720.926 9619.5068 22.259159 255 255 255
2070.5962 2460.6855 3.5836468 255 255 255
6125.7578 4076.689 9.4745817 255 255 255
672.58716 1076.864 1.3820996 255 255 255
5332.8081 2645.2554 8.8873396 255 255 255
-431.39346 -298.11905 -1.5826023 255 255 255
15754.27 9002.7314 19.962538 255 255 255
1049.6058 2185.25 3.4914427 255 255 255
101417.12 35439.707 121.84066 255 255 255
15876.252 8534.3906 20.525251 255 255 255
503.28806 1063.0441 1.2113659 255 255 255
172.26468 1471.6022 2.1222823 255 255 255
15040.224 8656.6406 19.143211 255 255 255
4804.6602 3578.9568 7.8651743 255 255 255
10756.005 4090.2646 12.958903 255 255 255
444.49384 773.68359 0.81866527 255 255 255
166.27513 8439.5713 12.008607 255 255 255
-13780.298 -9784.2666 -19.894403 255 255 255
160.85216 -11607.316 -27.056093 255 255 255
-177.83553 -1621.7716 -3.4231865 255 255 255
4971.9595 4239.5635 8.0152388 255 255 255
7531.9058 5508.3252 10.805834 255 255 255
531.11969 1389.3203 1.6842937 255 255 255
608.62207 1303.3004 1.5775856 255 255 255
726.37744 1245.3909 2.6163204 255 255 255
-3493858.8 -4514610.5 -6748.3618 255 255 255
15409.74 11650.847 18.862028 255 255 255
4786.1436 4859.3291 7.8014364 255 255 255
-835.04199 -2415.9771 -4.7559829 255 255 255
-209.47246 -356.22638 -1.8275925 255 255 255
861.58875 1978.4885 2.4363832 255 255 255
-2968.2795 -4047.8647 -5.4728346 255 255 255
529.24023 1432.962 1.7028879 255 255 255
-4570.3325 -2698.9729 -6.9004445 255 255 255
859.83527 1375.504 1.4246399 255 255 255
-1477.5126 -2378.8916 -6.1610827 255 255 255
5416.0576 4438.9429 8.5289946 255 255 255
10822.011 6211.9683 13.689869 255 255 255
-27.989288 -149.50414 -1.249117 255 255 255
-998.82312 -1189.5139 -2.4446898 255 255 255
115.69075 276.95724 0.30879018 255 255 255
-4030.8733 -2651.5496 -5.669301 255 255 255
8820.791 6216.5215 12.312918 255 255 255
6840.4302 5520.5156 9.9201317 255 255 255
268.48438 1377.5967 2.0616581 255 255 255
414.72791 1002.5271 0.96653748 255 255 255
5897.6895 3967.4402 6.9409037 255 255 255
5777.8628 4597.1484 8.9393778 255 255 255
14190.33 7326.7676 18.571209 255 255 255
424.93829 986.82446 0.94634122 255 255 255
-1202.8811 -1657.271 -3.4346423 255 255 255
469.61713 1086.6261 1.1911188 255 255 255
12715.229 9180.8594 16.258177 255 255 255
-133.76712 -69.018929 -1.1829728 255 255 255
11689.506 12536.745 20.922169 255 255 255
54191.5 21853.678 69.032959 255 255 255
142.87518 296.30249 0.40668759 255 255 255
26863.994 11610.819 33.20668 255 255 255
-291.78741 -3254.6177 -7.4917469 255 255 255
30786.072 15729.781 36.628315 255 255 255
707.85052 2606.9546 3.0162401 255 255 255
-98.212509 -2029.0952 -4.6695685 255 255 255
129.87161 3546.3682 5.5797606 255 255 255
4732.7876 4183.0054 7.738215 255 255 255
-8824.8633 -6397.1577 -12.146674 255 255 255
-448.74155 -1532.4573 -4.3846211 255 255 255
391.33664 946.77045 1.1412234 255 255 255
7336.5396 5220.6567 10.46268 255 255 255
558.88428 1255.6986 1.4474485 255 255 255
4752.1904 5014.7471 7.7596669 255 255 255
7248.5977 6058.3135 11.452729 255 255 255
-348.94363 -777.54712 -1.7365994 255 255 255
9643.6162 65974.43 97.146591 255 255 255
6169.2676 5539.4731 9.2933483 255 255 255
2085.4146 2561.5476 3.709821 255 255 255
2245.3909 2082.2419 3.5492792 255 255 255
534.47754 1347.7382 1.8864263 255 255 255
2971.0352 2298.2573 3.6900406 255 255 255
-23043.986 -15135.6 -33.334747 255 255 255
-90.883034 -1066.4934 -2.4407065 255 255 255
908.90747 1030.1521 1.5358883 255 255 255
1012.1769 1455.1598 2.0494318 255 255 255
6147.7446 4733.3403 9.3508053 255 255 255
-9970.7852 -10341.075 -17.126102 255 255 255
2683.3684 2598.6106 4.3556199 255 255 255
554.48547 874.40485 1.0578681 255 255 255
1016.1058 2273.7651 2.4189808 255 255 255
429.17535 887.39893 0.90469182 255 255 255
4603.4692 4453.4604 7.7203112 255 255 255
3445.3384 11675.891 17.825161 255 255 255
976.46851 774.11676 1.3956274 255 255 255
-506.43509 -1166.5286 -2.0803697 255 255 255
-141.3149 7227.4141 10.272902 255 255 255
15767.182 11633.327 19.265062 255 255 255
1984.1893 1587.4738 2.3293939 255 255 255
-212.54593 -372.94016 -1.8530234 255 255 255
-74.298271 -285.92285 -1.5375391 255 255 255
5191.1118 5204.6626 8.2418623 255 255 255
552.52844 930.12396 1.232862 255 255 255
2734.3901 2677.1116 5.3835807 255 255 255
15902.169 8756.623 20.377024 255 255 255
135.08876 1212.8002 2.1903908 255 255 255
421.78561 700.47131 0.76438099 255 255 255
9581.0527 3744.5103 11.667347 255 255 255
1448.8722 2057.3354 2.512912 255 255 255
16442.375 8831.8682 21.013826 255 255 255
-785.95282 -344.96799 -2.0205412 255 255 255
4722.1733 5070.8267 7.7549963 255 255 255
12991.035 6609.9287 17.996027 255 255 255
9362.7793 7032.4453 12.684829 255 255 255
-34525.137 -27285.209 -48.070068 255 255 255
18349.752 20750.57 33.012508 255 255 255
552.34723 950.45593 1.0628661 255 255 255
2644.1155 2418.0276 4.3132815 255 255 255
357.69418 916.09863 0.85044813 255 255 255
362.12863 857.77704 1.0042455 255 255 255
388.64398 803.26642 0.87788212 255 255 255
694.87097 2277.8296 2.5921888 255 255 255
156.9277 513.47577 1.3905226 255 255 255
-2866.9871 -3442.603 -6.2164555 255 255 255
779.53961 2021.556 2.4674158 255 255 255
412.21219 936.04895 1.1137375 255 255 255
-4750.3521 -4218.0322 -6.9388461 255 255 255
-142.42116 -189.63286 -1.4000126 255 255 255
10852.528 9989.7227 13.685269 255 255 255
698.00391 2265.843 2.6008 255 255 255
6179.6924 5710.6572 9.2683268 255 255 255
4613.1313 4895.312 7.605413 255 255 255
410.2674 1116.9996 1.2762383 255 255 255
230.25179 2147.7603 3.1227121 255 255 255
23451.898 6798.2305 29.909441 255 255 255
9235.3701 101082.84 193.96558 255 255 255
977.65619 1999.8575 3.0740232 255 255 255
-4031.395 -2584.0669 -6.8963146 255 255 255
-7534.8711 -11309.598 -26.850058 255 255 255
-191.65126 -386.69455 -1.6570426 255 255 255
-103.81276 6758.4385 9.7996006 255 255 255
-4686.3555 -3287.7532 -6.5996652 255 255 255
1061.1034 2675.623 3.2351232 255 255 255
18169.957 11422.774 23.643257 255 255 255
9232.5908 4341.1875 11.794942 255 255 255
651.33356 3703.4753 5.8608861 255 255 255
4728.4683 3304.1838 5.7002072 255 255 255
452.49506 925.01245 1.1229775 255 255 255
-15.624419 -2638.7507 -4.9821138 255 255 255
-1366.5775 -2468.0837 -3.4737062 255 255 255
452.99438 1035.53 1.0747377 255 255 255
1019.5441 2151.9187 3.4588177 255 255 255
15450.301 8300.4209 19.942436 255 255 255
12291.097 7306.9146 15.682686 255 255 255
16303.194 8760.2383 20.832502 255 255 255
5422.4424 2722.8472 9.0073023 255 255 255
5153.9194 2601.2974 8.6188402 255 255 255
-11337.622 -6966.2495 -15.600276 255 255 255
5451.2593 2708.0376 9.0424442 255 255 255
6028.5776 7377.1875 10.256808 255 255 255
2648.9202 2258.812 3.9595411 255 255 255
5351.1885 2656.5515 8.8949575 255 255 255
224.37508 2026.5802 3.2361705 255 255 255
15603.265 8442.4336 20.113886 255 255 255
583.45837 1108.2828 1.1803875 255 255 255
799.97363 1188.8556 1.645174 255 255 255
6155.4355 5534.0376 9.2761745 255 255 255
811.07385 489.7594 1.1427013 255 255 255
6696.9316 5473.9814 9.7265606 255 255 255
-31.6565 -149.09785 -1.2529229 255 255 255
-993.93207 -1243.1714 -2.5269821 255 255 255
15213.597 8353.8604 19.729465 255 255 255
4949.0728 3955.3733 8.0313892 255 255 255
363.65717 850.42151 0.96236384 255 255 255
13785.996 8261.4561 17.626295 255 255 255
42424.32 16131.663 53.709972 255 255 255
-404753.81 -154715.89 -450.59201 255 255 255
5427.1323 4861.7559 8.9144592 255 255 255
-4174.355 -2654.8271 -5.8836932 255 255 255
-4443.8081 -4346.877 -7.3641558 255 255 255
575.80316 1028.3644 1.3752205 255 255 255
431.42914 876.07941 1.0449271 255 255 255
-54.45137 -241.28369 -1.5790695 255 255 255
-125.68666 -727.33673 -2.3529067 255 255 255
385.40964 795.45599 0.92461944 255 255 255
899.32245 2038.5798 2.3366511 255 255 255
5986.4219 4314.0181 9.2125092 255 255 255
146.81166 265.21533 0.32393709 255 255 255
13688.394 7854.1514 17.195894 255 255 255
58059.648 23763.252 74.539948 255 255 255
885.32373 1998.0795 3.1237082 255 255 255
895.32532 1295.697 1.623107 255 255 255
-3669.2178 -2595.355 -5.2879858 255 255 255
869.34711 1210.7527 1.6588818 255 255 255
37478.465 19396.016 51.852741 255 255 255
-736.35266 -938.33618 -2.7546659 255 255 255
970.09125 1006.7735 1.6518427 255 255 255
9928.5391 5576.7871 12.416766 255 255 255
-4149.1025 -2825.3469 -6.0911994 255 255 255
83.52652 702.07013 1.5639553 255 255 255
16358.06 9047.6973 20.6136 255 255 255
1953.152 2073.4353 3.1338513 255 255 255
453.24142 966.84631 1.1408914 255 255 255
100.73183 -4182.3052 -9.6949787 255 255 255
8830.7852 6238.6279 12.281319 255 255 255
4743.8149 4193.9478 7.7546473 255 255 255
5438.6592 4586.8008 8.5226326 255 255 255
7283.8228 5524.7686 10.443917 255 255 255
17036.064 9382.4121 21.289835 255 255 255
-80309 -87139.492 -150.82065 255 255 255
453.23914 955.32721 0.9789871 255 255 255
13293.002 8052.3179 17.299166 255 255 255
-1837297.1 -710730.88 -2052.9307 255 255 255
394.1701 851.56464 1.0063668 255 255 255
7271.0903 6076.7871 11.484532 255 255 255
13269.109 8043.0571 17.224531 255 255 255
6003.917 6253.457 9.8317471 255 255 255
7663.3242 5563.2285 10.931726 255 255 255
603.04706 985.93182 1.2182165 255 255 255
113.35166 1824.5707 2.661916 255 255 255
-112.14835 -226.75235 -1.2914788 255 255 255
-3498.9595 -2845.9236 -5.1144276 255 255 255
15661.545 8859.7764 19.880556 255 255 255
429.57315 896.34308 1.0360836 255 255 255
1731.7375 2562.9409 3.5573199 255 255 255
-3386.9319 -2669.9043 -5.9184718 255 255 255
-413.63116 -851.06592 -2.1097736 255 255 255
8240.2666 6066.8066 11.460116 255 255 255
14374.718 6615.6465 19.630188 255 255 255
442.29233 1272.2349 1.9595548 255 255 255
1276.8346 2537.3054 2.9684982 255 255 255
3386.6033 2982.0815 6.1538997 255 255 255
302.93866 1300.5974 1.9280976 255 255 255
2728.5186 2673.3481 5.3675923 255 255 255
1068.2922 2220.5588 3.5340011 255 255 255
-798161.31 -305352.97 -892.01282 255 255 255
553.27539 892.18335 1.1278549 255 255 255
987.35492 1969.5771 2.3044105 255 255 255
7517.8047 5465.0332 10.76882 255 255 255
-37315.504 -21762.91 -50.072868 255 255 255
1230.6886 3057.4612 3.688087 255 255 255
-339.85373 -673.20618 -2.4188457 255 255 255
-5643.6553 -4966.499 -8.3572254 255 255 255
-2679.5627 -4702.6421 -7.6292753 255 255 255
-3997.0881 -4097.6255 -6.2849565 255 255 255
4990.5342 5281.6807 8.0074377 255 255 255
6684.5996 5485.6279 9.714262 255 255 255
4679.8198 5095.5127 7.7280645 255 255 255
307.8772 1719.5292 2.7189302 255 255 255
6087.5688 4402.3032 9.3444529 255 255 255
1426.8929 1808.7837 3.3653777 255 255 255
18203.875 8613.2734 23.324644 255 255 255
4734.1133 4996.9331 7.7297654 255 255 255
7325.2305 5926.9839 10.375973 255 255 255
4600.332 4884.0371 7.5831099 255 255 255
16350.797 8960.3154 20.753895 255 255 255
-4240.0483 -3384.2886 -6.3477788 255 255 255
-461.07993 -2030.6318 -3.8587325 255 255 255
-201.5162 -1023.6416 -2.5740335 255 255 255
1277.4199 13099.248 18.681658 255 255 255
15868.946 8938.3916 20.08378 255 255 255
-42965.254 -27832.062 -58.083946 255 255 255
-75.838463 -1825.6274 -4.2306733 255 255 255
6020.4878 5738.5771 9.1254568 255 255 255
787.11975 1297.7242 1.5956533 255 255 255
5134.7188 5158.7407 8.1562443 255 255 255
5067.4961 5129.8071 8.1130266 255 255 255
1830.517 1921.9313 2.8362236 255 255 255
16071.763 11875.559 19.58469 255 255 255
941.66504 1857.7362 2.304075 255 255 255
298.16559 1715.0692 2.7076886 255 255 255
15893.303 11731.882 19.423311 255 255 255
4626.5449 4773.0493 7.6084743 255 255 255
1917.4259 3194.0706 4.2779679 255 255 255
4764.7441 4841.2715 7.7642441 255 255 255
22775.416 30632.541 43.735672 255 255 255
4636.9263 4761.8159 7.630424 255 255 255
17181.137 9647.4756 21.450533 255 255 255
32184.584 33831.043 56.618481 255 255 255
4827.6421 3597.5068 7.8973989 255 255 255
879.0863 1265.2096 1.6109154 255 255 255
-102278.33 -56047.742 -137.22635 255 255 255
6093.5034 5651.0415 9.2154875 255 255 255
776.24927 1199.1455 1.6248428 255 255 255
4335.6489 4155.4761 6.6370053 255 255 255
1047.1816 1926.5873 2.3218217 255 255 255
16611.891 15097.841 21.212004 255 255 255
6844.9717 5592.79 9.861083 255 255 255
427.48187 1118.337 1.4452062 255 255 255
-5240.811 -32515.42 -48.141857 255 255 255
3694.73 4027.2483 6.5551991 255 255 255
350.61984 801.37775 0.76986617 255 255 255
295.53134 1710.681 2.7140026 255 255 255
51456.66 23091.801 66.873306 255 255 255
-3569.4126 -1981.6317 -4.9507298 255 255 255
18167.578 8528.7324 23.452412 255 255 255
82104.562 43633.504 105.64059 255 255 255
-446.30508 -1104.2972 -2.3703759 255 255 255
-5633.3301 -4538.3809 -8.6282911 255 255 255
6747.605 5490.0532 9.7984533 255 255 255
1427.91 2925.1775 3.4626055 255 255 255
14720.981 9743.8398 18.36982 255 255 255
-28.161119 1795.9918 2.5002205 255 255 255
303.1076 1688.3567 2.6894209 255 255 255
292.54135 1685.0907 2.6833968 255 255 255
16204.306 8970.876 20.266562 255 255 255
98679.742 34502.262 118.5309 255 255 255
-689763 -265458.97 -769.02649 255 255 255
5242.3379 2664.3174 8.7563953 255 255 255
4671.6758 5021.9775 7.6681495 255 255 255
-5606.0952 -13556.91 -21.362854 255 255 255
14389.777 8195.9922 18.549177 255 255 255
1018.8434 1017.033 1.7212402 255 255 255
5969.1484 5671.4575 9.0440521 255 255 255
5935.5435 5540.832 8.9838333 255 255 255
751.93622 1290.7777 1.6049006 255 255 255
-3323.7522 -2419.7561 -4.930737 255 255 255
456.71066 868.8009 1.0475243 255 255 255
1804.2063 2685.4199 3.2657621 255 255 255
12844.553 7817.189 16.647484 255 255 255
-681.41486 -949.91278 -2.0622027 255 255 255
1071.5068 1680.3365 1.9849939 255 255 255
-7102.4077 -4117.2617 -9.5658007 255 255 255
8019.3896 4107.9336 9.5947065 255 255 255
943.40637 1157.0208 1.6944654 255 255 255
15422.356 8361.5059 19.995226 255 255 255
260.65427 396.58618 0.41886947 255 255 255
5925.5781 3979.5339 6.9711747 255 255 255
647.79968 2378.4565 3.5760727 255 255 255
628.77075 1197.4336 1.5686541 255 255 255
-703.48944 -1424.9022 -2.3858259 255 255 255
4575.7383 4888.1675 7.5573177 255 255 255
82.263214 666.81494 1.5194771 255 255 255
14159.146 8284.0029 18.036184 255 255 255
609.0791 1231.0309 1.4293516 255 255 255
4134.3721 4172.6104 6.4700532 255 255 255
409.95322 1204.1564 1.3375202 255 255 255
353.17963 2468.5554 3.5779707 255 255 255
-3170.6592 -2786.1965 -5.0544181 255 255 255
993.01343 2121.7368 3.407588 255 255 255
-155.20782 -5684.9668 -12.887274 255 255 255
4117.6636 4190.3672 6.4644313 255 255 255
14452.524 8309.0947 18.581728 255 255 255
701.25922 1011.4606 1.2000591 255 255 255
604.62671 871.8269 1.0982281 255 255 255
401.81558 844.52386 0.97971791 255 255 255
8303.4551 5819.3677 11.809786 255 255 255
642.81586 1126.6206 1.5953878 255 255 255
-381.41406 -1148.074 -2.5905225 255 255 255
-1675.6649 -3570.5022 -5.7117543 255 255 255
17935.145 9783.0527 22.497971 255 255 255
38.208538 2688.0525 5.1248035 255 255 255
-90734.422 -91089.641 -131.10214 255 255 255
16010.751 11606.179 19.56229 255 255 255
-701.89355 -1360.3021 -2.4619656 255 255 255
-38.826416 1513.8578 2.330368 255 255 255
627.4397 2372.6311 3.3693855 255 255 255
5133 5190.9058 8.1551676 255 255 255
9756.1582 6630.4756 12.400436 255 255 255
1029.731 805.08179 1.4945576 255 255 255
282.81723 858.61707 0.95280045 255 255 255
1874.0973 2842.9631 3.4803896 255 255 255
-2028.6525 -3562.3057 -5.6037893 255 255 255
-437.08597 10817.942 24.384966 255 255 255
