ply
format ascii 1.0
comment PCL generated
element vertex 1111
property float x
property float y
property float z
property uchar red
property uchar green
property uchar blue
element face 0
element camera 0
property float view_px
property float view_py
property float view_pz
property float x_axisx
property float x_axisy
property float x_axisz
property float y_axisx
property float y_axisy
property float y_axisz
property float z_axisx
property float z_axisy
property float z_axisz
property float focal
property float scalex
property float scaley
property float centerx
property float centery
property int viewportx
property int viewporty
property float k1
property float k2
end_header
1974.5127 1606.7817 3.5390298 255 255 255
494.33694 788.41888 1.2817688 255 255 255
-817.24957 -183.46608 -1.8886342 255 255 255
-505.86392 -323.85233 -1.7729907 255 255 255
1501.9872 1317.9568 2.9284513 255 255 255
1469.1609 256.03629 1.7039334 255 255 255
-862.19385 -902.72461 -2.8923185 255 255 255
-791.35797 -231.3107 -2.5987666 255 255 255
1942.1036 1525.475 3.5401297 255 255 255
1891.4818 865.92944 4.2950592 255 255 255
2075.1475 2102.3389 5.7645674 255 255 255
410.93002 175.61456 0.52156091 255 255 255
839.93433 336.29553 0.99467874 255 255 255
757.51477 831.95135 1.6136714 255 255 255
4131.0386 1619.9495 7.4742699 255 255 255
658.37225 189.01915 0.82492268 255 255 255
5528.8198 3055.2188 8.4424133 255 255 255
1051.6365 741.01941 2.7816975 255 255 255
1452.0176 1326.897 2.8749061 255 255 255
-5329.0571 -3392.7053 -14.324638 255 255 255
-39580.145 -47241.18 -95.524284 255 255 255
1443.9509 1321.1382 2.8624074 255 255 255
-3199.7207 -570.64996 -7.046988 255 255 255
5227.4131 4474.98 17.146492 255 255 255
493.57526 441.11121 1.5882332 255 255 255
641.90991 632.39294 1.3297369 255 255 255
3017.0913 1697.0087 5.0497298 255 255 255
1772.4174 985.14862 3.7757819 255 255 255
1258.8561 855.5647 2.8612349 255 255 255
8884.4033 4368.103 9.5597229 255 255 255
1020.442 1092.5132 2.6321259 255 255 255
-1443.4158 -2183.1409 -3.6998503 255 255 255
577.36145 696.30469 1.3675455 255 255 255
3945.4585 2830.4365 5.1939836 255 255 255
1398.7667 1571.3352 2.7110372 255 255 255
-854.84259 -1188.1821 -4.8699136 255 255 255
394.46567 410.59113 0.81942421 255 255 255
1299.5983 1153.4514 2.7370191 255 255 255
711.75629 939.05145 1.8961537 255 255 255
945.43811 697.03583 1.8449165 255 255 255
673.15759 544.53845 1.3633929 255 255 255
1808.8964 1486.5596 3.3592503 255 255 255
3486.5146 1701.4508 5.8434405 255 255 255
1582.464 1403.0665 3.0647964 255 255 255
1452.8154 1323.6041 2.8786159 255 255 255
-1327.6769 -1306.0619 -3.1435623 255 255 255
-2709.5247 -1492.1646 -6.5967803 255 255 255
3383.3621 2068.0015 5.2361736 255 255 255
-617.87903 -605.92383 -1.9798635 255 255 255
-788.01971 -549.42358 -2.0636246 255 255 255
-4639.605 -2758.5427 -12.664423 255 255 255
-6605.4106 -5471.3315 -9.0960798 255 255 255
1483.6437 1091.6646 3.0741162 255 255 255
-353.97443 -406.7894 -1.8648454 255 255 255
413.62814 766.70697 1.4506996 255 255 255
1500.2949 1346.2052 2.934757 255 255 255
1105.6248 1577.5466 2.4556179 255 255 255
-400.742 -709.43304 -2.6687019 255 255 255
1239.5591 869.53693 2.8114195 255 255 255
3003.8818 1706.6111 5.350256 255 255 255
1483.3762 1343.0543 2.9122779 255 255 255
1573.2332 1374.735 3.1298316 255 255 255
759.00067 834.11981 1.6171185 255 255 255
13294.271 8291.1152 33.648426 255 255 255
-56.251709 -88.103798 -1.1797485 255 255 255
610.74268 1042.8972 1.8062838 255 255 255
1881.174 1551.4225 3.4974356 255 255 255
-876.11725 -594.32111 -3.0670896 255 255 255
1199.0753 1050.577 2.1330767 255 255 255
1080.1191 830.75519 2.5639338 255 255 255
-753.40479 -1268.4923 -3.3847175 255 255 255
1819.2582 1495.7166 3.3811004 255 255 255
1235.6543 895.49878 2.2519171 255 255 255
-243.26123 -226.59175 -1.6836169 255 255 255
741.29498 453.15088 1.2747712 255 255 255
546.11285 817.59918 1.6353253 255 255 255
-425.94028 -839.37158 -2.707597 255 255 255
6696.2856 4589.7041 15.070134 255 255 255
969.0835 839.73499 2.308042 255 255 255
1713.255 1173.3853 2.3828971 255 255 255
214.27907 193.774 0.63809198 255 255 255
-79075.945 -76577.5 -245.401 255 255 255
2928.7258 2008.1285 6.7184138 255 255 255
1668.7009 572.39398 4.9276438 255 255 255
-10984.492 -5867.541 -14.365531 255 255 255
3625.45 5105.7607 8.9636459 255 255 255
3602.0508 1747.6405 6.0008626 255 255 255
-3142.7817 -2036.2871 -11.411361 255 255 255
473.03421 1200.7886 1.7522556 255 255 255
-843.28229 -1245.551 -4.6594281 255 255 255
17317.723 25485.295 45.767197 255 255 255
2263.9087 902.07806 5.1747761 255 255 255
561.90375 763.3454 1.4018526 255 255 255
2068.1655 1744.1785 3.9599707 255 255 255
-2387.0989 -779.58405 -7.6914153 255 255 255
-442.2926 -493.09509 -2.0272744 255 255 255
-781.26813 -264.50058 -2.1777966 255 255 255
827.62659 1062.7057 2.7648008 255 255 255
-6693.7402 -5979.7686 -13.277059 255 255 255
-2659.6013 -2073.7432 -4.4687247 255 255 255
-670.97363 -476.23709 -2.678575 255 255 255
3618.199 2366.6846 8.3216639 255 255 255
125.53056 334.26117 0.76241827 255 255 255
-1992.4037 -1299.172 -5.5098252 255 255 255
6142.6606 2986.0081 8.0818787 255 255 255
667.86346 660.9837 1.4265362 255 255 255
590.36084 1074.2109 1.7987839 255 255 255
790.12347 830.72662 1.9982034 255 255 255
-414.5827 -527.05615 -2.3789816 255 255 255
5927.5073 10161.009 22.510387 255 255 255
584.25452 577.00897 1.2131953 255 255 255
1301.4352 835.39789 2.9714818 255 255 255
-647.45026 -454.24557 -2.5855618 255 255 255
875.85596 397.18219 0.94836676 255 255 255
-594.32178 -578.31537 -2.1078877 255 255 255
1433.5695 1001.3104 2.9519949 255 255 255
1103.9393 1574.4142 2.4539342 255 255 255
-3212.7593 -1008.3005 -7.5342412 255 255 255
1837.2751 1516.1097 3.3947718 255 255 255
1137.0457 982.76611 2.5409951 255 255 255
-367.08023 -445.44162 -1.9284831 255 255 255
-707.40887 -1073.2494 -3.5173659 255 255 255
-3350.4844 -2881.9863 -11.176512 255 255 255
805.61444 940.95557 1.8765184 255 255 255
-2553.4365 -2132.7456 -7.9783998 255 255 255
4290.4897 2823.4219 5.6497188 255 255 255
-841.15332 -383.58588 -2.8198349 255 255 255
531.47668 403.88394 0.73354006 255 255 255
-542.85602 -367.74146 -1.8113831 255 255 255
449.11734 634.90363 1.31734 255 255 255
1821.8395 1506.4648 3.3722744 255 255 255
930.91321 880.08832 2.227818 255 255 255
1523.8768 1547.9094 4.3398166 255 255 255
588.31421 1076.5366 1.7977183 255 255 255
1533.2505 1431.6442 2.9757519 255 255 255
-463.00787 -418.83124 -1.700093 255 255 255
379.19284 465.17792 0.9603259 255 255 255
1469.0281 1717.1346 3.345335 255 255 255
-2046.9967 -641.71954 -4.9442086 255 255 255
1836.3301 1499.6333 3.4020896 255 255 255
258.49506 896.1084 1.4032259 255 255 255
161.1575 275.19067 0.73931229 255 255 255
-1425.9741 -1552.8907 -5.0877209 255 255 255
10491.631 3397.1545 14.73157 255 255 255
3336.7153 2542.3367 4.7012033 255 255 255
1148.3593 1049.6658 2.113693 255 255 255
891.14697 1158.1846 4.9911194 255 255 255
-554.54163 -418.33563 -2.407172 255 255 255
-3606.3779 -2583.7583 -9.5850077 255 255 255
-643.70331 -554.55353 -1.8911309 255 255 255
1578.1935 3959.4561 6.1267462 255 255 255
631.4798 970.16266 1.8014925 255 255 255
1913.6993 1338.6785 7.214396 255 255 255
528.02594 816.35901 1.6120979 255 255 255
3345.967 2577.8037 9.8805332 255 255 255
1861.8949 1493.4218 3.4426506 255 255 255
-1554.2183 -1171.0757 -5.035336 255 255 255
474.01132 443.44485 0.70337802 255 255 255
188.82581 214.29237 0.40324661 255 255 255
1801.0197 1500.2114 3.3512218 255 255 255
18312.898 23061.586 64.885529 255 255 255
2218.9277 1667.5129 6.1208873 255 255 255
767.97046 529.97784 2.0590189 255 255 255
1066.3615 955.16522 2.0113056 255 255 255
-5553.4219 -6665.7378 -13.109856 255 255 255
8862.3848 4370.978 9.5347319 255 255 255
560.70593 1142.5249 1.7999121 255 255 255
618.27197 1226.05 1.8890469 255 255 255
-634.45551 -483.13348 -1.9104959 255 255 255
1835.4711 1511.8623 3.412991 255 255 255
-1071.3046 -365.7113 -3.3026676 255 255 255
536.40186 798.2616 1.6156605 255 255 255
-562.61432 -840.27222 -2.5403404 255 255 255
-694.698 -627.53107 -2.0257828 255 255 255
3145.9622 2252.1638 11.835644 255 255 255
26796.846 18526.055 67.366127 255 255 255
-503.20779 -569.2265 -1.9259865 255 255 255
1794.26 1504.126 3.3338275 255 255 255
2146.7349 2051.3518 5.1136398 255 255 255
2018.838 864.32166 4.6408858 255 255 255
617.8606 1119.7961 1.8426126 255 255 255
1942.3986 857.38696 4.4517927 255 255 255
886.22241 841.82843 2.160804 255 255 255
1523.7904 1337.2511 2.9705942 255 255 255
1788.5901 1494.2842 3.334475 255 255 255
6831.0146 3749.353 16.203598 255 255 255
1442.5312 1172.3862 1.7203331 255 255 255
1125.5625 445.62009 1.4456309 255 255 255
-2940.115 -5213.7397 -9.3251143 255 255 255
1530.3906 1322.6072 2.9935985 255 255 255
649.36804 961.96136 1.8199406 255 255 255
-1763.7561 -2050.3306 -6.1138163 255 255 255
2743.29 1581.4082 3.728548 255 255 255
1522.6995 1348.8091 2.9717934 255 255 255
722.41058 508.37402 0.91544008 255 255 255
1518.5046 1339.8083 2.9645443 255 255 255
607.61627 890.12579 1.6040635 255 255 255
-1226.4967 -2010.2252 -5.671113 255 255 255
1220.4122 754.72626 2.026437 255 255 255
599.61731 1113.3595 1.8264447 255 255 255
2720.3127 2568.5305 5.6099505 255 255 255
906.15381 873.63666 2.1870756 255 255 255
688.6283 961.53894 1.8705604 255 255 255
-718.66138 -550.71063 -2.0150146 255 255 255
-1776.6367 -972.36841 -4.9317703 255 255 255
449.47336 1275.4714 1.7780302 255 255 255
1609.7223 1407.7014 3.1032169 255 255 255
-998.69708 -285.26117 -2.3133926 255 255 255
-538.5813 -408.56308 -1.6856756 255 255 255
-1354.124 -1308.9785 -2.75611 255 255 255
-395.01178 -857.1853 -2.3695123 255 255 255
1619.9342 819.71838 2.6823664 255 255 255
3771.0415 2283.2739 6.7028503 255 255 255
953.94238 725.53894 1.3144149 255 255 255
-1164.292 -1325.3938 -3.6555045 255 255 255
630.7757 512.83405 2.6734791 255 255 255
1437.2017 671.9101 3.764612 255 255 255
2114.8948 906.8028 4.761909 255 255 255
1536.4854 1241.1813 1.8316104 255 255 255
-2654.3811 -2064.0552 -4.4551301 255 255 255
1011.3311 327.56894 1.0417566 255 255 255
-1170.4116 -2029.4808 -4.776237 255 255 255
1176.7107 1154.3857 3.119813 255 255 255
-745.11865 -1355.4829 -4.7525039 255 255 255
902.72717 850.37799 2.1875696 255 255 255
992.97729 543.36664 1.1026503 255 255 255
-1972.4711 -1411.9363 -5.9896445 255 255 255
-176.44946 -94.572495 -1.2215327 255 255 255
-1421.7632 -1837.6152 -3.099365 255 255 255
555.85162 807.77808 1.6439527 255 255 255
896.74585 546.65948 1.6061174 255 255 255
959.45874 587.00385 2.4626253 255 255 255
3515.958 2399.6594 5.0556922 255 255 255
-1896.533 -1570.582 -5.8796992 255 255 255
-2676.0894 -2605.0869 -5.5018721 255 255 255
6124.2905 2982.4094 8.0611229 255 255 255
1770.8342 1488.288 3.3098142 255 255 255
834.04077 832.55212 2.0711174 255 255 255
-369.48709 -441.30582 -2.1830246 255 255 255
5834.9082 4096.5786 15.480008 255 255 255
-2913.0557 -671.83636 -6.2969151 255 255 255
1323.1593 1730.0894 3.0353649 255 255 255
-39882.227 -12349.43 -46.404476 255 255 255
-6175.6035 -4424.9185 -16.026218 255 255 255
1431.8927 399.35403 1.7962198 255 255 255
558.42761 808.53601 1.648409 255 255 255
1831.2086 1315.6146 3.5705278 255 255 255
1822.4971 1488.6404 3.3842618 255 255 255
873.60132 375.3576 1.0199605 255 255 255
192.77681 335.44699 0.84437937 255 255 255
3194.9531 4294.6084 7.9287219 255 255 255
2304.5103 1279.6252 3.979491 255 255 255
9474.1182 5370.6006 15.334895 255 255 255
1863.3171 1592.2866 2.9031878 255 255 255
-3278.5427 -2391.2104 -8.9056196 255 255 255
4733.1021 2856.762 11.905071 255 255 255
928.7464 875.76978 2.2240603 255 255 255
-703.81152 -1098.7703 -2.8276792 255 255 255
1272.984 1206.724 2.6121929 255 255 255
-3355.2932 -1782.417 -8.1107788 255 255 255
1454.0963 644.6142 1.882243 255 255 255
471.84354 270.12418 0.77397168 255 255 255
924.82922 849.172 1.1285626 255 255 255
-2932.8147 -3667.6484 -9.0376768 255 255 255
3389.4841 2078.7996 5.2256699 255 255 255
1712.2001 885.32593 3.5361123 255 255 255
2843.9573 2749.3525 7.7088408 255 255 255
270.08466 56.26553 0.30099246 255 255 255
3857.9438 2895.6353 9.6388416 255 255 255
2201.6357 1067.0269 4.5670824 255 255 255
-1574.5918 -871.37927 -3.7244811 255 255 255
619.83063 1141.924 1.8535985 255 255 255
507.37497 293.95337 0.7898047 255 255 255
-1879.9749 -1550.5782 -5.8249826 255 255 255
-1278.5262 -834.49689 -4.1553063 255 255 255
565.11047 586.32233 1.0918889 255 255 255
-621.36084 -468.76642 -1.945295 255 255 255
-1045.0142 -1542.1655 -3.9901285 255 255 255
337.10492 205.02072 0.59876013 255 255 255
-14718.731 -6437.8672 -16.033123 255 255 255
1614.7273 1439.4728 3.0859742 255 255 255
1843.6461 1497.7935 3.4099169 255 255 255
-3507.3909 -1043.5068 -8.0002975 255 255 255
876.79437 1315.734 2.3558726 255 255 255
818.81299 456.62537 1.3141392 255 255 255
1004.2348 1865.7134 2.8117149 255 255 255
-1674.8 -1286.8616 -5.2508402 255 255 255
716.8363 404.87173 0.79102296 255 255 255
-2208.814 -2334.1792 -8.0634995 255 255 255
-33769.184 -33936.156 -75.132065 255 255 255
1199.6139 885.68286 2.2973869 255 255 255
8330.0752 5428.7505 21.414824 255 255 255
1503.8677 1366.3694 2.9759731 255 255 255
1491.2062 1352.8488 2.9226677 255 255 255
-2741.4177 -1781.0533 -7.6475263 255 255 255
3234.5632 2163.5969 4.9031148 255 255 255
-1326.8456 -713.45374 -4.4304748 255 255 255
1797.4692 1162.913 3.5915775 255 255 255
1182.9412 1144.7744 2.560252 255 255 255
741.70129 999.50574 2.0363979 255 255 255
503.47043 380.46417 0.90156609 255 255 255
688.65479 920.20245 1.8609656 255 255 255
-3258.5876 -2174.9963 -10.449268 255 255 255
-624.90979 -475.32156 -1.7445309 255 255 255
1562.011 911.14856 2.2785211 255 255 255
1489.9493 1355.323 2.9200561 255 255 255
-805.96619 -502.26608 -2.8876238 255 255 255
1742.9614 1562.9452 3.231014 255 255 255
1507.594 881.38934 3.3602114 255 255 255
3517.925 3058.3193 10.053749 255 255 255
3832.3259 2054.5505 5.9727473 255 255 255
877.62219 893.39026 1.8395445 255 255 255
779.75641 905.16254 1.986046 255 255 255
-372.71704 -1128.9874 -2.7716854 255 255 255
807.03162 836.42108 2.0241234 255 255 255
-57227.746 -40912.496 -186.96518 255 255 255
1681.616 1499.7952 3.3711643 255 255 255
1524.7169 1087.0844 3.5850441 255 255 255
425.85196 615.97729 1.3932401 255 255 255
6938.9761 7740.4883 20.102058 255 255 255
1988.9602 858.63696 4.56742 255 255 255
-939.41644 -842.85272 -2.3579319 255 255 255
-1574.3295 -2018.9866 -5.155561 255 255 255
8651.9775 4802.7368 13.939232 255 255 255
-15028.451 -15928.195 -49.049919 255 255 255
-1559.5701 -1573.0305 -5.6803226 255 255 255
2277.9985 1929.0814 3.7653167 255 255 255
220.76781 185.91809 0.74366939 255 255 255
2457.4763 1259.4755 2.7168319 255 255 255
278.23456 952.37811 1.4584984 255 255 255
-2979.1934 -3164.3638 -6.2892051 255 255 255
1906.5591 884.24518 3.2686646 255 255 255
3230.2344 2155.217 4.9056716 255 255 255
-741.22693 -535.96252 -2.0359118 255 255 255
766.77203 654.34857 1.5782119 255 255 255
-477.76828 -376.48715 -1.575142 255 255 255
4025.4766 1612.7686 7.2738342 255 255 255
1024.5184 1095.7377 2.6440899 255 255 255
640.50079 816.38812 1.7447635 255 255 255
1126.92 982.17224 2.522934 255 255 255
-5606.8569 -3969.3342 -14.627748 255 255 255
1869.1021 1348.7834 3.5428529 255 255 255
1177.3839 1150.01 2.5497155 255 255 255
-636.27808 -520.71466 -1.9190923 255 255 255
4088.6091 2393.7983 5.8862376 255 255 255
1331.7137 1173.1125 2.4279149 255 255 255
-543.05536 -1072.7598 -2.524766 255 255 255
1763.7764 2438.314 5.6947527 255 255 255
703.78949 1029.4272 1.9026157 255 255 255
3523.4937 2382.2085 5.0873108 255 255 255
24644.113 13689.037 64.789032 255 255 255
2467.3945 5582.6592 13.562408 255 255 255
2143.9683 3395.0344 7.0864477 255 255 255
29271.494 24719.848 87.725708 255 255 255
-2852.4934 -2197.0432 -6.1071858 255 255 255
-1047.7367 -393.29471 -3.002866 255 255 255
2142.0632 1074.4124 4.2600169 255 255 255
449.51938 1089.0948 2.0076923 255 255 255
976.61993 1072.1455 2.1678054 255 255 255
4187.0864 2829.4495 5.4930339 255 255 255
4050.3279 6970.5737 15.609916 255 255 255
-2957.4814 -2482.6023 -7.7838864 255 255 255
-86.236214 -40.292442 -1.0974513 255 255 255
-4431.5918 -10518.173 -18.517952 255 255 255
-463.34067 -457.15509 -1.8389807 255 255 255
5223.9868 3150.4736 6.4754868 255 255 255
1777.0764 1133.5784 3.5889754 255 255 255
-15236.847 -27459.168 -49.074936 255 255 255
742.33301 813.85284 1.7155865 255 255 255
753.06738 1827.1383 2.7782199 255 255 255
-1985.1715 -3293.729 -8.6123304 255 255 255
-5952.4771 -10197.057 -19.795927 255 255 255
849.41382 1291.408 2.6082835 255 255 255
772.27094 898.62506 1.9737307 255 255 255
-748.74799 -457.15268 -1.997365 255 255 255
27510.512 29281.273 83.267128 255 255 255
1964.5573 1596.6819 3.5305157 255 255 255
7656.0728 3409.9666 9.5929918 255 255 255
8256.5605 2731.3469 12.653485 255 255 255
470.96262 661.74988 1.1111666 255 255 255
-1369.0972 -1286.135 -5.0326629 255 255 255
547.97583 818.65228 1.6384577 255 255 255
-1982.3827 -1413.286 -6.5262456 255 255 255
4569.1768 9963.6797 15.482164 255 255 255
993.11725 939.31873 2.3110049 255 255 255
3538.5266 1985.4475 5.593358 255 255 255
4241.8882 2809.2102 5.5993729 255 255 255
199.72469 180.05327 0.83147132 255 255 255
1343.4576 1209.9508 2.7240164 255 255 255
-2939.5974 -2385.6704 -9.4714832 255 255 255
4229.0054 2244.5415 7.3818984 255 255 255
-3160.7947 -3266.1035 -7.781014 255 255 255
851.95471 782.25262 1.7355927 255 255 255
3285.3892 1845.5007 5.3737202 255 255 255
598.78027 964.85992 1.9208792 255 255 255
1046.5552 886.49939 2.4226336 255 255 255
-1047.9409 -601.44928 -3.3345838 255 255 255
2686.4258 4264.4209 7.1296873 255 255 255
653.81519 1290.3818 1.9433168 255 255 255
1138.449 1294.0325 3.0144229 255 255 255
-1328.089 -1338.6351 -3.5885265 255 255 255
1759.7288 980.64465 3.7581201 255 255 255
2462.6223 2359.1528 3.7812161 255 255 255
-1268.7893 -984.13715 -4.2426252 255 255 255
-738.64056 -540.96094 -2.0421174 255 255 255
1129.577 1658.8719 3.6942983 255 255 255
-274.11307 -221.09409 -1.3934252 255 255 255
-1407.7239 -576.46167 -4.4295697 255 255 255
5197.1729 2416.6655 7.6497893 255 255 255
-978.60956 -776.23834 -3.9477966 255 255 255
-37204.898 -18653.697 -85.276833 255 255 255
7338.748 4286.7837 7.7737041 255 255 255
277.9805 1114.213 1.5758089 255 255 255
-3330.0188 -2472.457 -9.1304169 255 255 255
1164.858 860.23297 2.6697326 255 255 255
796.94397 1049.3776 2.0250437 255 255 255
-3141.7852 -1624.2786 -8.7287235 255 255 255
22061.502 14851.341 58.303707 255 255 255
11511.944 12945.936 41.927765 255 255 255
-29315.455 -29599.428 -104.08642 255 255 255
1916.3232 4158.8208 8.4223986 255 255 255
743.5166 1427.9052 2.0731173 255 255 255
1067.5016 577.09802 1.2492725 255 255 255
-905.06451 -414.15274 -3.0270066 255 255 255
3121.135 3907.8269 8.0857944 255 255 255
-716.56085 -578.24799 -2.029942 255 255 255
-596.81647 -560.68579 -1.9445963 255 255 255
-437.95114 -201.98192 -1.6088978 255 255 255
-701.57062 -322.48511 -2.4866903 255 255 255
1788.2932 1500.3948 3.3313692 255 255 255
-476.47256 -622.76721 -2.3415871 255 255 255
-614.05011 -656.07953 -2.4420216 255 255 255
-2275.4727 -2721.8792 -7.1065416 255 255 255
876.4068 859.82184 2.1396701 255 255 255
-885.96936 -1828.7594 -4.1758518 255 255 255
1150.3024 978.3595 2.1680837 255 255 255
605.40387 1095.1758 1.8224503 255 255 255
-1692.4033 -1531.9445 -3.6636102 255 255 255
593.84454 1019.4119 1.777252 255 255 255
-678.78723 -1227.8721 -3.0866308 255 255 255
-3411.7451 -3199.5457 -10.949531 255 255 255
463.82944 225.17076 1.3706385 255 255 255
6808.6138 3667.0398 12.31226 255 255 255
5071.1294 4013.311 12.662621 255 255 255
-615.40051 -301.32104 -2.2105505 255 255 255
1227.6017 716.46021 2.9406559 255 255 255
-1549.9825 -731.00757 -4.8848276 255 255 255
253.07959 272.55951 0.72751665 255 255 255
744.80603 1063.5867 1.9608755 255 255 255
7373.2827 4854.6616 21.364244 255 255 255
1955.6671 1477.6859 5.3152471 255 255 255
748.81769 1032.6121 2.499027 255 255 255
686.32812 1340.0334 1.9890871 255 255 255
624.08752 1346.7665 1.941331 255 255 255
1732.9941 1553.3851 3.2212474 255 255 255
591.39087 926.32385 1.387778 255 255 255
176.55795 237.71371 0.35736969 255 255 255
660.25165 527.6095 0.87647957 255 255 255
-558.41473 -511.57831 -1.7078624 255 255 255
-661.97357 -377.19916 -2.6886623 255 255 255
1780.1177 892.70441 3.1045923 255 255 255
6700.7075 3111.5532 8.4905615 255 255 255
1443.2896 873.09552 3.2261693 255 255 255
885.59369 1254.5453 2.5215397 255 255 255
314.82343 822.76245 1.3897614 255 255 255
-622.50433 -824.94525 -2.872086 255 255 255
-1243.9783 -1010.9412 -5.1208863 255 255 255
586.01093 1150.6079 1.689207 255 255 255
1864.689 965.1106 4.0107331 255 255 255
1092.5654 1229.5411 2.4770236 255 255 255
1458.8643 1139.6173 3.0069287 255 255 255
835.13202 556.46106 1.1116251 255 255 255
3490.5713 1706.2351 5.8466005 255 255 255
1824.7223 1489.9662 3.38873 255 255 255
1598.1443 1418.0698 4.0398588 255 255 255
1588.2506 1361.421 3.0799897 255 255 255
-7463.9727 -8632.5029 -19.534008 255 255 255
1444.7559 1321.4429 2.8757038 255 255 255
2316.4961 357.41269 3.0485542 255 255 255
161.09407 275.06638 0.73914278 255 255 255
4019.7959 1610.1698 7.2640305 255 255 255
10239.796 3342.5396 14.434708 255 255 255
1504.6119 875.87964 3.3518639 255 255 255
4286.4819 2824.5615 5.6448421 255 255 255
-2871429.8 -1208321 -6695.8237 255 255 255
1552.6295 1435.6749 3.0028899 255 255 255
1290.1763 506.57153 1.805704 255 255 255
-16301.727 -19538.182 -48.480652 255 255 255
878.81659 858.72992 2.1453874 255 255 255
-551.21082 -1103.3119 -2.2346532 255 255 255
-1166.9926 -1050.3235 -3.5258689 255 255 255
1459.795 1045.0186 2.6728506 255 255 255
699.73883 616.25232 1.3686275 255 255 255
1524.4211 1337.9286 2.9723086 255 255 255
-764.22668 -424.7045 -2.6256754 255 255 255
1911.709 1383.287 3.6901605 255 255 255
1490.5349 1352.5544 2.921788 255 255 255
-2027.4872 -1369.3113 -5.7412343 255 255 255
2794.6528 2070.9551 5.0154428 255 255 255
-6701.0176 -6175.7388 -13.366369 255 255 255
4128.3862 1618.6786 7.470891 255 255 255
1851.6313 974.60333 3.9621587 255 255 255
-1106.5164 -1051.8485 -3.5837741 255 255 255
1034.6652 647.23676 2.6443863 255 255 255
-83.151314 -39.995167 -1.1748368 255 255 255
-56955.258 -44401.312 -105.61234 255 255 255
1023.1573 535.62762 1.1912374 255 255 255
1575.8083 1393.9374 3.1424496 255 255 255
3190.6418 8987.4678 20.16081 255 255 255
1587.856 1366.8842 3.1116612 255 255 255
16515.582 22444.422 41.535374 255 255 255
-1283.4929 -689.92169 -4.0035424 255 255 255
929.78235 879.37823 2.2252772 255 255 255
1020.5296 865.505 1.949883 255 255 255
-629.94562 -538.43604 -1.9625425 255 255 255
168.35046 165.67801 0.45121816 255 255 255
-5435.3726 -4116.4712 -14.607727 255 255 255
-2557.3315 -1071.8218 -8.4199972 255 255 255
-6864.4702 -5675.8857 -9.4434843 255 255 255
2653.4153 945.30188 6.1013584 255 255 255
-1817.5422 -901.19977 -4.6792445 255 255 255
213.7659 193.30258 0.63658941 255 255 255
6018.0229 6857.0942 14.101077 255 255 255
-3393.335 -1084.1002 -7.5581207 255 255 255
767.85583 530.00439 2.058224 255 255 255
4284.9048 2819.8574 5.6417017 255 255 255
1451.9056 1316.0569 2.876308 255 255 255
-683.88226 -529.43768 -2.6445057 255 255 255
-153.67625 -120.35737 -1.1959554 255 255 255
-2509.1794 -804.73175 -5.8868074 255 255 255
1554.3828 893.44348 2.2540357 255 255 255
856.91461 2044.2186 3.1291423 255 255 255
2443.3181 2779.3398 8.5149059 255 255 255
-1584.766 -895.53601 -5.9821329 255 255 255
5913.021 2920.1238 7.8420095 255 255 255
2214.3579 1780.5824 6.274631 255 255 255
-4723.2554 -5342.9473 -9.8064585 255 255 255
-745.05237 -688.18207 -2.8332214 255 255 255
-5044.126 -1503.577 -11.218383 255 255 255
62127.512 12116.238 89.060883 255 255 255
1236.2623 1134.7183 2.2279181 255 255 255
1860.1217 1802.1913 3.8097064 255 255 255
-2142.8533 -1287.2369 -3.3755441 255 255 255
1426.1667 1186.6998 2.7612669 255 255 255
10725.92 4332.9404 13.817594 255 255 255
-2140.8787 -1286.329 -3.3720939 255 255 255
833.74683 561.56567 1.4623473 255 255 255
887.08459 842.50031 2.1639001 255 255 255
1451.0795 1326.2377 2.8735247 255 255 255
1609.4641 1408.2808 3.1036294 255 255 255
1528.0122 1418.1388 2.9465654 255 255 255
2644.2485 1342.3925 6.2244382 255 255 255
-2562.2375 -428.76981 -5.9687977 255 255 255
4474.3853 1651.0232 8.1620569 255 255 255
-493.85776 -546.51868 -2.2029488 255 255 255
28074.82 12440.411 65.607178 255 255 255
608.64148 964.95532 1.7711236 255 255 255
416.74438 605.49731 1.0864203 255 255 255
1643.6157 838.74786 2.138217 255 255 255
997.52313 884.56189 2.338253 255 255 255
10223.625 3320.0884 14.496386 255 255 255
1560.1536 1442.4445 3.0090542 255 255 255
9718.1318 14606.855 23.314405 255 255 255
796.36743 814.59167 2.0098989 255 255 255
935.43713 1136.0977 2.2064435 255 255 255
501.64944 378.26175 0.90058106 255 255 255
639.0163 1177.2134 1.9306134 255 255 255
1517.8909 1339.0126 2.9636631 255 255 255
1810.6309 1656.4135 2.467242 255 255 255
609.20587 962.60046 1.7708507 255 255 255
-1047.5848 -1727.2905 -4.1958628 255 255 255
1598.983 1172.7028 2.9649096 255 255 255
1513.8881 1479.3621 2.8612244 255 255 255
2281.9702 421.13986 2.379281 255 255 255
1498.6196 1345.423 2.9320374 255 255 255
2220.5288 1071.3146 4.6007781 255 255 255
847.68036 891.40973 2.0876472 255 255 255
772.57202 1550.3632 2.5288882 255 255 255
3088.7146 1773.0409 5.5408473 255 255 255
-2197.7639 -1624.193 -4.0782995 255 255 255
1912.9003 1431.9695 3.6693602 255 255 255
566.04321 398.42053 1.0637859 255 255 255
5674.792 7333.8862 13.341988 255 255 255
-6173.1191 -3140.2939 -14.161841 255 255 255
7482.9478 3568.4119 17.462934 255 255 255
1527.5656 1342.2634 2.9781375 255 255 255
686.8576 846.55359 1.6012863 255 255 255
1690.0657 698.19543 3.7216413 255 255 255
797.43744 1174.7101 2.1631217 255 255 255
413.2435 765.60767 1.448369 255 255 255
1506.5042 1379.8691 2.9203427 255 255 255
1516.694 1413.2357 2.9614213 255 255 255
2017.4908 863.12292 4.636971 255 255 255
8017.7764 3031.731 11.178868 255 255 255
1862.2638 1498.8801 3.4405973 255 255 255
686.40399 1007.4391 1.8753901 255 255 255
1372.0508 1166.3563 4.3161278 255 255 255
682.19568 935.83337 1.7092634 255 255 255
-377.46729 -620.73108 -1.9987925 255 255 255
3146.436 2687.3984 6.3665924 255 255 255
1102.7749 839.99133 1.30063 255 255 255
-2115.6277 -1141.1301 -6.4015222 255 255 255
1104.6246 1575.7788 2.4533157 255 255 255
-52.019299 -52.198277 -1.1434776 255 255 255
-1039.4037 -894.44208 -3.398602 255 255 255
1528.0669 1346.1682 2.9772971 255 255 255
2257.6704 899.77692 5.160068 255 255 255
-514.75635 -345.7572 -1.7972802 255 255 255
1463.938 1102.3043 3.0356753 255 255 255
-3293.9817 -2654.7302 -11.060171 255 255 255
1785.1176 3137.5691 5.1903925 255 255 255
1830.2886 1490.9567 3.3962598 255 255 255
8883.7539 4365.8379 9.5592842 255 255 255
1454.8181 1317.1598 2.8843682 255 255 255
-11393.449 -3462.2004 -25.492115 255 255 255
1192.2375 591.62061 1.3686105 255 255 255
47759.793 43394.328 150.21495 255 255 255
1537.5177 1555.2599 2.8852687 255 255 255
2523.1172 1406.4556 4.3330631 255 255 255
-900.07611 -311.02603 -3.1866643 255 255 255
1105.6332 978.94781 2.0564411 255 255 255
951.35669 879.17395 2.2584748 255 255 255
-11572.27 -4464.4546 -29.281267 255 255 255
831.80725 918.99426 2.112114 255 255 255
1001.6602 983.9068 2.3162756 255 255 255
-367.14182 -448.06006 -1.93124 255 255 255
1105.587 1575.8951 2.4567175 255 255 255
635.56726 794.5271 1.7546811 255 255 255
548.87183 356.27942 0.99714118 255 255 255
1440.0028 845.63 3.2583771 255 255 255
1532.9033 1431.4902 2.9737544 255 255 255
-794.14966 -1048.3304 -3.4447405 255 255 255
946.47058 876.21814 2.2525985 255 255 255
988.01208 881.7345 2.3214474 255 255 255
3376.2158 2551.7004 4.7404246 255 255 255
845.3028 1135.2662 2.1365428 255 255 255
72.119171 330.24091 0.48006433 255 255 255
-791.43011 -612.39307 -2.2354372 255 255 255
-619.72552 -379.42175 -1.9338006 255 255 255
-2355.8203 -1419.8933 -4.1916552 255 255 255
1862.386 2557.3386 4.5859241 255 255 255
512.71417 553.05371 1.1109713 255 255 255
605.28125 892.93677 1.6694047 255 255 255
2137.8274 1564.064 4.1729784 255 255 255
4594.792 5108.7334 10.710519 255 255 255
-4422.4692 -1676.171 -12.571059 255 255 255
1639.1655 1406.6912 2.4717364 255 255 255
955.6593 1151.9207 2.2815044 255 255 255
1846.3707 1624.0948 3.6198921 255 255 255
950.26038 874.91931 2.2603395 255 255 255
610.06836 888.85577 2.292124 255 255 255
337.81775 469.91843 1.1785901 255 255 255
-1485.0399 -910.5274 -3.6148965 255 255 255
-1506.3993 -1380.9933 -4.2645979 255 255 255
-840.47278 -1109.9331 -2.8785362 255 255 255
-945.08453 -287.0145 -2.7590487 255 255 255
5095.3511 2330.7166 7.6487856 255 255 255
3836.7253 2064.7251 5.9686999 255 255 255
715.2171 823.88074 1.9018699 255 255 255
4508.6602 2585.9109 10.862761 255 255 255
7815.8271 8269.9287 24.191908 255 255 255
659.02814 991.01385 1.8397905 255 255 255
-701.89294 -1453.1876 -3.608938 255 255 255
-1006.921 -929.86639 -2.5935025 255 255 255
-3189.6875 -4387.1431 -9.7559223 255 255 255
3442.5552 2613.2585 4.754705 255 255 255
1062.6666 1669.4921 2.835746 255 255 255
9110.4512 2823.9133 14.197233 255 255 255
-1224.4915 -1465.4272 -5.2567387 255 255 255
-2132.9492 -2480.5234 -7.8635173 255 255 255
-1023.1559 -1749.417 -3.9533949 255 255 255
3579.49 2834.2366 4.7630787 255 255 255
1830.3187 976.46954 3.9169645 255 255 255
13898.022 11723.767 44.8498 255 255 255
1003.3129 888.69189 2.3466947 255 255 255
746.57892 1197.7524 1.9997853 255 255 255
126477.52 108023.62 261.50537 255 255 255
8371.8809 2712.519 13.015082 255 255 255
-851.5943 -325.93182 -2.980252 255 255 255
-19570.701 -23015.369 -50.636227 255 255 255
2369.2761 1132.7739 4.8063474 255 255 255
-1410.7186 -563.6604 -3.4157319 255 255 255
2356.8809 1137.3165 4.7659359 255 255 255
7104.7607 10076.448 15.266574 255 255 255
3838.2644 2057.7092 5.9818296 255 255 255
888.23944 611.90234 1.1192991 255 255 255
-872.08624 -654.76562 -2.7786536 255 255 255
3058.5042 1790.5063 8.1584597 255 255 255
605.99512 1121.7819 1.8334925 255 255 255
4505.6328 2681.1609 12.418959 255 255 255
698.29358 759.30573 1.6254795 255 255 255
-1128.0402 -2897.4492 -5.3630948 255 255 255
-1354.3939 -996.24182 -4.3609791 255 255 255
-459.56125 -510.03778 -2.5022562 255 255 255
1145.4095 829.82648 2.6535881 255 255 255
-35198.871 -27040.018 -88.645912 255 255 255
-3685.3762 -3344.4312 -7.3576269 255 255 255
687.30981 959.88501 1.8670573 255 255 255
812.76923 897.22125 2.0321195 255 255 255
596.44891 1107.9973 1.8173443 255 255 255
2519.6504 1110.0292 5.6359806 255 255 255
574.67169 444.09033 0.69502771 255 255 255
4312.8345 2120.011 6.6910477 255 255 255
278.34897 952.98291 1.4593097 255 255 255
10409.427 3374.4756 14.619432 255 255 255
9081.2852 3287.7329 12.394479 255 255 255
-175.21941 -174.87444 -1.4908922 255 255 255
1100.3893 935.88782 2.4960933 255 255 255
-590.87494 -966.75421 -2.7910721 255 255 255
4254.9482 5588.8262 12.241049 255 255 255
33916.387 26816.561 85.480286 255 255 255
-43096.93 -41105.941 -94.599739 255 255 255
782.59772 864.57495 1.9879506 255 255 255
3949.8755 2716.6008 5.3159199 255 255 255
651.17462 966.08954 1.8276649 255 255 255
2651.2976 1071.1461 4.0134187 255 255 255
-839.6571 -257.47418 -3.1921599 255 255 255
4250.8774 2813.8713 5.6113591 255 255 255
613.47424 764.53662 1.7113758 255 255 255
-2573.0864 -3272.6121 -6.9227104 255 255 255
-1532.6477 -5473.8892 -11.385559 255 255 255
-712.28955 -369.44531 -2.8411968 255 255 255
3333.9807 2540.3413 4.6979275 255 255 255
10146.611 11512.513 33.35125 255 255 255
-2803.7598 -1773.9647 -8.9990721 255 255 255
500.3652 326.54556 1.0336083 255 255 255
5117.6543 2370.7278 7.5984373 255 255 255
-265.84113 -203.84341 -1.6814492 255 255 255
1432.5167 1011.9573 3.1928391 255 255 255
395.74582 682.26178 1.0826607 255 255 255
944.27362 865.3905 2.2549515 255 255 255
4670.7266 2271.7449 7.0214801 255 255 255
-1291.4457 -155.92613 -2.8833587 255 255 255
2163.5786 909.41602 4.8951406 255 255 255
962.47125 859.573 2.2898228 255 255 255
414.03522 618.41388 1.1136215 255 255 255
-674.42181 -1146.58 -2.8345394 255 255 255
692.31281 982.6897 1.8793337 255 255 255
5413.8018 3620.3066 6.2400155 255 255 255
7555.5176 4279.561 8.0470686 255 255 255
-2880.4541 -1372.9585 -9.6518869 255 255 255
2721.8728 2439.3115 6.8223648 255 255 255
5925.2427 3904.4473 6.5757222 255 255 255
-570.53271 -470.09842 -2.2980185 255 255 255
1235.9446 1631.948 3.7362928 255 255 255
-2756.2627 -1811.0691 -7.7281833 255 255 255
1147.1443 991.56586 2.5541203 255 255 255
790.07526 868.76947 1.9993064 255 255 255
3944.2554 2709.6226 5.3193011 255 255 255
-821.86206 -356.92981 -3.0650175 255 255 255
6564.2837 2150.5837 10.714573 255 255 255
-1950.5679 -1607.1802 -7.292335 255 255 255
730.40253 789.85199 1.8953251 255 255 255
825.82819 897.30634 2.0530448 255 255 255
3469.8171 2623.655 4.7822657 255 255 255
3518.6274 2377.9795 5.0804019 255 255 255
-1126.4447 -611.94379 -3.5288 255 255 255
1456.509 1170.3761 2.2937419 255 255 255
-2562.1804 -3227.5496 -8.8721066 255 255 255
630.91229 969.57928 1.8007971 255 255 255
-2900.3264 -2467.3733 -8.9534931 255 255 255
1306.0864 967.1214 1.6256917 255 255 255
5119.2349 1969.1704 8.5868645 255 255 255
229.84669 258.25903 0.7323516 255 255 255
1068.3466 1158.2072 2.3928182 255 255 255
-2020.9392 -346.68427 -4.9795003 255 255 255
1103.2468 759.74249 3.6681223 255 255 255
1859.1223 1158.7595 3.718133 255 255 255
876.2478 859.91412 2.139746 255 255 255
-2100.7925 -2247.4268 -4.7205348 255 255 255
507.65643 1123.8234 1.7408358 255 255 255
514.94385 991.39178 1.7671179 255 255 255
4154.0557 1620.4852 7.5361156 255 255 255
1111.5614 1577.0944 2.4617269 255 255 255
4084.8308 2400.6799 5.8717804 255 255 255
1876.2889 1504.6361 3.4603038 255 255 255
-481.11154 -85.941933 -2.2759218 255 255 255
-757.26624 -678.18646 -2.4849482 255 255 255
1844.4546 1572.156 3.3688097 255 255 255
1730.0603 1847.8258 5.0279517 255 255 255
606.1814 1107.3606 1.8278081 255 255 255
4162.0371 4652.4653 9.7686462 255 255 255
2019.946 859.79205 4.6500673 255 255 255
-556.51184 -899.65063 -2.3829596 255 255 255
6889.3955 9884.8174 17.319292 255 255 255
-2461.2471 -1643.7795 -7.8317308 255 255 255
855.49597 671.93652 1.5267466 255 255 255
2672.6638 2080.0088 4.5826893 255 255 255
7217.1357 2367.1008 10.97763 255 255 255
-588.0332 -503.48193 -1.8949596 255 255 255
2059.9214 1534.6605 3.7172074 255 255 255
564.58148 1189.1379 1.8279614 255 255 255
622.04401 1343.7037 1.9381151 255 255 255
648.93658 965.16528 1.8227437 255 255 255
1802.2695 676.77527 2.8171511 255 255 255
2276.1338 1927.7299 3.7630897 255 255 255
1975.2335 2105.1418 5.0449128 255 255 255
2344.1731 1228.901 3.8141055 255 255 255
4206.8398 2154.0632 6.4466872 255 255 255
577.03033 1108.7856 1.7999324 255 255 255
-632.08832 -509.56549 -2.2669134 255 255 255
-378.98895 -510.36386 -2.058852 255 255 255
3364.2229 675.91431 4.7493429 255 255 255
-7557.7202 -8208.8311 -25.347118 255 255 255
1801.0557 1509.5543 3.3469553 255 255 255
747.86597 1739.661 5.441678 255 255 255
1499.2356 1427.1823 4.1610298 255 255 255
1786.6829 1499.3799 3.329242 255 255 255
3515.2405 2398.6614 5.0544782 255 255 255
19302.969 18040.277 37.713875 255 255 255
560.04724 1166.14 1.8117421 255 255 255
620.83282 1143.3102 1.855508 255 255 255
723.61194 1060.4222 1.9354547 255 255 255
-1356.7853 -1450.6473 -5.2519946 255 255 255
1797.3528 821.4248 4.1693749 255 255 255
1156.136 1371.7407 2.3801301 255 255 255
26844.4 21304.504 66.366142 255 255 255
10229.731 7754.9741 22.646051 255 255 255
3159.5852 1884.7094 5.1094437 255 255 255
-824.32794 -543.0705 -2.9641998 255 255 255
548.2373 1309.809 1.877504 255 255 255
-21928.842 -31375.965 -101.86572 255 255 255
-625.14795 -560.40894 -1.9714515 255 255 255
1316.1224 1549.2446 2.8386929 255 255 255
-1365.1042 -1006.252 -4.196063 255 255 255
3287.8369 1847.1768 5.3790936 255 255 255
4469.4038 1647.2711 8.1641903 255 255 255
4601.2637 2177.7139 7.0887222 255 255 255
2239.4602 1107.7708 4.5712061 255 255 255
2006.4918 899.32843 4.507278 255 255 255
-1069.6584 -448.45331 -3.2930675 255 255 255
1514.7942 1409.7756 2.9623978 255 255 255
493.14331 805.65277 1.563251 255 255 255
6510.2471 3540.614 7.6862068 255 255 255
4831.7451 2994.4268 6.1683221 255 255 255
486.2435 683.1629 1.3016113 255 255 255
-313.40506 -123.00777 -1.6671031 255 255 255
774.76453 986.06262 1.9821773 255 255 255
715.4068 1051.6528 1.9223715 255 255 255
454.19287 815.97638 1.523658 255 255 255
2144.4683 1060.757 4.4436698 255 255 255
2001.2625 1790.9144 6.0163436 255 255 255
589.56018 63.256413 0.77428985 255 255 255
-6601.7314 -5465.8442 -9.0907593 255 255 255
1182.7982 1144.5894 2.560025 255 255 255
-404.17319 -401.08957 -1.9174492 255 255 255
616.40143 1121.8059 1.8414371 255 255 255
-4181.6831 -5128.5698 -14.067523 255 255 255
58.280361 151.63982 0.41838768 255 255 255
-642.11871 -484.08344 -1.9191973 255 255 255
-126736.05 -70876.516 -323.56921 255 255 255
-918.71851 -1554.4637 -3.7493899 255 255 255
64618.633 37617.77 136.31206 255 255 255
1483.1003 1091.9236 3.0733023 255 255 255
359.29755 808.63605 1.419933 255 255 255
547.54492 818.82544 1.638297 255 255 255
10770.695 5119.4512 10.733648 255 255 255
482.99347 534.20892 1.9485314 255 255 255
671.56219 928.76764 1.8393176 255 255 255
1973.2877 1605.3756 3.5379534 255 255 255
1962.7817 1595.201 3.5263896 255 255 255
1459.6737 1140.1301 3.0104115 255 255 255
-2589.2993 -2871.8948 -9.0465269 255 255 255
-593.8114 -613.94281 -2.2689445 255 255 255
2354.678 2800.301 5.6729074 255 255 255
1434.5544 2563.1721 4.3048744 255 255 255
3227.8386 2153.5449 4.9008145 255 255 255
807.09235 839.73505 2.0276279 255 255 255
-475.11038 -402.67786 -1.6479616 255 255 255
1733.4177 1553.0333 3.2219462 255 255 255
125.86096 335.00485 0.76406884 255 255 255
-1091.5074 -1180.9 -5.0905962 255 255 255
874.47412 852.17694 2.1368411 255 255 255
4093.2654 2396.6155 5.892591 255 255 255
9638.3125 2900.5125 15.029646 255 255 255
2300.7466 426.60623 2.3930805 255 255 255
797.53668 821.13446 2.0135636 255 255 255
-853.42291 -501.16202 -2.1501236 255 255 255
2421.5339 1300.9346 5.7869873 255 255 255
457.35034 1220.4839 1.7521412 255 255 255
451.81323 149.20035 1.4564663 255 255 255
702.99158 560.19952 1.2896686 255 255 255
-1205.8633 -1723.4995 -4.8134937 255 255 255
-696.63751 -555.1145 -2.1936307 255 255 255
15583.111 12716.069 21.151661 255 255 255
549.76227 788.23187 1.6303897 255 255 255
1534.7513 839.28442 3.819746 255 255 255
958.89661 790.34186 1.6380134 255 255 255
1250.2665 2105.7969 3.287077 255 255 255
675.21185 944.04822 1.8478096 255 255 255
-106521.11 -83442.32 -303.64291 255 255 255
-984.27942 -1280.8103 -3.5415378 255 255 255
577.3045 844.57709 1.685436 255 255 255
13048.878 4930.5576 14.256061 255 255 255
3536.04 1983.5785 5.590507 255 255 255
609.19 676.57861 0.96263266 255 255 255
3377.8977 2085.6316 5.197608 255 255 255
8397.667 2710.9775 13.04389 255 255 255
1182.1233 998.914 2.6112876 255 255 255
527.78156 815.83612 1.6111554 255 255 255
-324702.56 -225996.23 -626.91498 255 255 255
1869.3756 1348.7261 3.5432992 255 255 255
-2746.6406 -2375.4497 -7.4852171 255 255 255
-1627.62 -794.31982 -4.9915566 255 255 255
-442.95874 -471.34952 -2.0369883 255 255 255
1709.0299 853.14288 2.1981814 255 255 255
674.77319 670.88745 1.2560344 255 255 255
1451.4958 874.9751 3.2418654 255 255 255
677.52563 701.40643 1.4982065 255 255 255
37757.348 28661.562 93.317833 255 255 255
599.18018 376.41443 1.5354106 255 255 255
-1156.0222 -870.72449 -4.3185849 255 255 255
8793.8379 2898.7622 13.977829 255 255 255
-1820.3306 -2277.2065 -4.4541979 255 255 255
-705.85126 -1326.9247 -4.5858226 255 255 255
-1414.5398 -388.99832 -4.4324603 255 255 255
1767.5038 983.45978 3.7657061 255 255 255
2708.2119 2187.2305 5.9040623 255 255 255
1068.7368 1109.8485 2.3912246 255 255 255
-19256.439 -6724.4966 -33.170872 255 255 255
1344.9288 855.36017 3.0398514 255 255 255
712.29492 936.5069 1.8952137 255 255 255
264.04105 835.63556 1.359607 255 255 255
1858.9979 1492.2296 3.4373276 255 255 255
923.21942 895.78864 2.2064166 255 255 255
-4139.9951 -1142.6051 -11.565682 255 255 255
-997.59631 -631.23059 -3.3965712 255 255 255
673.66949 930.9187 1.8418339 255 255 255
754.46838 1093.323 2.1415641 255 255 255
2813.4458 2299.8359 9.2906961 255 255 255
769.67181 1104.5654 1.9989537 255 255 255
-1168.9337 -2502.5481 -4.8886862 255 255 255
1510.1305 1090.8442 3.1379263 255 255 255
-2472.7837 -1426.1473 -7.1553907 255 255 255
1338.1112 1703.9895 3.3327985 255 255 255
-1961.4058 -1349.1182 -6.1659861 255 255 255
2776.4966 4658.0908 7.676971 255 255 255
1125.5782 981.6308 2.5206482 255 255 255
12070.093 10358.583 32.754475 255 255 255
1465.6306 1466.6042 3.5409396 255 255 255
4316.1543 2325.291 6.3375959 255 255 255
-1299.9512 -1527.6854 -5.4157515 255 255 255
1228.6697 871.97992 2.9570177 255 255 255
1295.2317 1881.652 5.142942 255 255 255
700.57312 710.97803 1.5836672 255 255 255
3984.533 1763.7041 13.652814 255 255 255
-2215.4998 -651.96027 -5.2048569 255 255 255
1565.7253 1592.2123 2.9281392 255 255 255
10704.905 6945.8115 30.466923 255 255 255
643.28253 883.13605 1.7864674 255 255 255
235.29758 187.48418 0.43486255 255 255 255
-3670.4487 -2681.5898 -12.635962 255 255 255
-2844.7471 -1588.6301 -8.0379248 255 255 255
969.96826 919.34454 1.1620022 255 255 255
604.7489 865.45074 1.7280278 255 255 255
945.21143 1016.8938 2.7809522 255 255 255
3556.3042 2774.2229 4.7774625 255 255 255
1188.3105 814.39734 2.7519629 255 255 255
970.52551 841.44861 2.3124282 255 255 255
317285.62 153768.09 719.51001 255 255 255
-9388.6582 -8911.2129 -28.953688 255 255 255
77324.734 79856.398 261.85977 255 255 255
654.49902 1291.4496 1.9448848 255 255 255
1178.1055 1149.636 2.5474205 255 255 255
2559.3291 2350.4426 3.8896146 255 255 255
1949.2949 2137.3083 4.3895321 255 255 255
610.02191 909.92401 1.7504439 255 255 255
720.19543 878.32758 1.8934842 255 255 255
-716.86493 -2760.8271 -6.8047819 255 255 255
712.13232 936.45642 1.8936167 255 255 255
1609.2659 1440.0371 3.0764844 255 255 255
4086.6211 2394.1257 5.8841596 255 255 255
1525.6356 1342.0996 2.975898 255 255 255
736.33783 1197.3685 1.9896982 255 255 255
-273.66119 -337.24149 -1.4876816 255 255 255
619.18964 1122.1034 1.8438317 255 255 255
4283.8525 4497.4829 14.914366 255 255 255
-4064.8242 -2744.4004 -11.685352 255 255 255
11944.989 5190.3706 12.957108 255 255 255
-165.26331 -150.817 -1.3577944 255 255 255
1066.0085 1155.9282 2.3885887 255 255 255
1730.561 1362.3013 2.5042839 255 255 255
1486.6285 1350.257 2.9149275 255 255 255
1018.608 953.01086 2.0442722 255 255 255
1612.6837 2717.1956 4.6446009 255 255 255
7995.5059 3025.1672 11.145315 255 255 255
3503.3274 2752.0591 4.7212858 255 255 255
3556.0457 2773.6179 4.7781701 255 255 255
-200.06453 -124.14812 -1.4662609 255 255 255
-2103.9236 -1441.3414 -6.6917067 255 255 255
2141.3247 870.29041 4.9485168 255 255 255
-68.987144 -219.31146 -1.4748788 255 255 255
-2883.7175 -891.50586 -6.7799788 255 255 255
2866.282 1579.9288 3.8459072 255 255 255
1614.5797 1409.6371 3.1128035 255 255 255
385.14026 103.71127 0.38994682 255 255 255
1545.0453 1560.2578 2.8959248 255 255 255
-2448.8762 -2938.4128 -9.4283085 255 255 255
1532.495 1430.8068 2.9727271 255 255 255
8865.0146 4571.3252 25.30789 255 255 255
1939.5315 856.26642 4.4448037 255 255 255
-1292.1635 -533.56171 -3.4686365 255 255 255
-1942.3999 -2371.9639 -4.0431418 255 255 255
-1183.9065 -1300.1968 -3.9811337 255 255 255
-702.74292 -735.25275 -2.7026019 255 255 255
-1625.2244 -2198.9915 -6.1760654 255 255 255
2118.0291 860.84943 5.0793047 255 255 255
1478.6064 1341.4607 2.9023211 255 255 255
2188.2205 909.91394 4.9451451 255 255 255
-818.17188 -344.57794 -2.755029 255 255 255
-1409.705 -945.38538 -3.1986263 255 255 255
-1757.8502 -1647.2233 -3.9618316 255 255 255
1531.4373 1323.3021 2.9954774 255 255 255
1386.9874 493.26611 3.2737217 255 255 255
-2730.4456 -707.82623 -6.2523394 255 255 255
-8095.0405 -2661.9312 -17.896416 255 255 255
1845.7448 1573.8741 3.3716197 255 255 255
-2073.4226 -1511.2849 -6.327198 255 255 255
-2181.8542 -1460.4391 -5.1058545 255 255 255
796.7807 814.7066 2.0111513 255 255 255
-612.92712 -151.68906 -1.9095757 255 255 255
3229.9995 4236.314 7.603734 255 255 255
1534.2356 1324.545 2.9951439 255 255 255
943.40265 874.26569 2.2495871 255 255 255
-659.24023 -696.91943 -2.058197 255 255 255
3231.0476 2155.9949 4.9055572 255 255 255
-18986.602 -9953.5674 -47.825291 255 255 255
5214.5059 2412.9587 7.6884365 255 255 255
1447.9778 1323.9088 2.8674572 255 255 255
-468.21805 -563.26849 -2.1985886 255 255 255
4606.7695 2179.834 7.0961547 255 255 255
-2281.2058 -2141.2344 -5.1590853 255 255 255
1925.8481 1892.2649 4.7542791 255 255 255
-1870.038 -4233.3037 -7.4935417 255 255 255
1971.6219 1603.6204 3.5342 255 255 255
1428.1458 877.71686 3.177727 255 255 255
7568.5757 4285.2881 8.0606527 255 255 255
5118.6587 2370.2195 7.5999799 255 255 255
12786.367 9240.1396 30.599207 255 255 255
618.26935 1119.3364 1.8431485 255 255 255
1299.2721 651.27057 3.1193373 255 255 255
832.69489 687.30939 1.8829336 255 255 255
446.73642 320.7886 0.8467629 255 255 255
4817.7036 1923.5172 8.1059303 255 255 255
8068.269 3044.4744 11.234422 255 255 255
-1395.6189 -812.66272 -3.4149969 255 255 255
2162.1833 883.21887 4.9665318 255 255 255
673.93341 931.58728 1.8427699 255 255 255
7281.3135 2515.1646 11.392092 255 255 255
-3278.6084 -3432.5259 -8.0335665 255 255 255
4288.874 1352.0764 6.569767 255 255 255
901.73462 1194.4213 2.244241 255 255 255
-2339.3176 -2156.99 -4.6913195 255 255 255
1772.0016 984.78204 3.7734885 255 255 255
-1474.8885 -1876.1766 -5.7773213 255 255 255
1734.5688 1234.9778 3.18242 255 255 255
-299.47162 -451.8978 -1.8052984 255 255 255
-749.98694 -297.69717 -2.134975 255 255 255
-2019.7826 -2420.063 -5.7575488 255 255 255
2286.4924 425.10889 2.3887036 255 255 255
602.24622 767.15454 1.4347683 255 255 255
3283.5022 1844.335 5.3722782 255 255 255
1963.7211 1595.0259 3.527755 255 255 255
1439.6259 1236.5708 2.8044844 255 255 255
523.86755 1290.9608 4.5467358 255 255 255
2475.8984 1630.7439 4.1945038 255 255 255
-2393.5396 -427.88232 -5.4857216 255 255 255
1491.4139 896.61292 3.2936065 255 255 255
1169.9131 938.79633 1.3749647 255 255 255
1861.224 1159.197 3.7224183 255 255 255
557.0719 963.24799 1.7070655 255 255 255
735.44122 1190.5492 1.9865063 255 255 255
1431.8379 1301.9567 2.8554811 255 255 255
-3081.7644 -1911.3622 -7.051722 255 255 255
1455.1033 1296.6826 2.8310027 255 255 255
1514.3721 1409.2942 2.9613717 255 255 255
-2475.4045 -440.75812 -5.6502085 255 255 255
-3139.2705 -1281.4595 -8.6755571 255 255 255
517.5719 441.50214 0.98543596 255 255 255
-1536.8402 -798.74957 -3.4450269 255 255 255
170832.2 350956.25 560.8877 255 255 255
-2022.0868 -346.88837 -4.9799037 255 255 255
1639.458 1782.4906 3.280252 255 255 255
2661.9373 2063.3306 7.5670428 255 255 255
4303.9385 2310.7944 6.3306427 255 255 255
-14234.726 -8105.7129 -22.153084 255 255 255
702.82898 797.63269 1.8528548 255 255 255
-2345.4993 -2985.5806 -9.2888851 255 255 255
-4873.6201 -1600.8124 -10.927666 255 255 255
-475.50912 -581.13141 -2.128829 255 255 255
1553.083 2470.2705 4.3260579 255 255 255
3333.9807 2540.3413 4.6979275 255 255 255
-427.12967 -107.14831 -2.2483101 255 255 255
-1359.8344 -2660.167 -7.0498915 255 255 255
1068.3986 1109.8741 2.3915062 255 255 255
1451.3878 1315.5343 2.8750181 255 255 255
2303.158 1329.7628 4.027379 255 255 255
-2451.0195 -1512.691 -7.5650935 255 255 255
13444.85 9974.1182 32.520355 255 255 255
8999.3613 2801.6096 14.030347 255 255 255
-26852.307 -26853.574 -81.779205 255 255 255
8009.4561 2655.302 12.417382 255 255 255
4674.2183 2273.418 7.0253534 255 255 255
1982.6561 874.45532 3.3234739 255 255 255
4016.8665 1922.3862 5.1292386 255 255 255
5926.3584 2915.6125 7.8678207 255 255 255
884.97314 840.71393 2.1597931 255 255 255
241.46947 147.2392 0.43132842 255 255 255
-1795.1124 -1015.9499 -5.6915483 255 255 255
-871.28375 -1234.4106 -4.0977702 255 255 255
23393.68 32279.154 59.863426 255 255 255
