ply
format ascii 1.0
comment PCL generated
element vertex 1107
property float x
property float y
property float z
property uchar red
property uchar green
property uchar blue
element face 0
element camera 0
property float view_px
property float view_py
property float view_pz
property float x_axisx
property float x_axisy
property float x_axisz
property float y_axisx
property float y_axisy
property float y_axisz
property float z_axisx
property float z_axisy
property float z_axisz
property float focal
property float scalex
property float scaley
property float centerx
property float centery
property int viewportx
property int viewporty
property float k1
property float k2
end_header
-969.53076 -659.83905 -2.1797519 255 255 255
331.34586 941.2652 1.6528733 255 255 255
1667.1699 6195.5513 10.262414 255 255 255
-775.25928 -612.95441 -1.9732871 255 255 255
-543.01013 -1535.9871 -2.8404653 255 255 255
-1196.2666 -2093.2153 -5.3403029 255 255 255
5773.3047 1736.7983 18.307001 255 255 255
-661.34149 -523.80164 -1.9131645 255 255 255
-1049.9071 -1636.3021 -4.2279854 255 255 255
-477.34274 -289.50558 -1.5764199 255 255 255
1148.1697 2284.4407 4.2104855 255 255 255
393.98465 715.76593 1.4568098 255 255 255
1212.0938 1406.5353 2.586102 255 255 255
-617.97473 -478.86667 -2.6546984 255 255 255
1548.9905 1315.9055 1.8434958 255 255 255
418.44958 561.22949 0.58470291 255 255 255
319.37976 1473.2445 2.0921209 255 255 255
3019.0676 1856.3325 4.4586773 255 255 255
432.94794 918.78394 1.6612104 255 255 255
372.70242 894.7146 1.5998077 255 255 255
3897.0291 4842.5591 9.5685482 255 255 255
-567.32239 -1502.7826 -3.9269137 255 255 255
1745.7762 2625.5308 4.9208503 255 255 255
539.92877 1019.4675 1.81836 255 255 255
444.60785 727.47552 1.5143669 255 255 255
2059.2324 3509.6404 7.4240556 255 255 255
487.63873 1084.3643 1.8309743 255 255 255
-93.85141 -71.900146 -1.1475265 255 255 255
289.8418 588.80878 1.2421803 255 255 255
322.02411 293.86118 0.4342469 255 255 255
912.87006 1658.6483 4.4276814 255 255 255
336.89645 593.74475 1.2936248 255 255 255
-107.03071 -198.36865 -1.3099843 255 255 255
-1273.2053 -1391.2715 -2.725642 255 255 255
-1343.8929 -1246.0377 -2.7655542 255 255 255
2240.936 5494.4795 11.371615 255 255 255
818.26392 480.1835 1.835794 255 255 255
361.5986 1549.3425 3.1105714 255 255 255
988.48529 848.61548 1.3231146 255 255 255
28985.867 62871.859 122.40609 255 255 255
655.91058 2186.4739 3.8304985 255 255 255
484.39474 542.59442 1.4332694 255 255 255
940.28986 1954.8955 3.3849916 255 255 255
997.07788 1435.1533 1.7168354 255 255 255
-1711.2842 -3067.7959 -7.7944717 255 255 255
-437.37729 -323.63971 -2.1034238 255 255 255
-1162.7155 -1177.9601 -4.9139676 255 255 255
258.97995 193.745 0.30856881 255 255 255
4287.7622 10802.157 19.372334 255 255 255
344.75534 900.66193 1.5860487 255 255 255
287.91492 572.73169 1.3136363 255 255 255
311.24918 925.41229 1.590498 255 255 255
-382.42953 -315.18439 -1.6447114 255 255 255
718.33496 1827.1703 2.8375149 255 255 255
1234.0159 1448.7097 1.9682652 255 255 255
1695.228 4819.1436 9.4381132 255 255 255
2559.3345 3780.3684 8.0828657 255 255 255
904.6319 1718.25 2.5126269 255 255 255
-2057.1328 -2738.1931 -8.6820469 255 255 255
-333.49252 -382.45233 -1.7714021 255 255 255
-1368.4589 -2211.4373 -4.5321012 255 255 255
-152.04167 -634.47919 -2.011481 255 255 255
8547.6436 25522.475 46.21196 255 255 255
-586.04865 -809.62268 -2.2746003 255 255 255
2900.3459 2230.9287 4.8870687 255 255 255
-452.16977 -209.22005 -1.9028106 255 255 255
2253.4902 1617.7161 7.6100111 255 255 255
-568.37006 -820.79675 -2.5427387 255 255 255
-487.11746 -418.22211 -1.6879966 255 255 255
332.56302 414.21948 0.47453612 255 255 255
-2286.7434 -1262.8325 -7.3788362 255 255 255
-913.5744 -1922.6935 -5.9928741 255 255 255
1018.0447 2800.9958 4.2366691 255 255 255
6220.2681 10383.057 18.824421 255 255 255
-994.33618 -1568.6534 -3.8568778 255 255 255
4948.2671 3187.5784 5.6911192 255 255 255
-357.9798 -1170.6202 -2.8714349 255 255 255
-819.55927 -781.4577 -2.1718645 255 255 255
23445.16 73486.227 122.67481 255 255 255
496.90567 1120.4805 1.8662581 255 255 255
454.92886 1067.0476 1.7955954 255 255 255
1184.7346 3612.8445 5.517169 255 255 255
887.60486 731.20959 2.1735923 255 255 255
842.98102 1187.7034 2.1746631 255 255 255
506.01947 472.05817 0.69542158 255 255 255
1361.1249 2001.5173 3.8210866 255 255 255
525.03412 4157.1499 6.7230058 255 255 255
759.6048 1385.7793 3.3447235 255 255 255
3124.0703 7984.7593 15.153366 255 255 255
-462.73959 -1696.1893 -3.4609177 255 255 255
-3301.3479 -7817.063 -18.90464 255 255 255
304.3985 676.19873 0.99347275 255 255 255
2060.2952 4911.2969 11.993173 255 255 255
582.98804 1225.2596 2.0002825 255 255 255
494.68042 657.19232 1.362762 255 255 255
287.12543 601.73224 1.1797616 255 255 255
-2596.1938 -4024.354 -10.831342 255 255 255
-46.752827 -109.83442 -1.154217 255 255 255
-111.60461 -56.669025 -1.2465056 255 255 255
2825.4553 6953.1953 16.466915 255 255 255
747.84558 1207.7094 2.1080317 255 255 255
-554.03674 -992.08228 -3.0872939 255 255 255
782.15472 1189.595 1.378208 255 255 255
400.96622 568.76715 1.3432975 255 255 255
-102.54765 -35.800259 -1.1166681 255 255 255
713.2005 785.69678 1.7517332 255 255 255
9954.8691 16975.891 42.862694 255 255 255
-1102.6531 -2487.5217 -5.9697299 255 255 255
-98.44574 -698.94397 -2.2000747 255 255 255
735.54077 1831.2548 3.2260759 255 255 255
483.28192 945.83551 1.7206696 255 255 255
1886.1421 1462.1823 3.3414028 255 255 255
1803.8496 1911.4562 2.6476595 255 255 255
-33934.262 -71390.172 -141.74973 255 255 255
481.69626 406.95068 0.67531949 255 255 255
715.97498 2171.4194 3.2869415 255 255 255
654.479 1006.167 1.9063729 255 255 255
508.19315 385.08679 0.62843186 255 255 255
3961.9824 3530.5916 11.935761 255 255 255
-632.1745 -587.90326 -2.5795863 255 255 255
441.00098 189.3033 0.47964075 255 255 255
174.1248 159.7887 0.36615565 255 255 255
562.8844 622.04913 0.80332363 255 255 255
-1066.6901 -3760.4087 -6.8880458 255 255 255
5375.4951 3246.1738 5.9814591 255 255 255
-242.97627 -210.51703 -1.5815359 255 255 255
-711.04346 -1073.225 -3.1321652 255 255 255
270.57578 378.71167 1.0108087 255 255 255
703.19751 632.6839 1.7882955 255 255 255
-951.96362 -6802.4863 -12.422774 255 255 255
-2239.6426 -1580.4835 -3.8167391 255 255 255
497.2952 1364.568 2.1812594 255 255 255
1083.4034 1593.1031 1.5867441 255 255 255
1326.9315 4603.5503 7.4831896 255 255 255
923.37799 1131.5205 1.3284957 255 255 255
209.02209 461.8244 0.69613057 255 255 255
-1508.828 -4220.8848 -6.6508217 255 255 255
-2384.3245 -14845.214 -27.251339 255 255 255
468.64117 701.49445 1.5199116 255 255 255
621.16956 1157.8969 1.975491 255 255 255
1923.1903 4883.2344 7.7794752 255 255 255
3226.446 4331.3242 8.6045542 255 255 255
-723.22217 -4876.0957 -9.7829142 255 255 255
568.02466 632.64441 1.4659681 255 255 255
-20118.955 -29576.275 -52.001869 255 255 255
694.64526 1585.6283 2.7299027 255 255 255
633.52893 504.98633 1.7237078 255 255 255
354.29681 483.16223 1.2170336 255 255 255
-899.99951 -1703.1256 -4.8219056 255 255 255
447.95615 501.17966 1.3583575 255 255 255
477.71841 823.1416 1.1287211 255 255 255
1066.2087 1161.7714 1.4736985 255 255 255
648.27875 1219.8873 2.0351975 255 255 255
486.63406 960.62158 1.732846 255 255 255
599.34967 498.07159 1.5970364 255 255 255
2583.5481 3269.5005 4.7714419 255 255 255
-35637.695 -32164.363 -47.581291 255 255 255
627.16382 713.36548 1.711158 255 255 255
-841.26038 -481.28641 -2.0771828 255 255 255
664.94385 976.85669 1.4209372 255 255 255
335.78305 940.41815 1.6175859 255 255 255
512.99512 902.02594 1.7105243 255 255 255
631.73926 544.5033 1.657182 255 255 255
-808.58411 -755.20667 -2.0133073 255 255 255
4378.3457 2582.3997 5.447392 255 255 255
700.14893 471.71051 1.7814004 255 255 255
530.58545 693.55634 2.1525772 255 255 255
990.49353 1685.89 2.8809268 255 255 255
7663.0674 10651.046 28.553558 255 255 255
215.70912 404.63666 0.71014971 255 255 255
-794.71716 -473.90277 -2.0469811 255 255 255
549.33502 972.69922 1.792786 255 255 255
1688.0153 6262.9941 9.604764 255 255 255
3022.4402 1866.8989 4.4591112 255 255 255
924.88049 2069.4712 3.4639423 255 255 255
536.51239 1483.8436 3.324316 255 255 255
774.3476 813.02875 1.9388165 255 255 255
361.54449 897.25946 1.5944242 255 255 255
444.05243 915.77838 1.6670977 255 255 255
489.16028 965.93567 1.7385855 255 255 255
749.11304 1076.5486 2.0348237 255 255 255
-17022.459 -27290.547 -66.070061 255 255 255
272.75854 659.63696 1.2831231 255 255 255
1555.1243 4550.188 7.1235514 255 255 255
-3422.5972 -23198.002 -42.859642 255 255 255
2791.1345 3007.3523 5.7576623 255 255 255
1349.6927 3975.2268 6.815248 255 255 255
4329.1387 2585.4917 5.4047351 255 255 255
281.94907 893.79187 1.5429553 255 255 255
678.61816 933.03082 1.88561 255 255 255
538.71283 1288.8912 2.0212226 255 255 255
756.76105 3865.0247 6.1773362 255 255 255
4350.9536 2581.7642 5.4202189 255 255 255
325.5813 1014.467 1.6819278 255 255 255
577.21057 1155.9873 1.9452089 255 255 255
2538.3289 4514.1323 8.3054981 255 255 255
4368.6929 2604.075 5.429215 255 255 255
-8542.0557 -9051.2881 -30.494371 255 255 255
-9173.958 -22004.918 -45.782902 255 255 255
-114.22895 -167.03705 -1.3282872 255 255 255
-58.730419 -170.33339 -1.2856257 255 255 255
-2395.1584 -1732.0088 -4.5346632 255 255 255
327.14874 813.82275 1.4931843 255 255 255
-5289.4116 -10168.248 -30.062902 255 255 255
616.98328 1223.0641 2.0206494 255 255 255
749.02789 809.21417 1.9054134 255 255 255
394.03088 972.27448 1.6794577 255 255 255
-8276.0098 -6617.8369 -13.861226 255 255 255
1133.6571 1636.1627 3.240196 255 255 255
885.07544 2731.9766 6.0386939 255 255 255
-1091.4053 -1081.0499 -2.8572516 255 255 255
605.86505 1351.5437 1.9897084 255 255 255
1365.6791 1985.1102 2.184833 255 255 255
419.99768 915.16241 1.6485636 255 255 255
2790.6458 2359.9761 3.5820739 255 255 255
541.7937 1082.1531 1.988047 255 255 255
379.90341 880.09497 1.5904869 255 255 255
666.2207 169.89737 0.75761718 255 255 255
349.01846 1133.5305 1.8046041 255 255 255
3264.3892 2006.5409 4.6538744 255 255 255
4277.7891 2828.0337 5.27005 255 255 255
994.94147 2020.6074 3.5900054 255 255 255
-904.64587 -814.48773 -2.1451464 255 255 255
357.48993 1058.7028 1.7407308 255 255 255
-2029.2555 -2420.696 -6.967907 255 255 255
4213.9331 2793.5325 5.2432566 255 255 255
-826.64929 -763.85168 -2.0433311 255 255 255
-910.47528 -2097.1145 -4.4509921 255 255 255
-104656.16 -90189.961 -261.21985 255 255 255
-436.04562 -705.70142 -2.6574476 255 255 255
930.44275 1078.4768 3.1681113 255 255 255
-522.86084 -578.1217 -2.0523427 255 255 255
499.28833 1374.186 2.0697792 255 255 255
-666.20105 -1459.9081 -3.7041941 255 255 255
5746.1152 12796.946 26.886526 255 255 255
431.31827 840.92694 1.5947205 255 255 255
492.14478 517.58954 1.4310334 255 255 255
464.43878 1545.6512 2.1980267 255 255 255
147.4386 506.6102 1.0440593 255 255 255
179.41638 703.74298 1.2977984 255 255 255
2984.0952 5640.6943 7.5073938 255 255 255
-617.29816 -1335.748 -3.3314717 255 255 255
-2862.3123 -8657.1553 -13.064371 255 255 255
380.46991 956.81403 1.6576225 255 255 255
-1352.6709 -2542.1006 -4.5964026 255 255 255
5858.1372 3291.2798 6.3185024 255 255 255
885.26178 1246.3809 2.2412539 255 255 255
-1527.3499 -1417.5159 -5.5671062 255 255 255
466.89948 1171.3369 1.8887655 255 255 255
868.71112 1423.9393 1.5414448 255 255 255
5979.3853 3570.6262 8.5315552 255 255 255
754.92371 4574.9692 7.2377815 255 255 255
444.67288 807.83099 1.5792311 255 255 255
1192.2021 1295.2054 3.8750386 255 255 255
297.27634 1216.4749 1.8603663 255 255 255
4259.437 2856.7854 5.2458858 255 255 255
-1073.7216 -2703.0166 -6.3347044 255 255 255
441.14731 910.31525 1.6600237 255 255 255
495.77292 839.31067 1.3997251 255 255 255
413.86877 986.02802 1.7027767 255 255 255
3265.6863 1672.0787 4.8433332 255 255 255
639.50616 1075.6786 1.9334023 255 255 255
56025.828 29473.326 77.588661 255 255 255
9602.0615 17437.211 32.852207 255 255 255
1080.9316 593.07043 1.3256385 255 255 255
886.43121 1381.2802 1.4854788 255 255 255
866.56427 1100.1758 1.8783967 255 255 255
2513.9197 2367.7778 3.7695947 255 255 255
-962.94641 -2334.1528 -5.2746663 255 255 255
-3740.3145 -18471.922 -29.901726 255 255 255
1466.8511 1807.7411 2.3133171 255 255 255
878.46112 623.84503 1.0816203 255 255 255
3488.7742 6609.064 13.148293 255 255 255
798.15485 934.14673 1.222838 255 255 255
-1721.5017 -3610.1274 -7.2716079 255 255 255
3011.1899 1851.0553 4.445375 255 255 255
2182.0317 7315.4097 14.049438 255 255 255
735.58325 1516.9413 2.2970381 255 255 255
356.59915 1057.4048 1.7368257 255 255 255
621.17395 1483.8788 2.492588 255 255 255
315.02689 585.70013 1.2640127 255 255 255
3427.6731 6070.4688 12.513316 255 255 255
1356.7689 1010.9253 3.727695 255 255 255
-2060.7771 -1163.1772 -3.5184228 255 255 255
476.93246 1026.3024 1.7781819 255 255 255
793.84644 862.46655 1.9816221 255 255 255
-2651.8979 -5115.6211 -11.079279 255 255 255
-968.37 -2784.5198 -5.0488195 255 255 255
1138.7838 1346.0839 2.5209222 255 255 255
-337.49716 -221.40451 -1.9081627 255 255 255
-761.61981 -599.13312 -1.9963212 255 255 255
1626.1593 1416.5732 2.8418627 255 255 255
523.60382 729.03351 0.82451016 255 255 255
433.397 980.71313 1.7132157 255 255 255
1834.8058 1510.3588 2.6039886 255 255 255
588.2356 1034.766 1.868367 255 255 255
875.36176 553.98987 2.0822639 255 255 255
-358.65024 -387.75565 -1.7275056 255 255 255
205.00816 1116.2291 1.742275 255 255 255
702.43585 3507.1328 5.6372418 255 255 255
-888.77954 -1522.2596 -3.7179224 255 255 255
1456.6088 2790.9832 5.8265958 255 255 255
-410.6683 -531.68359 -2.2598519 255 255 255
5375.8481 3551.5674 6.6845527 255 255 255
2049.3452 1721.3478 2.6864426 255 255 255
1606.3445 1121.5253 1.9940038 255 255 255
820.74463 1799.8329 3.5053906 255 255 255
230.13568 651.63861 1.1327245 255 255 255
667.25195 1022.267 0.98865151 255 255 255
4355.9561 2592.2126 5.42101 255 255 255
-57.441189 -105.04758 -1.1720377 255 255 255
224.42734 157.59518 0.29614902 255 255 255
-1754.7184 -1825.2502 -7.3132277 255 255 255
5193.5684 2865.9639 5.9792681 255 255 255
847.03748 1081.2969 2.1281044 255 255 255
-3649.6787 -4254.9771 -9.3509235 255 255 255
177.79829 538.68329 1.0281577 255 255 255
605.65552 499.35767 1.6084346 255 255 255
268.65601 911.52423 1.5544145 255 255 255
523.18732 1031.3071 1.8148857 255 255 255
-535.21246 -662.82178 -1.8504405 255 255 255
11017.087 16191.445 37.102928 255 255 255
848.73206 928.15173 2.0653136 255 255 255
561.88312 921.7265 1.7660201 255 255 255
383.37411 870.38904 1.5864414 255 255 255
6252.1396 3312.2537 6.5776224 255 255 255
-654.32343 -764.14532 -2.8308156 255 255 255
535.22748 539.33105 1.5066717 255 255 255
478.80014 1204.67 1.9254079 255 255 255
442.18658 823.81219 1.5913653 255 255 255
592.34027 440.74701 0.76565367 255 255 255
848.75391 1350.6466 1.4143487 255 255 255
264.05997 515.5531 1.1425447 255 255 255
545.61108 983.81799 1.7992233 255 255 255
301.93939 412.86771 0.7415328 255 255 255
-3485.312 -1652.5513 -4.9466429 255 255 255
-4975.9902 -16438.713 -30.027235 255 255 255
411.73849 724.50159 1.5981953 255 255 255
6187.208 3393.2415 6.4933548 255 255 255
271.08176 997.60925 1.6424023 255 255 255
237.78813 632.72522 1.2487342 255 255 255
1840.354 4142.5132 6.5529456 255 255 255
-1986.5123 -2243.3306 -5.3706899 255 255 255
-911.06555 -2169.4648 -4.9768977 255 255 255
542.02386 1277.3029 2.0154448 255 255 255
514.15326 950.15021 1.7494897 255 255 255
-7754.7114 -9005.1885 -26.36116 255 255 255
499.81146 1022.4033 1.7899612 255 255 255
217.98851 368.74646 0.72544485 255 255 255
-298.04031 -246.28442 -1.7756871 255 255 255
335.42984 695.30103 1.228756 255 255 255
1466.8088 1624.9695 1.9275916 255 255 255
-127.16255 -152.75296 -1.3363386 255 255 255
1624.8593 1423.1255 2.8405354 255 255 255
652.44135 683.68793 0.81057453 255 255 255
-252.5849 -321.60318 -2.0372019 255 255 255
158.6281 1069.5778 1.6857599 255 255 255
564.01697 1559.754 2.7219934 255 255 255
-996.86224 -1209.3567 -2.575598 255 255 255
635.30377 1023.6176 1.9781786 255 255 255
400.51474 858.77667 1.4419163 255 255 255
899.72638 681.9303 2.0951393 255 255 255
10255.833 5616.1919 11.158373 255 255 255
684.58221 612.91541 0.82992965 255 255 255
-6379.8218 -1555.7397 -22.150917 255 255 255
649.45074 982.96368 1.8866758 255 255 255
724.87415 545.26306 0.92226034 255 255 255
-31.610901 -133.99588 -1.3312367 255 255 255
541.87689 979.67883 1.7913224 255 255 255
457.59189 871.61456 1.6421468 255 255 255
529.52881 1123.1971 1.8888134 255 255 255
1095.1936 470.1488 1.3283334 255 255 255
560.80322 753.81268 1.4122868 255 255 255
-582.52411 -893.28491 -2.6056452 255 255 255
502.05301 900.62994 1.6770656 255 255 255
264.80203 1150.0613 1.7874039 255 255 255
5559.1431 3437.3196 6.0703297 255 255 255
373.05081 381.29062 1.169978 255 255 255
-2029.2166 -4340.6567 -9.6861696 255 255 255
276.08173 453.54745 1.0924764 255 255 255
769.50897 1336.1742 2.7333267 255 255 255
-754.21167 -1988.1595 -3.9679673 255 255 255
587.88989 582.02631 1.6007904 255 255 255
-832.63702 -960.63391 -3.5139954 255 255 255
-4197.9741 -9121.5635 -14.919726 255 255 255
527.19476 2405.1057 3.9660702 255 255 255
-527.59924 -584.49048 -2.196105 255 255 255
5088.957 12553.17 23.558403 255 255 255
485.58313 1311.9425 2.0180681 255 255 255
656.98346 1067.4785 1.9446048 255 255 255
5566.1328 3442.0828 6.0743141 255 255 255
-251.09338 -297.53055 -1.49437 255 255 255
-1237.8759 -1698.3091 -4.3140683 255 255 255
-526.82568 -809.8385 -3.0395072 255 255 255
-8128.6699 -35539.551 -58.837185 255 255 255
1884.5195 1461.5172 3.338953 255 255 255
310.24081 1216.0745 1.8623205 255 255 255
-1135.2838 -3107.886 -5.5836697 255 255 255
-5927.9336 -9426.7393 -25.745113 255 255 255
486.94623 911.58221 1.5262396 255 255 255
1760.5928 4485.3501 7.5013552 255 255 255
-435.27371 -914.15881 -2.3767381 255 255 255
724.57086 759.12585 1.1387906 255 255 255
2289.5403 6442.832 9.9779778 255 255 255
363.24652 641.33356 1.3615494 255 255 255
708.63348 2745.2319 3.9833858 255 255 255
230.77382 491.83359 1.0846994 255 255 255
2473.4607 5362.1147 9.3392096 255 255 255
475.59183 1140.1788 1.8669316 255 255 255
-2908.6875 -8426.6709 -13.416161 255 255 255
-806.34882 -1555.845 -4.0049009 255 255 255
511.04236 1174.9191 1.9162353 255 255 255
-1459.183 -1451.2094 -5.9971395 255 255 255
679.76984 945.10217 2.0856128 255 255 255
505.55518 1029.8292 1.80146 255 255 255
4396.3047 2572.8135 5.4690371 255 255 255
-125.8302 -133.4391 -1.3873419 255 255 255
-36543.543 -63810.613 -134.33122 255 255 255
291.78113 737.27679 1.0585145 255 255 255
364.55481 720.60614 1.4321716 255 255 255
-874.17328 -1933.0482 -3.8284175 255 255 255
286.93839 363.24463 1.021094 255 255 255
536.44775 1007.2559 1.8084532 255 255 255
-619.62079 -1685.2673 -3.4022357 255 255 255
-251.80066 -279.72989 -1.4557211 255 255 255
749.74316 730.93317 1.0181365 255 255 255
349.9209 1046.5154 1.7228187 255 255 255
719.91669 925.16791 1.9232581 255 255 255
111582.37 84664.828 318.14648 255 255 255
-1001.6838 -1742.3984 -4.5246682 255 255 255
1109.5724 1142.0048 2.4327745 255 255 255
367.47321 714.68225 1.4304409 255 255 255
576.51428 401.48233 0.78385901 255 255 255
4171.459 2777.5999 5.2086034 255 255 255
-1773.8033 -1616.1748 -3.7420304 255 255 255
1162.6426 1523.793 2.6085076 255 255 255
657.07251 961.79083 1.8760332 255 255 255
-622.39813 -2994.3301 -5.6615529 255 255 255
-1251.0103 -1980.3452 -3.2172782 255 255 255
582.26483 1023.2449 1.8520633 255 255 255
183.32896 953.8725 1.511065 255 255 255
-568.07642 -538.08856 -2.8977797 255 255 255
441.24234 153.40329 0.46938401 255 255 255
1684.6038 2457.7339 4.6733284 255 255 255
-692.39526 -1057.0868 -2.6091568 255 255 255
-381.94348 -513.47223 -2.1753371 255 255 255
945.94501 1234.0183 2.290509 255 255 255
-5145.9175 -4054.9009 -8.8525057 255 255 255
685.02911 925.51117 1.8849413 255 255 255
-737.58716 -1609.8885 -3.4101264 255 255 255
393.18674 982.93799 1.6873946 255 255 255
405.39597 457.69247 1.2688011 255 255 255
2164.2312 10493.793 15.96075 255 255 255
-53.076324 -171.68768 -1.5417857 255 255 255
-703.95166 -971.01996 -3.8373668 255 255 255
-1126.0762 -1458.2235 -2.8248353 255 255 255
3207.9558 1943.8884 4.6325636 255 255 255
263.2771 715.64844 1.3542539 255 255 255
2789.0471 3486.7803 7.4445348 255 255 255
1453.4325 2354.7451 5.0969253 255 255 255
-292.64096 -553.91156 -1.8956112 255 255 255
-1489.8492 -1424.0531 -5.9099584 255 255 255
702.18164 942.43567 1.9139404 255 255 255
635.54688 2148.0166 3.388422 255 255 255
-1941.4015 -3913.3965 -7.0381618 255 255 255
611.17517 1065.4333 1.8336123 255 255 255
-620.19757 -520.16565 -2.4117837 255 255 255
-2002.1129 -3588.9556 -8.70117 255 255 255
603.62262 1429.6792 2.1623714 255 255 255
450.5809 1191.7947 2.0182738 255 255 255
718.24243 1132.929 2.0363224 255 255 255
520.37646 650.48181 1.5436836 255 255 255
-102.64497 -151.47112 -1.2646353 255 255 255
-917.33374 -938.81622 -2.6475687 255 255 255
428.5174 533.83167 0.69988185 255 255 255
-3328.5173 -3832.8037 -12.476893 255 255 255
-1782.5361 -3443.8853 -6.030889 255 255 255
201.88858 824.18018 1.43957 255 255 255
507.78375 398.77026 0.81510997 255 255 255
617.18433 859.68726 1.5974864 255 255 255
14270.6 8383.0527 19.179064 255 255 255
-1339.3217 -3643.0085 -8.6283541 255 255 255
1004.9716 1462.075 3.0989652 255 255 255
290.17166 554.04504 1.2081964 255 255 255
812.64606 1342.1711 1.3966514 255 255 255
1201.6576 1614.6315 2.4300265 255 255 255
596.12878 2290.6245 3.8850422 255 255 255
643.08777 712.5174 1.730554 255 255 255
1426.9943 726.53339 1.9020369 255 255 255
565.73914 749.22589 1.6577781 255 255 255
460.92563 963.97443 1.6601073 255 255 255
1008.8633 2309.0815 3.6079714 255 255 255
252.96452 539.6369 1.1578735 255 255 255
2057.0405 4646.041 11.45594 255 255 255
-1337.1074 -4244.7471 -6.9473825 255 255 255
-465.07355 -507.8179 -1.9997088 255 255 255
2763.5786 1312.8105 4.5160432 255 255 255
592.3125 2800.9583 4.6565299 255 255 255
433.52493 237.14796 0.48972568 255 255 255
-9841.7393 -8975.4805 -16.517282 255 255 255
1076.3279 2124.8586 3.7578511 255 255 255
-1420.3328 -4770.1099 -8.2876625 255 255 255
-1346.243 -1350.5955 -4.7387886 255 255 255
437.2356 988.98737 1.7196126 255 255 255
413.96054 1408.2931 2.0659776 255 255 255
-289.9913 -325.81378 -1.508558 255 255 255
474.17133 559.09692 1.4379888 255 255 255
2279.2661 1841.7317 3.7101772 255 255 255
3634.9148 7471.6567 11.548669 255 255 255
488.15778 451.7662 0.66131037 255 255 255
-912.49792 -1148.7184 -3.8625576 255 255 255
-413.67203 -246.08075 -1.7508184 255 255 255
816.33185 2201.6509 3.8128958 255 255 255
-605.49493 -689.45831 -1.8399987 255 255 255
940.11304 1168.7518 1.4546708 255 255 255
-632.53699 -1269.7509 -3.3124113 255 255 255
1734.1188 1871.2142 2.2339764 255 255 255
-251.26851 -197.2628 -1.6722157 255 255 255
3277.3916 7146.5059 13.334199 255 255 255
723.90448 2049.4705 3.3750052 255 255 255
-1042.5948 -2430.1057 -4.468544 255 255 255
-494.09784 -341.55539 -1.5924928 255 255 255
-2238.5486 -3189.6321 -8.6130524 255 255 255
269.93558 732.05408 1.374441 255 255 255
55669.195 63546.699 188.98166 255 255 255
619.93512 871.6286 1.833577 255 255 255
-628.31787 -635.61255 -2.5006623 255 255 255
-943.80707 -2172.8384 -5.9784889 255 255 255
665.35181 1014.9652 1.9201225 255 255 255
-300.11179 -177.73573 -1.3463988 255 255 255
1514.9697 5733.252 9.6594715 255 255 255
-1146.7615 -1407.9431 -2.7837317 255 255 255
-231.94814 -727.56689 -2.0729434 255 255 255
712.93823 388.80371 0.86338145 255 255 255
-1574.6722 -1700.9991 -6.4751544 255 255 255
435.57376 678.91321 1.0818239 255 255 255
-812.70441 -1277.317 -2.9731765 255 255 255
-1034.8746 -1747.9576 -4.515696 255 255 255
-675.71039 -620.40405 -1.972005 255 255 255
298.63602 723.92108 1.2405363 255 255 255
275.19427 290.70486 0.94314939 255 255 255
820.22473 2044.6299 3.3074417 255 255 255
474.48129 1712.2821 3.5318074 255 255 255
918.23401 1693.8396 2.5056806 255 255 255
-555.83069 -1078.8193 -3.137423 255 255 255
-533.3291 -620.20294 -2.3813961 255 255 255
503.01224 1009.9277 1.7850243 255 255 255
-781.59094 -1535.7773 -3.1843565 255 255 255
-1537.6078 -3019.5557 -9.0299368 255 255 255
740.57654 1000.5562 1.9048405 255 255 255
5676.5205 3697.4978 6.0661631 255 255 255
298.08783 1369.7407 2.547086 255 255 255
174.73248 681.68878 1.2698929 255 255 255
793.5777 862.29077 1.9839146 255 255 255
525.34479 1097.0226 1.8977228 255 255 255
663.61694 1107.0626 1.9756021 255 255 255
-114.97911 -180.54942 -1.4398595 255 255 255
325.23035 383.61865 0.49882627 255 255 255
-144.73274 -222.00833 -1.3979023 255 255 255
830.82434 569.69934 2.0108728 255 255 255
-888.2265 -1102.0922 -3.2296767 255 255 255
-146.50475 -115.16893 -1.2811221 255 255 255
-465.85538 -594.68549 -2.4389949 255 255 255
578.02655 1242.7864 2.0114157 255 255 255
-2387.4172 -2262.8889 -9.5484238 255 255 255
646.37982 543.57556 1.6815739 255 255 255
9039.2881 15661.861 36.257614 255 255 255
829.7738 782.02655 2.0009649 255 255 255
-38.54023 -148.59894 -1.238269 255 255 255
860.82684 925.91174 2.0829992 255 255 255
744.11761 1591.5001 2.3478961 255 255 255
569.23853 1029.7585 1.8489816 255 255 255
396.45218 1021.6331 1.6412675 255 255 255
7153.7827 21359.293 34.723587 255 255 255
-912.4176 -1135.2783 -2.3924325 255 255 255
-383.3186 -1074.3816 -2.9233463 255 255 255
865.05597 1153.4996 1.4627085 255 255 255
468.72977 740.65149 1.8988843 255 255 255
798.09973 1261.8047 1.3229977 255 255 255
706.44629 789.80823 1.8432541 255 255 255
32439.945 22495.568 52.137405 255 255 255
-283.884 -693.04901 -2.3156412 255 255 255
893.22485 1038.7355 2.3077273 255 255 255
3633.0667 10724.064 18.320803 255 255 255
186.03278 354.25092 0.87912238 255 255 255
357.91138 1290.9321 1.9456583 255 255 255
-142461.89 -654938.75 -1187.3829 255 255 255
888.52271 1223.1041 2.7079751 255 255 255
794.4491 1412.6212 2.8764284 255 255 255
643.57819 1317.8533 2.1030262 255 255 255
653.89941 1005.1849 1.9045928 255 255 255
720.42133 686.67615 1.9365429 255 255 255
1507.3887 2266.406 4.6870785 255 255 255
1583.7249 3106.762 5.6205201 255 255 255
818.02771 1597.0199 2.7634425 255 255 255
-497.42273 -630.66943 -1.7666857 255 255 255
-1267.8029 -1731.5812 -3.3296795 255 255 255
-1458.6071 -1401.0935 -2.8635869 255 255 255
-6054.251 -12579.883 -26.479187 255 255 255
-68.127449 -89.907791 -1.108059 255 255 255
256.4985 174.30371 0.37956029 255 255 255
-564.44708 -1999.7581 -4.5861745 255 255 255
-4565.8354 -5756.7744 -13.469972 255 255 255
-4261.98 -4453.0703 -9.5287457 255 255 255
412.46225 1222.2941 2.2839723 255 255 255
568.91876 1133.6752 1.9228576 255 255 255
686.19769 1122.103 2.0043075 255 255 255
-12209.772 -19235.615 -41.974136 255 255 255
1143.0029 6338.4624 8.9085264 255 255 255
9957.7627 4475.7183 12.019691 255 255 255
52.051308 220.58192 0.56091952 255 255 255
-108.74152 -175.11362 -1.2756742 255 255 255
1092.8253 546.73206 4.361948 255 255 255
-189.28061 -266.27689 -1.4500206 255 255 255
4668.6714 6990.9824 17.052876 255 255 255
-82.777573 -90.667747 -1.1667076 255 255 255
4109.8105 6967.1465 15.860872 255 255 255
33698.945 22117.002 50.265663 255 255 255
-364.69855 -774.09833 -2.4376082 255 255 255
5984.375 10678.047 14.638345 255 255 255
-1973.0527 -3196.4695 -9.6437569 255 255 255
-58.35944 -111.29908 -1.2789313 255 255 255
3537.9307 2626.7039 4.7212586 255 255 255
750.94086 6507.2329 12.899447 255 255 255
908.49542 1043.2587 1.964265 255 255 255
-597.09705 -1347.6438 -3.7388818 255 255 255
-2666.8093 -1513.6458 -5.4314132 255 255 255
543.40131 1274.4941 2.095258 255 255 255
719.92175 1156.8231 2.05305 255 255 255
453.9397 995.04755 1.7380404 255 255 255
-568.07062 -1143.7432 -3.0639167 255 255 255
-15247.937 -73434.562 -116.64404 255 255 255
1933.8776 2266.5132 6.5410419 255 255 255
447.6915 1511.3756 2.1647379 255 255 255
-3939.3008 -8370.7227 -16.037037 255 255 255
648.7226 813.94501 1.6470686 255 255 255
-527.03156 -833.55408 -2.8636279 255 255 255
738.23938 753.52045 1.1245345 255 255 255
705.58466 637.89874 1.7924565 255 255 255
-511.46585 -354.33154 -2.0769334 255 255 255
-13782.399 -19169.018 -51.07267 255 255 255
-2422.7656 -975.49219 -4.2033339 255 255 255
1159.9287 607.54565 2.5350149 255 255 255
-2521.481 -1836.9625 -9.3525352 255 255 255
532.72345 445.36932 0.71206415 255 255 255
312.0145 897.10266 1.5630422 255 255 255
687.79907 1476.4436 2.2416713 255 255 255
319.78476 328.38672 0.457421 255 255 255
5855.3525 3289.3484 6.314991 255 255 255
499.74814 1374.7081 2.0707169 255 255 255
562.1991 921.88947 1.7665406 255 255 255
-6486.0503 -11130.788 -19.230331 255 255 255
-147.75601 -121.39346 -1.4556142 255 255 255
-2542.0747 -2448.4653 -4.2263732 255 255 255
542.41626 1277.4833 2.0159249 255 255 255
968.44244 643.39264 1.7844735 255 255 255
1253.7836 1052.4315 2.5871756 255 255 255
2816.4543 1576.7999 3.5109258 255 255 255
-235.06487 -167.37292 -1.4137886 255 255 255
1857.6251 938.18292 3.5126734 255 255 255
8760.6289 14535.822 23.272219 255 255 255
1055468.1 447109.78 1150.5626 255 255 255
-1001.8344 -1029.7792 -3.8016768 255 255 255
2510.1301 1782.5505 2.9143946 255 255 255
-2008.3713 -2928.4932 -5.351963 255 255 255
154.0157 592.61597 1.1533667 255 255 255
5369.5869 3060.5752 6.0226154 255 255 255
-32221.475 -28037.311 -44.556797 255 255 255
-396.68011 -540.99738 -1.6330289 255 255 255
850.01782 1008.8505 1.2701437 255 255 255
-1977.7341 -2634.082 -7.4688377 255 255 255
4027.0491 3917.3977 13.503542 255 255 255
733.30835 1513.4276 2.2921739 255 255 255
308.38586 807.94824 1.3443567 255 255 255
8890.7705 2668.104 10.430148 255 255 255
1421.17 3094.1238 5.0681701 255 255 255
497.70358 1390.467 2.0788939 255 255 255
515.75763 404.78674 0.61665881 255 255 255
-307.60013 -890.39154 -3.2047577 255 255 255
283.68927 1252.624 1.9399312 255 255 255
714.04041 479.98642 0.82684255 255 255 255
280.48389 793.8064 1.4437023 255 255 255
3343.3015 2162.9875 7.8673515 255 255 255
-2103.7571 -2199.4651 -4.075583 255 255 255
-985.14093 -3153.3533 -6.742815 255 255 255
-836.71686 -1726.2556 -3.5500543 255 255 255
517.2674 1346.994 2.0542099 255 255 255
-6725.5015 -9533.3672 -20.646803 255 255 255
525.01959 2957.0181 4.6768613 255 255 255
1124.8123 936.19904 1.7643523 255 255 255
1619.5275 238.96234 4.3380842 255 255 255
599.93494 1125.8142 1.9382951 255 255 255
544.21082 981.76782 1.7948107 255 255 255
268.42404 911.74524 1.5550196 255 255 255
-10020.172 -18238.158 -30.986626 255 255 255
391.70822 1326.7776 2.0247459 255 255 255
1688.0101 4079.6472 6.3917971 255 255 255
483.71396 933.41028 1.7118185 255 255 255
-5578.0688 -7138.5405 -23.091133 255 255 255
477.92175 429.9599 0.58159071 255 255 255
280.05658 551.21082 1.0146708 255 255 255
-1412.752 -2354.127 -4.6295528 255 255 255
2542.9709 1445.3344 4.1320362 255 255 255
-141.65318 -154.57462 -1.547177 255 255 255
231.94296 601.89905 1.2094167 255 255 255
-388.7793 -283.13678 -1.8685732 255 255 255
-863.23126 -639.63763 -2.1057203 255 255 255
749.46375 859.62537 1.9259074 255 255 255
1742.0245 1497.6721 3.1719513 255 255 255
800.0481 868.39325 1.9891466 255 255 255
932.79236 1371.8009 2.8620508 255 255 255
1060.0417 5289.7812 9.2643814 255 255 255
368.12219 715.26318 1.4315094 255 255 255
2237.8499 5081.6807 9.3915358 255 255 255
593.54492 957.43048 1.8204936 255 255 255
204.27798 912.71594 1.5329859 255 255 255
644.03003 713.15448 1.7317858 255 255 255
2093.8455 3747.7021 9.0445404 255 255 255
-379.91495 -623.05786 -1.9515769 255 255 255
-1079.1567 -790.66553 -2.6029468 255 255 255
405.66528 289.3205 0.49682155 255 255 255
-487.71692 -501.92477 -1.9141017 255 255 255
40006.898 25216.91 47.108456 255 255 255
363.5257 1030.0497 1.7152153 255 255 255
1679.1283 2954.3301 4.0693512 255 255 255
-1995.2522 -1770.7218 -3.5592921 255 255 255
308.40808 472.56812 1.1479639 255 255 255
7543.9556 2636.6982 7.859262 255 255 255
-524.34747 -447.1983 -1.6797237 255 255 255
954.00378 1996.3644 4.2689295 255 255 255
-741.81305 -1386.3037 -3.4634743 255 255 255
1021.2111 1527.7294 1.6497878 255 255 255
599.73932 498.45239 1.5981798 255 255 255
4219.6802 2797.1213 5.2507482 255 255 255
211.71588 688.09271 1.2931926 255 255 255
379.87457 879.50195 1.5895394 255 255 255
-1649.2511 -1819.2837 -5.2239957 255 255 255
649.87531 983.75165 1.8879468 255 255 255
-34.86161 -81.951591 -1.160359 255 255 255
244.13377 482.37122 1.0876456 255 255 255
3132.7837 2007.5157 4.5118818 255 255 255
634.84772 874.33514 1.8064221 255 255 255
548.59729 981.13342 1.7982398 255 255 255
6207.4395 3289.8408 6.5301614 255 255 255
836.20361 1049.3457 2.3663194 255 255 255
511.33676 990.20636 1.7765691 255 255 255
493.47293 519.08008 1.4354092 255 255 255
587.70599 1034.2051 1.8674167 255 255 255
-477.47101 -187.52193 -1.5795096 255 255 255
372.84033 381.25818 1.1697662 255 255 255
-543.03156 -652.85736 -2.1987073 255 255 255
419.36295 918.03827 1.651445 255 255 255
134.05905 887.5387 1.4883921 255 255 255
-773.44604 -523.42175 -2.3751855 255 255 255
-3186.7285 -2551.7427 -5.2691293 255 255 255
-718.50421 -1526.2711 -3.5643413 255 255 255
4377.4458 2592.6907 5.4385934 255 255 255
2186.4419 3087.1631 8.4421568 255 255 255
1262.4336 1911.6094 3.1477032 255 255 255
655.4502 1068.343 1.9445108 255 255 255
918.8371 787.48767 1.7883236 255 255 255
3264.4607 2006.3519 4.652463 255 255 255
-33123.09 -29141.857 -45.786911 255 255 255
569.63983 1145.5029 1.6894323 255 255 255
-109.2534 -159.72435 -1.3342843 255 255 255
899.37433 1447.1804 2.3526559 255 255 255
237.94925 633.04126 1.2489152 255 255 255
1886.6235 1463.8561 3.3433673 255 255 255
-496.27628 -632.81409 -2.3153088 255 255 255
-226.18521 -230.32494 -1.488694 255 255 255
252.89619 539.80872 1.1582502 255 255 255
763.37311 774.94177 1.9086909 255 255 255
-8156.6509 -18011.609 -42.324608 255 255 255
-109.9298 -68.417183 -1.2312504 255 255 255
-8692.5771 -26779.141 -44.6805 255 255 255
855.61121 1390.7402 2.5793989 255 255 255
-256.65561 -737.34412 -2.0606897 255 255 255
-146.68733 -128.62663 -1.297233 255 255 255
-7969.0298 -20205.973 -33.238602 255 255 255
292.30692 542.34045 1.1978347 255 255 255
268.29355 373.96802 1.0021001 255 255 255
847.47516 1080.9589 2.1268418 255 255 255
2186.1584 1785.0419 4.0467176 255 255 255
567.61475 486.2991 1.0408608 255 255 255
5345.667 22062.781 36.091213 255 255 255
305.37524 746.23553 1.4128599 255 255 255
463.78107 1250.0001 2.0694356 255 255 255
503.60461 935.27771 1.7285198 255 255 255
833.12396 1042.0247 2.8638349 255 255 255
-3951.1863 -3357.1707 -7.6816068 255 255 255
-232.51712 -161.29562 -1.5471206 255 255 255
285.56967 547.86206 1.1970621 255 255 255
572.30762 526.07056 1.5589589 255 255 255
771.06293 1688.8121 2.4236453 255 255 255
309.68665 980.09125 1.6405917 255 255 255
3026.3203 3466.9741 9.9389038 255 255 255
709.33801 802.44958 1.8548043 255 255 255
514.69098 991.12524 1.7799401 255 255 255
941.2804 1412.3361 2.9443297 255 255 255
286.35373 413.16409 0.95756763 255 255 255
646.41925 1119.6718 2.2849417 255 255 255
2361.1331 1049.6532 3.1621163 255 255 255
1069.7911 2644.3574 5.3146567 255 255 255
4975.8999 1581.3248 4.823081 255 255 255
1580.0531 3293.3521 5.3153968 255 255 255
616.92981 1316.3451 2.6674392 255 255 255
-1255.9752 -1878.7053 -3.8610547 255 255 255
1428.9969 1624.8495 4.6141 255 255 255
-90.784546 -88.758995 -1.1719007 255 255 255
-471.39624 -625.96143 -2.1240599 255 255 255
-496.65796 -341.46274 -2.1899855 255 255 255
5885.3267 3141.9866 6.4115348 255 255 255
-452.56467 -407.55167 -1.7953216 255 255 255
-2816.0354 -4853.4922 -8.5661459 255 255 255
319.05606 1378.2794 2.0113804 255 255 255
-2727.7632 -12412.256 -20.359968 255 255 255
922.12335 430.80832 1.1364187 255 255 255
-127.79509 -377.93854 -1.6968178 255 255 255
-108.07481 -51.270733 -1.1480417 255 255 255
553.00604 1171.2681 1.9409486 255 255 255
329.85022 969.70032 1.6429338 255 255 255
-14339.233 -9101.7148 -17.033682 255 255 255
-5373.1675 -7520.4629 -14.51054 255 255 255
806.41846 1686.8053 2.8034978 255 255 255
400.52365 947.25897 1.6634777 255 255 255
624.77435 711.849 1.7064791 255 255 255
568.81226 1929.3512 3.8129044 255 255 255
-310.63168 -356.80847 -1.6040084 255 255 255
583.99432 1127.6608 1.9277719 255 255 255
-1033.5254 -1416.4425 -2.6803799 255 255 255
-882.39215 -1116.3929 -4.4559031 255 255 255
-4457.8843 -9855.6416 -19.24159 255 255 255
3241.5498 1590.0881 4.4176846 255 255 255
-1163.6499 -928.60419 -2.8474925 255 255 255
-1516.153 -761.6983 -6.2029333 255 255 255
-1280.799 -965.88837 -3.4747365 255 255 255
468.65833 569.1521 1.2330756 255 255 255
534.08142 813.28137 1.398625 255 255 255
707.75751 424.13333 1.0159206 255 255 255
513.14197 905.86133 1.7122269 255 255 255
454.66223 922.78741 1.6796291 255 255 255
513.79211 950.22015 1.749326 255 255 255
394.07959 716.37195 1.4583853 255 255 255
216.45883 730.32599 1.3449789 255 255 255
706.2403 1152.6046 2.0379555 255 255 255
976.3371 1047.9409 1.2769696 255 255 255
2450.4199 4700.7432 8.4872866 255 255 255
-243.92004 -500.59378 -2.0309346 255 255 255
748.57703 1075.2521 2.0311663 255 255 255
1673.2999 1762.8442 2.8873019 255 255 255
499.56491 1244.3312 1.9655632 255 255 255
2295.2463 1848.5101 3.7256691 255 255 255
158.4924 1069.5001 1.6860977 255 255 255
848.64056 540.37665 1.0939096 255 255 255
2279.3613 1841.6417 3.7108381 255 255 255
7356.5645 1798.6238 9.4119005 255 255 255
413.12094 269.07761 0.46941 255 255 255
581.19763 492.03598 0.82927626 255 255 255
4344.2026 2577.4321 5.4099622 255 255 255
702.17004 786.97009 1.8384668 255 255 255
2354.4675 2166.9573 2.878782 255 255 255
-2695.5674 -4231.5776 -10.341391 255 255 255
617.10846 997.07513 1.8659068 255 255 255
-642.38031 -1516.6289 -3.6712115 255 255 255
881.10895 2525.2656 4.2350121 255 255 255
266.47046 619.92542 1.2506378 255 255 255
147.69919 506.0383 1.0427078 255 255 255
1094.576 2586.6921 4.5806665 255 255 255
663.18073 1105.5568 1.9724712 255 255 255
-1098.3077 -1047.3755 -2.5804467 255 255 255
497.05591 880.47357 1.5139794 255 255 255
1886.8464 1036.8702 2.3056555 255 255 255
522.74182 1030.6393 1.8128899 255 255 255
1252.4348 1419.8364 4.8052931 255 255 255
-160.25856 -170.5267 -1.5023351 255 255 255
-108.5451 -61.404068 -1.2516302 255 255 255
631.86182 544.56909 1.6576416 255 255 255
869.47003 904.77441 1.2301892 255 255 255
2761.6191 1313.2617 4.5120611 255 255 255
7536.2856 1847.9072 9.4347763 255 255 255
-725.53314 -798.53979 -3.0809069 255 255 255
507.96063 464.47937 0.7210629 255 255 255
-35.496597 -89.363098 -1.251714 255 255 255
3139.1228 3634.3262 4.9699845 255 255 255
996.28064 1301.4285 1.5888917 255 255 255
3268.7273 1672.8451 4.8484221 255 255 255
1228.4259 1695.5844 4.1861715 255 255 255
869.76398 956.36707 2.6592333 255 255 255
-698.87366 -454.54858 -1.9018321 255 255 255
593.99072 1529.3226 2.7240391 255 255 255
315.02286 586.0639 1.2647125 255 255 255
684.09192 1018.473 1.7798949 255 255 255
2179.1545 3855.8792 6.3710375 255 255 255
441.48441 911.86255 1.6625471 255 255 255
-1374.1698 -2724.4348 -5.2723637 255 255 255
364.35052 457.49039 1.0726775 255 255 255
-804.98212 -520.53424 -1.9894274 255 255 255
-47.968555 -203.04562 -1.4874249 255 255 255
-563.19275 -537.79443 -2.1427979 255 255 255
-5087.5161 -3111.927 -10.081389 255 255 255
421.56921 247.13501 0.50344384 255 255 255
-8794.8252 -10761.271 -19.454161 255 255 255
-4677.9819 -9658.6826 -24.693302 255 255 255
915.74091 1022.2217 1.1960512 255 255 255
663.4718 3162.8887 4.9618769 255 255 255
2553.3523 3530.7778 7.1927099 255 255 255
467.65067 700.71027 1.5177758 255 255 255
-1055.6537 -1001.8105 -3.2070305 255 255 255
758.45636 994.052 1.9942257 255 255 255
631.9248 580.79883 1.6663437 255 255 255
758.29065 949.92926 1.97487 255 255 255
628.64594 991.75488 1.87319 255 255 255
3140.4387 1539.4773 4.2369647 255 255 255
-1087.145 -1648.3579 -3.7309697 255 255 255
-195.56129 -251.85173 -1.5725228 255 255 255
-448.17886 -670.57257 -2.0989048 255 255 255
1396.3732 1107.8898 2.3162262 255 255 255
-77.748161 -112.36899 -1.2788347 255 255 255
-599.57959 -953.11456 -2.5369465 255 255 255
-9128.3652 -11085.32 -20.111807 255 255 255
-6450.772 -1576.0078 -22.390739 255 255 255
4303.8223 1969.4232 5.7740717 255 255 255
-7125.0635 -19521.629 -43.709335 255 255 255
578.44189 391.75079 1.5587057 255 255 255
703.96289 991.39441 1.9397548 255 255 255
189.61205 567.39398 1.1431799 255 255 255
-247.3183 -442.94421 -1.7501245 255 255 255
-1310.7057 -2524.1348 -7.4662914 255 255 255
-2292.394 -1674.8777 -4.3525958 255 255 255
1591.4203 1888.2856 5.5822616 255 255 255
-8498.9014 -10532.821 -18.745996 255 255 255
576.08472 354.46179 0.75606406 255 255 255
809.87592 818.82843 1.1097933 255 255 255
432.83124 980.17523 1.7124027 255 255 255
614.14532 920.88092 1.555442 255 255 255
2599.4341 1830.6653 3.2281797 255 255 255
697.29736 1616.958 2.8202081 255 255 255
739.03186 817.47003 1.796109 255 255 255
-94.188316 -259.88821 -1.4991354 255 255 255
478.8042 372.66751 0.56019592 255 255 255
-4979.7705 -17304.42 -26.744457 255 255 255
-100.0573 -52.129749 -1.2093846 255 255 255
364.75421 721.56116 1.4341115 255 255 255
5861.0166 3282.4275 6.3080392 255 255 255
297.51175 1215.8817 1.8593673 255 255 255
379.35059 657.40125 1.344319 255 255 255
3032.1289 6916.6504 11.702705 255 255 255
-1571.4338 -1863.9766 -4.4254813 255 255 255
946.48682 470.26852 1.1441534 255 255 255
-5067.9219 -5720.4141 -17.37385 255 255 255
158.19849 969.05365 1.5816919 255 255 255
-1788.3947 -5575.73 -9.9908562 255 255 255
424.75684 788.71783 1.3547907 255 255 255
425.24796 835.29736 1.3192247 255 255 255
675.86481 1419.0864 2.1940711 255 255 255
-1082.217 -1300.8782 -3.7519398 255 255 255
1759.9926 4574.1104 7.1068869 255 255 255
760.47394 817.87872 1.9204586 255 255 255
-74.002113 -263.70969 -1.468586 255 255 255
894.78345 1500.5994 2.2615409 255 255 255
200.82407 955.51794 1.5772789 255 255 255
941.75562 678.89655 1.1859775 255 255 255
-478.01984 -1104.0931 -2.9172103 255 255 255
706.08313 789.82135 1.8427147 255 255 255
-117.42253 -66.573448 -1.3089788 255 255 255
-7609.7666 -23457.191 -33.596436 255 255 255
-14083.344 -27047.76 -66.646965 255 255 255
1281.8527 1738.8723 1.8929082 255 255 255
733.88666 812.24854 1.5347897 255 255 255
473.17682 892.12073 1.6718917 255 255 255
644.25922 794.16418 1.7832144 255 255 255
-175.7534 -150.20561 -1.5244048 255 255 255
-478.31784 -402.64276 -2.0404096 255 255 255
4296.377 2838.5464 5.2828317 255 255 255
618.83972 605.69171 0.83382672 255 255 255
-2396.1003 -4676.4463 -9.1709614 255 255 255
647.71716 627.4845 1.7050991 255 255 255
301.00928 1243.6194 1.8869197 255 255 255
485.75137 1131.3445 1.9419038 255 255 255
3159.9343 3530.5764 7.204668 255 255 255
-3640.115 -10365.25 -21.217262 255 255 255
-2957.7192 -2111.6646 -9.1812992 255 255 255
-3095.8496 -4369.1973 -10.696956 255 255 255
538.70947 1050.1539 1.5910145 255 255 255
-416.27191 -503.44473 -1.8218695 255 255 255
444.9444 738.71454 1.2117537 255 255 255
620.04395 1286.5186 2.0661161 255 255 255
517.15698 1288.8763 2.0115886 255 255 255
778.93512 1065.5896 2.0530281 255 255 255
780.72791 1105.9644 2.0773172 255 255 255
560.80524 499.20163 0.98273391 255 255 255
587.8479 1095.1787 1.9080622 255 255 255
4386.0244 2565.0872 5.4780984 255 255 255
9430.2168 19988.113 34.903606 255 255 255
-479.19577 -496.0108 -1.983876 255 255 255
837.84692 1066.3199 2.1136084 255 255 255
-569.55872 -953.07709 -2.6245017 255 255 255
-1429.9558 -2098.6335 -6.9073339 255 255 255
-626.35754 -1613.6787 -3.3443515 255 255 255
565.62634 748.62537 1.6563854 255 255 255
-383.41086 -1061.104 -2.9716485 255 255 255
629.11682 711.21246 1.7110708 255 255 255
575.31677 452.49954 1.0552377 255 255 255
1136.134 1232.9752 1.5063707 255 255 255
995.28784 1263.4149 1.3363452 255 255 255
733.04846 4547.0776 7.558301 255 255 255
655.17279 1214.7728 2.0391405 255 255 255
-422.2312 -321.5278 -1.5230343 255 255 255
732.64166 1203.3982 2.0924003 255 255 255
261.84137 861.41235 1.4398965 255 255 255
863.90424 915.91907 2.0829129 255 255 255
-814.6153 -707.10535 -2.1280415 255 255 255
2312.9841 2072.2236 3.0202258 255 255 255
752.62524 1208.431 2.1113677 255 255 255
878.95001 1510.8887 2.856766 255 255 255
-2629.6033 -6090.6118 -10.439466 255 255 255
-2208.4722 -5707.0796 -10.569454 255 255 255
573.40149 1152.8207 1.7857461 255 255 255
255.19382 1344.598 1.962231 255 255 255
438.44699 1757.8708 2.3149126 255 255 255
1444.5201 1900.4277 2.9600072 255 255 255
-444.54111 -254.10432 -1.5664209 255 255 255
17052.115 11406.524 30.297415 255 255 255
359.67609 1412.1819 2.052753 255 255 255
489.96121 1017.6682 1.7817776 255 255 255
-313.47586 -1314.7716 -3.9702544 255 255 255
592.06543 977.30157 1.8320292 255 255 255
-1556.9313 -1458.1899 -5.5484619 255 255 255
-358.19467 -437.8848 -1.8569167 255 255 255
-953.33752 -2247.626 -4.9184318 255 255 255
-559.00018 -2003.2565 -4.5868382 255 255 255
-193.34924 -35.987389 -1.2061063 255 255 255
351.38022 1039.0088 1.7169311 255 255 255
819.54523 558.63196 1.0170538 255 255 255
-1525.6117 -2797.9255 -7.2162585 255 255 255
700.72876 1143.2618 2.0254958 255 255 255
523.33435 1217.1941 1.9575382 255 255 255
541.29449 1240.4163 2.0644314 255 255 255
-1865.5529 -3339.3884 -5.388813 255 255 255
502.39029 923.92767 1.6995133 255 255 255
-793.65411 -1088.6866 -3.1252234 255 255 255
2277.2188 2337.229 3.7153356 255 255 255
-385.82431 -492.94397 -1.9824502 255 255 255
2267.543 2126.1729 3.6923246 255 255 255
-521.45746 -1452.574 -3.6000783 255 255 255
407.58078 553.27258 0.65054655 255 255 255
186.23958 354.74484 0.88045543 255 255 255
-986.24701 -1134.1254 -2.6444135 255 255 255
652.46228 1004.0647 1.9018145 255 255 255
-1246.561 -1269.1562 -2.6274812 255 255 255
816.62805 700.45288 1.4278793 255 255 255
-1558.1527 -4495.3115 -8.9325132 255 255 255
-235.3602 -629.49689 -1.986281 255 255 255
936.87506 1342.6158 2.8334169 255 255 255
217.56296 522.56781 1.109293 255 255 255
3081.6777 4073.9766 12.630939 255 255 255
2787.7375 1320.8596 4.5433254 255 255 255
344.91037 1227.7681 1.8846589 255 255 255
-2412.0876 -4994.1777 -11.647612 255 255 255
-134535.25 -361119.94 -614.30029 255 255 255
865.00037 1445.8943 3.1383986 255 255 255
516.8949 471.89783 0.74521273 255 255 255
1029.6254 3734.4529 6.4627051 255 255 255
-458.82907 -440.89365 -1.9087359 255 255 255
667.34143 1356.3002 2.610275 255 255 255
319.55371 1473.5868 2.093554 255 255 255
4280.3994 1964.0894 5.7546926 255 255 255
-8448.3525 -10491.045 -18.64303 255 255 255
-1267.09 -1694.5771 -3.0414689 255 255 255
787.90253 872.91266 1.8576285 255 255 255
1748.0813 1788.3293 8.0206814 255 255 255
415.32425 1457.5626 3.3581197 255 255 255
-3181.291 -8491.2236 -14.151614 255 255 255
-2768.3325 -1623.8329 -5.2122779 255 255 255
-334.53772 -507.98257 -1.8899106 255 255 255
2096.959 2477.5032 3.2596309 255 255 255
354.44623 815.89386 1.5146103 255 255 255
170.37781 1206.5508 1.8248345 255 255 255
1475.1112 7899.8926 11.82978 255 255 255
-34796.156 -63449.434 -97.409111 255 255 255
-2444.6321 -1826.1199 -4.6371088 255 255 255
495.92615 697.87903 1.8353161 255 255 255
-1189.6262 -1229.5095 -5.0924153 255 255 255
-1665.0117 -1668.7328 -3.7663736 255 255 255
-999.81812 -449.96875 -2.2362497 255 255 255
-2916.4719 -8396.2012 -12.746045 255 255 255
-225.87964 -514.53625 -1.7513508 255 255 255
7887.0308 2804.9592 8.0808334 255 255 255
1907.9569 5440.4644 8.1284027 255 255 255
327.76443 401.50348 0.51478934 255 255 255
-1103.1302 -858.22351 -3.3910329 255 255 255
860.02148 925.03217 2.0809066 255 255 255
-4432.8232 -8716.4277 -13.161496 255 255 255
992.06323 852.13281 1.2998918 255 255 255
-445.83365 -1057.3634 -3.0029342 255 255 255
978.70245 521.33557 2.2983456 255 255 255
-1424.9592 -2499.5261 -4.5981193 255 255 255
-686.23846 -2848.4082 -5.8399224 255 255 255
-815.57159 -891.92902 -2.5776026 255 255 255
-639.25092 -1265.6443 -2.9824078 255 255 255
534.09827 1185.2555 1.9369546 255 255 255
654.16779 1213.483 2.036881 255 255 255
-706.53113 -1351.0765 -3.5781178 255 255 255
3131.0786 2007.8093 4.5107331 255 255 255
7356.5171 1800.3792 9.4133253 255 255 255
8651.4912 22432.615 45.932068 255 255 255
7283.2915 1785.4363 9.3350906 255 255 255
