ply
format ascii 1.0
comment PCL generated
element vertex 1094
property float x
property float y
property float z
property uchar red
property uchar green
property uchar blue
element face 0
element camera 0
property float view_px
property float view_py
property float view_pz
property float x_axisx
property float x_axisy
property float x_axisz
property float y_axisx
property float y_axisy
property float y_axisz
property float z_axisx
property float z_axisy
property float z_axisz
property float focal
property float scalex
property float scaley
property float centerx
property float centery
property int viewportx
property int viewporty
property float k1
property float k2
end_header
1051.084 1315.6863 2.2217598 255 255 255
-884.85657 -478.36484 -2.198235 255 255 255
-1945.5703 -859.05322 -5.1851096 255 255 255
264.66013 529.15497 1.4386334 255 255 255
-102.24028 -187.27148 -1.2939416 255 255 255
-1254.4597 -1432.6295 -3.2928669 255 255 255
38.839783 257.87094 0.55020034 255 255 255
-521.78455 -396.3714 -2.2006774 255 255 255
747.64508 1029.9548 1.8322227 255 255 255
-1069.0521 -1726.7991 -4.6399679 255 255 255
-6593.1167 -4169.8145 -19.133476 255 255 255
5283.0659 1983.6263 6.7391872 255 255 255
-100.55373 -75.660759 -1.2853745 255 255 255
-113.03525 -47.971497 -1.2297424 255 255 255
-542.49408 -574.58337 -2.1517384 255 255 255
350.67264 270.74261 0.95216471 255 255 255
-966.50861 -443.07278 -2.7411115 255 255 255
-436.82822 -389.77866 -2.2207935 255 255 255
1164.7061 918.56329 1.883727 255 255 255
-266.34412 -317.24728 -1.7376167 255 255 255
-7985.3384 -14317.284 -24.855593 255 255 255
632.16827 517.21191 2.6074147 255 255 255
-460.6279 -739.40466 -1.8343245 255 255 255
-737.39062 -462.95804 -2.7917213 255 255 255
2937.78 1254.0499 6.5294032 255 255 255
-224.90109 -249.92467 -1.2984002 255 255 255
-905.76135 -483.88501 -2.8150551 255 255 255
-396.23962 -338.66519 -1.7570176 255 255 255
-403.66394 -670.73169 -2.0608618 255 255 255
-386.40601 -864.5343 -4.1360769 255 255 255
-3345.0588 -5244.249 -14.104562 255 255 255
-764.78998 -507.45776 -2.6129785 255 255 255
-1647.1635 -1113.6459 -3.0817604 255 255 255
-6323.8066 -2762.2234 -7.9045219 255 255 255
17.64325 130.54489 0.28338555 255 255 255
-333.22385 -404.07446 -1.7063087 255 255 255
2668.2625 1381.8506 3.8866975 255 255 255
994.47003 667.95679 1.6408093 255 255 255
129.70432 131.69232 0.58467561 255 255 255
972.21716 2302.7727 7.8425155 255 255 255
1151.4263 1024.4821 1.3983735 255 255 255
1207.1121 1206.3578 2.3499196 255 255 255
-509.60153 -936.82037 -2.1854365 255 255 255
-4036.603 -6077.25 -12.289184 255 255 255
-797.99139 -3389.5085 -7.0744324 255 255 255
1345.7915 710.64673 1.8085108 255 255 255
-131.76114 -241.92807 -1.3710797 255 255 255
-1350.7986 -645.14099 -3.2457585 255 255 255
-192.82884 -332.28781 -1.6093823 255 255 255
-335.28702 -293.57864 -1.5306014 255 255 255
-699.41785 -1188.4003 -3.05179 255 255 255
-155.23633 -1928.9607 -4.0758882 255 255 255
4385.9956 2057.3806 5.618659 255 255 255
39.178452 46.698601 0.15695371 255 255 255
-340.72128 -114.38836 -1.3759936 255 255 255
220.50735 714.42828 1.2973862 255 255 255
224.01859 481.56216 0.95782501 255 255 255
-675.92334 -5752.2744 -10.071066 255 255 255
907.20453 350.18799 0.93775332 255 255 255
468137.47 866852.88 1916.6323 255 255 255
1210.718 620.63519 2.0057492 255 255 255
-790.32587 -679.50812 -2.8357973 255 255 255
-967.46021 -1571.2361 -3.6848626 255 255 255
1087.3022 902.27222 1.313354 255 255 255
9975.085 3457.3457 9.8226175 255 255 255
-191.17261 -318.42343 -1.4958835 255 255 255
1043.4128 549.21033 2.1734812 255 255 255
-592.44531 -379.38751 -2.2463713 255 255 255
857.21643 728.45306 3.5239277 255 255 255
1826.9288 1306.0074 3.0511055 255 255 255
-811.11188 -1035.5923 -2.612884 255 255 255
838.14825 467.03436 0.92201048 255 255 255
-1227.1373 -888.32666 -2.8755682 255 255 255
-356.40137 -342.35782 -1.8778007 255 255 255
-599.58472 -428.49777 -2.3716593 255 255 255
18.61611 169.47383 0.35052189 255 255 255
-392.87607 -483.99069 -2.0469532 255 255 255
-247.23192 -127.89895 -1.395031 255 255 255
-348.2623 -541.22754 -1.9376158 255 255 255
1880.1527 596.84363 3.2064531 255 255 255
-205.29605 -256.4303 -1.423063 255 255 255
-58.898701 -75.877815 -1.136296 255 255 255
-872.59869 -427.7157 -2.6525638 255 255 255
-614.68195 -386.26733 -2.4690752 255 255 255
921.89716 605.65485 1.3951325 255 255 255
-635.4848 -1740.7106 -3.9690032 255 255 255
232.31425 372.13187 0.85149133 255 255 255
10939.432 13352.962 124.55737 255 255 255
313.19052 6070.7109 14.07055 255 255 255
-181.40872 -339.7345 -1.6223356 255 255 255
-733.35052 -988.43744 -2.4564798 255 255 255
3271.0325 1026.8752 5.2902646 255 255 255
-919.79266 -1134.6737 -2.4348671 255 255 255
2435.2529 1472.532 3.9535518 255 255 255
32.116978 46.767422 0.13642257 255 255 255
-1237.9208 -2428.6067 -4.7094669 255 255 255
-108.10056 -76.610184 -1.19416 255 255 255
-1744.4512 -827.01611 -4.2260284 255 255 255
1466.067 1429.4902 2.6465869 255 255 255
-1196.2178 -1240.1827 -3.326308 255 255 255
-594.14868 -142.60683 -1.936545 255 255 255
88.820389 84.911903 0.15930337 255 255 255
44.133896 58.156738 0.1934883 255 255 255
1614.4087 1290.2533 2.8039126 255 255 255
21.195656 68.5858 0.18868272 255 255 255
-141.44424 -975.01373 -2.6621053 255 255 255
10275.73 3269.6592 10.347627 255 255 255
-381.4313 -599.5625 -2.0460939 255 255 255
-601.04822 -451.73627 -2.5652654 255 255 255
3276.5034 1819.4705 4.5319657 255 255 255
-804.26801 -599.34235 -2.6966693 255 255 255
-779.5155 -1004.4717 -2.5239859 255 255 255
-2316.196 -3718.7163 -15.399605 255 255 255
2685.2715 1297.5033 4.1465282 255 255 255
-440.51529 -463.19131 -2.1694422 255 255 255
-3854.7705 -1938.4895 -6.9425712 255 255 255
1623.4792 1152.66 2.5007617 255 255 255
-1278.8428 -1884.7985 -5.0632443 255 255 255
-312.74228 -303.85605 -1.7093959 255 255 255
-1006.3529 -1004.8408 -3.3571227 255 255 255
-350.52301 -402.9093 -2.1637747 255 255 255
681.86542 639.36432 3.3240387 255 255 255
-1026.8885 -1324.9906 -3.240375 255 255 255
2216.9216 1175.2649 3.5983782 255 255 255
-1462.0938 -784.34808 -4.020401 255 255 255
-2994.7998 -1588.1135 -4.9326949 255 255 255
-1715.307 -2969.7051 -6.7482371 255 255 255
3186.3638 2878.4128 4.8904915 255 255 255
-504.09375 -1329.2667 -2.58863 255 255 255
1708.8552 1320.3414 2.9090893 255 255 255
4660.6675 2248.6851 8.2826347 255 255 255
-459.18884 -285.03531 -1.5250639 255 255 255
-694.2713 -231.40787 -1.8415923 255 255 255
-574.85071 -928.33563 -2.0073037 255 255 255
-1809.0867 -2041.325 -5.4386268 255 255 255
-10686.084 -12456.397 -28.237867 255 255 255
410.56866 739.47931 1.3483678 255 255 255
-377.21417 -243.97633 -1.4909819 255 255 255
-2846.5334 -4237.3887 -8.803381 255 255 255
3127.0212 1782.6389 4.3820925 255 255 255
2580.1738 1326.3768 3.9889383 255 255 255
-1753.4806 -892.45074 -3.059237 255 255 255
-380.85117 -481.34476 -1.8744397 255 255 255
-121.30504 -110.47627 -1.2669882 255 255 255
2121.3086 1499.6993 4.0576115 255 255 255
-1704.0381 -1982.252 -3.5981431 255 255 255
4404.4253 3711.0664 8.8755341 255 255 255
2013.9885 1400.9562 3.251622 255 255 255
1198.2338 784.48755 2.0036316 255 255 255
-1369.7543 -592.51941 -3.8325152 255 255 255
-743.36493 -701.04126 -2.7093284 255 255 255
1209.7328 1206.822 2.3515956 255 255 255
25.894785 133.31689 0.3267912 255 255 255
-1039.2102 -592.47198 -3.2887728 255 255 255
-142.4761 -96.474968 -1.9359679 255 255 255
5649.9795 3391.573 6.021585 255 255 255
-878.52698 -383.07761 -2.7766004 255 255 255
2830.5 1442.9822 4.2296062 255 255 255
-4679.3101 -3234.8406 -7.8058848 255 255 255
6346.0747 3095.303 8.2622347 255 255 255
50.437046 42.781059 0.10200638 255 255 255
-547.88696 -334.68115 -1.7942055 255 255 255
-723.80548 -2844.1694 -5.9907131 255 255 255
3119.322 1533.844 4.530859 255 255 255
3195.7751 1551.7959 4.6036658 255 255 255
39.630634 48.214016 0.4975093 255 255 255
-440.15973 -206.93111 -1.8732774 255 255 255
14928.666 11301.229 22.588722 255 255 255
1179.6849 324.70493 1.3838176 255 255 255
1014.6202 242.3329 1.1749268 255 255 255
698.69244 1397.6428 2.3402145 255 255 255
4122.4521 7759.5552 18.075136 255 255 255
-265.7446 -971.03113 -3.4125807 255 255 255
-119.72867 -114.93893 -2.4076893 255 255 255
-713.49414 -150.8567 -2.1218255 255 255 255
86.616196 91.407753 0.15946938 255 255 255
34.326641 61.201096 0.18350954 255 255 255
190.50212 642.62994 1.107059 255 255 255
1030.642 651.94653 1.3811133 255 255 255
2641.5232 12045.485 19.451382 255 255 255
-725.72241 -514.86707 -2.1093125 255 255 255
10269.396 3328.9512 10.199395 255 255 255
-709.6405 -1064.1106 -3.184093 255 255 255
37.674561 43.860741 0.071094103 255 255 255
236.23448 196.44574 0.28525344 255 255 255
-599.85461 -330.07239 -1.8453509 255 255 255
-577.3078 -882.73401 -2.7605143 255 255 255
100.32018 195.52754 0.48987296 255 255 255
-1690.4341 -2313.4697 -5.7869081 255 255 255
239.7859 366.03592 0.8542248 255 255 255
-2777.915 -3379.3372 -7.1918063 255 255 255
-727.26892 -965.73584 -2.7093649 255 255 255
147.95692 848.6626 1.3042761 255 255 255
-104.33365 -220.31293 -1.4074658 255 255 255
382.10501 376.26733 1.185781 255 255 255
3274.5845 1028.9827 5.2968235 255 255 255
189.76802 648.65454 1.1121843 255 255 255
192.09163 634.61115 1.0988247 255 255 255
8576.4326 1815.6932 11.236486 255 255 255
-117.72508 -150.9803 -1.2295535 255 255 255
-502.5751 -518.05939 -2.4963102 255 255 255
972.51917 2194.803 3.6834075 255 255 255
-2830.0815 -1966.8646 -7.2595472 255 255 255
334.59451 169.18829 0.75184184 255 255 255
839.45062 515.16223 1.0002513 255 255 255
234.02596 403.72382 0.88650823 255 255 255
687.34631 336.05341 1.6145381 255 255 255
35.868217 394.98788 0.84359455 255 255 255
-1063.8579 -1050.5946 -2.5303574 255 255 255
2348.4717 2262.4568 3.4892256 255 255 255
-488.39844 -323.93854 -1.8645912 255 255 255
3761.7244 1791.7178 5.1140957 255 255 255
-2729.1477 -914.22498 -6.9071918 255 255 255
1899.7772 1602.6956 3.0869997 255 255 255
-441.30896 -319.42383 -1.7711624 255 255 255
176.7476 735.55707 1.1985853 255 255 255
192.42899 639.0672 1.1039243 255 255 255
-655.78326 -214.07013 -1.7228862 255 255 255
238.04193 381.18082 0.86688775 255 255 255
1789.3796 667.67218 3.370234 255 255 255
-803.98438 -261.98059 -2.0263047 255 255 255
234.74567 398.02341 0.88079935 255 255 255
-4839.8682 -5251.6758 -12.231 255 255 255
-698.63153 -578.72363 -2.5125425 255 255 255
-111.96877 -156.65469 -1.3858678 255 255 255
-396.94882 -203.4055 -1.4399364 255 255 255
-2991.7456 -2406.5452 -6.5228076 255 255 255
3077.9153 1700.2506 4.3705077 255 255 255
750.71393 1031.1725 2.6576042 255 255 255
160.35344 136.71318 0.52796584 255 255 255
-1124.2097 -2630.2288 -5.5932527 255 255 255
-524.28497 -305.47528 -2.2144742 255 255 255
400.66574 571.08209 0.95732534 255 255 255
-812.64496 -359.57892 -2.4751909 255 255 255
9944.2402 3431.0388 9.8278751 255 255 255
-1348.2852 -2433.7864 -5.3248777 255 255 255
-327.40216 -187.17004 -1.6178213 255 255 255
942.87109 2021.8904 4.9026971 255 255 255
1329.4927 14168.181 33.042198 255 255 255
9959.2012 3432.9463 9.8549938 255 255 255
247.63678 363.94025 0.86149657 255 255 255
-1000.5627 -420.84668 -2.8202584 255 255 255
158.94551 805.42664 1.2642715 255 255 255
-989.63031 -415.53983 -2.0973339 255 255 255
63.129486 48.982254 0.17111334 255 255 255
-1049.5399 -1529.4141 -3.2065868 255 255 255
-2208.0051 -577.67682 -4.7453499 255 255 255
4341.9858 2853.2024 10.16063 255 255 255
-356.60947 -573.70776 -5.5555339 255 255 255
154.41563 880.20367 1.3620303 255 255 255
-845.22491 -946.97913 -2.2895749 255 255 255
1316.6472 2314.2161 4.5081005 255 255 255
-288.59528 -524.45074 -2.3119764 255 255 255
139.86128 893.04535 1.3469667 255 255 255
3915.4365 2068.7083 5.089735 255 255 255
-703.49939 -439.46524 -2.7119403 255 255 255
-675.24573 -932.44464 -2.7680707 255 255 255
-88093.43 -37327.863 -199.22676 255 255 255
-500.56827 -198.01576 -1.5309854 255 255 255
2308.8713 6542.9185 24.306219 255 255 255
-14527.131 -20254.34 -44.790051 255 255 255
4354.0947 1666.089 5.9634724 255 255 255
-606.35913 -380.23169 -2.2865839 255 255 255
15522.021 8338.415 16.663958 255 255 255
3235.3748 1619.4137 4.615819 255 255 255
8515.9854 12090.719 27.149439 255 255 255
-1200.2432 -1216.9836 -3.3742437 255 255 255
782.48907 907.49762 1.8126744 255 255 255
2895.9407 1573.7899 4.0671039 255 255 255
-192.00102 -332.22308 -1.6061072 255 255 255
154.19548 500.20871 0.77326286 255 255 255
238.10791 432.92981 0.95084673 255 255 255
-1285.8308 -2302.4983 -5.350709 255 255 255
-89.172768 -121.61792 -1.2516453 255 255 255
-770.36066 -505.49237 -2.4199231 255 255 255
-389.26419 -278.46701 -1.6608396 255 255 255
-1140.4512 -2577.2629 -4.9611955 255 255 255
256.55582 328.68643 0.84001625 255 255 255
25982.816 12303.694 65.170822 255 255 255
10317.671 3253.9614 10.412543 255 255 255
-322.43991 -187.74156 -1.3705747 255 255 255
3186.7546 1047.2935 5.1400452 255 255 255
249.54066 334.17023 0.83614653 255 255 255
-325.8446 -284.1738 -1.5850319 255 255 255
-254.63126 -322.32449 -1.485373 255 255 255
237.89531 350.06824 0.83598125 255 255 255
-602.22137 -330.12924 -2.3381107 255 255 255
257.01224 343.71457 0.85486501 255 255 255
1264.9082 951.15961 1.8476392 255 255 255
-513.55237 -311.22299 -1.8805878 255 255 255
-733.73621 -1665.1998 -3.8606458 255 255 255
528.74945 312.86102 1.4099566 255 255 255
-140.36427 -94.528809 -1.2805387 255 255 255
5305.4233 2261.7778 6.4613032 255 255 255
-1085.4733 -204.23541 -2.1011324 255 255 255
1550.1787 2014.1252 4.4816284 255 255 255
-604.77875 -485.15961 -2.5132706 255 255 255
204.10477 582.23499 1.0500987 255 255 255
316.73517 297.62039 0.98128206 255 255 255
1467.9551 1431.2617 2.6491144 255 255 255
-4709.6528 -4791.7705 -9.2636042 255 255 255
228.87782 442.92889 0.92192674 255 255 255
225.40294 450.53134 0.92632973 255 255 255
37.370838 268.9079 0.56724352 255 255 255
-302.67587 -268.39209 -1.414162 255 255 255
-1340.1959 -750.93073 -2.4887631 255 255 255
258.832 327.88519 0.84272462 255 255 255
35.487579 12.561783 0.086345382 255 255 255
-78.801346 -97.531715 -1.4868504 255 255 255
206.32845 560.41864 1.0281903 255 255 255
-619.66382 -1076.5233 -2.6074631 255 255 255
-4617.4805 -3176.7473 -13.949978 255 255 255
140.87868 899.25189 1.3536931 255 255 255
2592.1389 1178.0347 4.1150107 255 255 255
228.80051 413.54449 0.89030427 255 255 255
-1404.488 -710.20575 -4.1317987 255 255 255
2368.8374 2269.8323 3.5068712 255 255 255
-5994.6475 -5393.6284 -11.551813 255 255 255
-1622.5533 -1010.2144 -4.1719007 255 255 255
21.177103 68.421036 0.18828063 255 255 255
17.900196 177.28946 0.40743405 255 255 255
234.95421 368.69623 0.85119766 255 255 255
-910.26428 -749.51959 -2.2889435 255 255 255
3368.5864 6050.395 12.292329 255 255 255
254.77138 166.85144 0.71239513 255 255 255
236.3844 592.55811 1.1675255 255 255 255
-617.22992 -1076.0825 -2.6054108 255 255 255
1527.4666 1944.1102 3.7152209 255 255 255
5319.75 3561.5693 5.7114863 255 255 255
3955.467 2064.4045 5.1344118 255 255 255
1540.927 2549.1353 5.483747 255 255 255
30450.834 15474.318 68.061874 255 255 255
-2442.2554 -3479.8147 -8.28862 255 255 255
8566.5107 4744.7109 19.961218 255 255 255
-187.26888 -123.91096 -1.4231784 255 255 255
-404.01849 -367.63449 -1.8408382 255 255 255
-117.60313 -129.49968 -1.3679191 255 255 255
-52.999653 -48.784988 -1.0982947 255 255 255
10621.509 3401.5669 10.438345 255 255 255
5948.0737 2820.604 6.647192 255 255 255
4797.4316 2274.3691 10.586758 255 255 255
-1029.7872 -785.51837 -2.2772431 255 255 255
-162.01506 -154.78883 -1.302518 255 255 255
-715.50739 -163.02803 -1.7569766 255 255 255
235.42659 395.828 0.87982577 255 255 255
-824.20557 -474.85004 -2.3821177 255 255 255
-3877.9846 -3736.9502 -10.27482 255 255 255
210.90605 558.87854 1.0299942 255 255 255
-2276.9697 -2707.1055 -6.998899 255 255 255
3234.4424 1044.8628 5.2146173 255 255 255
-308.26395 -248.96475 -1.8271539 255 255 255
-908.97144 -392.66333 -2.036823 255 255 255
-374.7955 -434.11743 -2.0104091 255 255 255
-535.8031 -230.75755 -1.9026752 255 255 255
782.20862 904.15765 1.8114535 255 255 255
21.114115 169.57761 0.39391601 255 255 255
459.5885 453.71179 1.7176147 255 255 255
-1265.4955 -1084.9825 -3.3186548 255 255 255
-304.65494 -219.10857 -1.7437781 255 255 255
-1148.9056 -240.79288 -3.0415816 255 255 255
-102.85091 -106.76307 -1.2538291 255 255 255
-553.90765 -299.89713 -2.1346486 255 255 255
384.46948 257.77493 0.43350804 255 255 255
6947.3389 8401.666 19.343494 255 255 255
-5869.001 -5973.7114 -11.430283 255 255 255
169.54367 344.26624 0.71297818 255 255 255
757.72144 516.42883 1.6956171 255 255 255
996.42017 4345.5547 6.6359468 255 255 255
4036.6836 1687.1091 5.5416703 255 255 255
-2682.9976 -4129.8682 -9.8932343 255 255 255
-23596.697 -20366.346 -46.768158 255 255 255
57602.531 80616.633 158.9313 255 255 255
-817.95367 -751.67303 -2.8479629 255 255 255
3847.293 1805.2656 5.2011714 255 255 255
-933.97729 -610.68335 -3.0389531 255 255 255
-313.91455 -494.98953 -1.4877967 255 255 255
1231.6014 1392.8292 2.4105656 255 255 255
-742.22308 -1251.0865 -4.116025 255 255 255
-755.43066 -354.97726 -2.5636988 255 255 255
99.779755 583.61292 3.8469887 255 255 255
242.38548 363.39215 0.85515338 255 255 255
-2345.2683 -1447.9769 -5.9880929 255 255 255
-287.6817 -180.4593 -1.3314136 255 255 255
352.18341 301.5834 0.96927047 255 255 255
-773.27014 -1371.1272 -4.4070764 255 255 255
-1073.0983 -2161.375 -4.7668171 255 255 255
2378.5015 1085.526 3.8913064 255 255 255
-512.81805 -269.23776 -1.7845013 255 255 255
-752.18848 -334.09445 -2.4595711 255 255 255
2477.1311 2196.2454 7.2916346 255 255 255
1606.9081 925.99854 2.2919648 255 255 255
1487.6337 998.39099 2.6907079 255 255 255
9129.5371 3532.0618 8.968914 255 255 255
214.61169 536.01404 1.0080836 255 255 255
810.0979 675.95764 1.2230713 255 255 255
-463.38788 -312.29758 -1.7925084 255 255 255
-1604.7302 -1824.4559 -3.3882816 255 255 255
-1074.5178 -1443.7548 -3.6779511 255 255 255
195.6982 631.46539 1.098133 255 255 255
-1855.7458 -1053.3846 -5.6096506 255 255 255
233.17943 391.99249 0.87322187 255 255 255
-101.6386 -164.93414 -1.2529031 255 255 255
-20.290071 -130.67836 -1.2156916 255 255 255
1661.407 2395.7393 5.1054473 255 255 255
443.8309 403.09985 1.2307224 255 255 255
154.14958 816.41644 1.2737306 255 255 255
-85.265106 -49.103207 -1.2110826 255 255 255
-487.70102 -433.62024 -2.3569975 255 255 255
59.60453 33.638153 0.13479558 255 255 255
-1668.1295 -2254.1499 -4.5538898 255 255 255
222.86087 502.62466 0.97967815 255 255 255
220.29155 493.08069 0.96678823 255 255 255
-263.74146 -265.83325 -1.5791855 255 255 255
-28142.631 -33990.406 -67.543137 255 255 255
812.91492 599.73389 1.1062416 255 255 255
-143.153 -426.19241 -1.6522086 255 255 255
-1100.2306 -582.24622 -3.1348221 255 255 255
-357.77887 -317.53336 -1.8388559 255 255 255
-629.08228 -567.22125 -1.9115132 255 255 255
226.23668 439.37692 0.91535693 255 255 255
-188.60443 -489.62054 -1.9027048 255 255 255
-2422.0854 -1980.3485 -6.7310371 255 255 255
-16533.279 -16874.574 -32.056995 255 255 255
-146.69824 -158.39348 -1.2845879 255 255 255
263.53662 321.65094 0.84395128 255 255 255
-5661.9795 -3723.1475 -15.152706 255 255 255
-221.48027 -204.75932 -1.4458305 255 255 255
4683.0771 3415.3428 5.2603669 255 255 255
-3631.7922 -6663.4634 -14.400645 255 255 255
-301.44766 -2543.5881 -5.3789916 255 255 255
-645.39557 -323.70221 -2.2544861 255 255 255
6606.147 6816.1631 18.225615 255 255 255
4122.7314 1210.1346 6.2846246 255 255 255
3935.3914 2044.2391 5.1320081 255 255 255
266.62607 325.87332 0.8520115 255 255 255
-2489.9905 -2661.4243 -5.7600989 255 255 255
616.43134 324.79404 1.4742998 255 255 255
-120.69201 -1074.5939 -2.6432378 255 255 255
11164.756 4182.7227 11.1394 255 255 255
-8196.7451 -4351.0977 -12.269622 255 255 255
237.39137 406.73212 0.89299119 255 255 255
1207.2616 1206.8673 2.3504956 255 255 255
3261.1602 1669.1134 4.6122074 255 255 255
-3770.7974 -6510.3745 -13.593561 255 255 255
-830.23224 -370.48856 -2.8590455 255 255 255
206.63474 578.07306 1.0477949 255 255 255
1042.5627 549.16339 2.1718082 255 255 255
-259.27533 -120.50945 -1.430591 255 255 255
838.37518 856.70752 1.8600252 255 255 255
413.70816 341.6553 0.57772738 255 255 255
3728.0874 2031.3851 4.9077654 255 255 255
1235.219 1390.7129 2.4135029 255 255 255
-271.53055 -268.41248 -1.3243287 255 255 255
354.39755 262.73074 0.94763947 255 255 255
-866.00873 -454.7684 -2.0588565 255 255 255
608.44562 323.82361 1.4585042 255 255 255
-713.60938 -711.11664 -2.6490972 255 255 255
226.34061 427.58597 0.90318304 255 255 255
321.53906 170.61746 0.42379874 255 255 255
25.118315 157.51173 0.37289828 255 255 255
-712.30463 -524.23676 -1.9472629 255 255 255
3839.3247 8988.2236 15.802353 255 255 255
364.17444 404.01456 1.2279323 255 255 255
-392.47495 -312.24521 -1.8791275 255 255 255
250.37404 372.17697 0.90432495 255 255 255
1719.9523 1354.8964 2.9217732 255 255 255
3774.5051 5526.3418 11.566496 255 255 255
-10586.677 -18333.07 -42.796227 255 255 255
419.39426 395.96274 1.2243804 255 255 255
179.79018 323.86713 0.57604581 255 255 255
187.4631 649.29468 1.1123314 255 255 255
820.46887 322.07108 0.79310191 255 255 255
-989.4281 -690.99805 -2.6790605 255 255 255
214.78877 540.77283 1.0136731 255 255 255
811.51581 700.14612 3.3811147 255 255 255
-376.54865 -284.78311 -1.4452382 255 255 255
3197.0767 1617.0996 4.5277238 255 255 255
-2130.8552 -2966.9153 -7.1676311 255 255 255
-80.023247 -58.90556 -1.219727 255 255 255
228.62036 427.87112 0.90555227 255 255 255
3245.2708 1661.1066 4.584374 255 255 255
-37141.547 -55588.973 -98.970581 255 255 255
167.42491 359.57202 0.63881701 255 255 255
3765.4514 1626.546 5.2631927 255 255 255
827.61938 1279.0073 2.1439283 255 255 255
-1040.0762 -1349.2456 -2.7365603 255 255 255
323.15616 322.58511 1.0289308 255 255 255
-6566.9888 -4159.5957 -17.361183 255 255 255
228.74634 406.04321 0.88310075 255 255 255
-644.51239 -507.86499 -1.8478243 255 255 255
-383287.66 -162535.06 -866.44427 255 255 255
343.70776 253.65918 0.91947424 255 255 255
-1022.5563 -437.69577 -2.8953218 255 255 255
187.09659 669.03937 1.1336889 255 255 255
1937.02 1210.2947 2.4661708 255 255 255
156.51285 825.29883 1.2840189 255 255 255
1933.2126 1491.1437 3.1394258 255 255 255
1024.8422 752.41772 1.407806 255 255 255
-11765.778 -2352.2561 -18.356216 255 255 255
-27495.77 -39570.828 -61.446198 255 255 255
3858.1108 1772.5878 5.2465353 255 255 255
-154.17403 -956.95007 -2.3987842 255 255 255
5950.981 2828.2302 6.6347418 255 255 255
494.7081 1172.5183 1.7292284 255 255 255
-8797.1777 -5291.3057 -12.249269 255 255 255
-123.1095 -253.53537 -1.4128306 255 255 255
-249.72781 -89.137909 -1.4764329 255 255 255
1141.9387 653.6048 1.7983966 255 255 255
254.93532 333.80661 0.84286898 255 255 255
-417.3186 -285.63544 -1.5287445 255 255 255
-579.58319 -3124.605 -10.412842 255 255 255
-994.47589 -1831.3081 -3.900274 255 255 255
1915.8512 985.27332 3.2969832 255 255 255
-1228.4979 -297.95294 -2.2960241 255 255 255
410.59818 739.83392 1.3487064 255 255 255
-2497.7607 -3416.29 -6.7884188 255 255 255
-171.12456 -288.90411 -1.3180338 255 255 255
45.543751 64.013474 0.20269537 255 255 255
-1590.4221 -356.59998 -3.8691926 255 255 255
746.5874 1028.8033 1.8302548 255 255 255
-123.17342 -98.264832 -1.2694255 255 255 255
-454.39661 -298.5766 -1.9047749 255 255 255
-789.59814 -342.44745 -2.0296721 255 255 255
37.086739 17.058985 0.12568732 255 255 255
3298.1003 1428.4586 4.8495445 255 255 255
-2688.1946 -1506.1334 -8.0091524 255 255 255
-542.00049 -257.13205 -1.9194951 255 255 255
-1584.0123 -2872.0742 -6.7493067 255 255 255
-707.34229 -704.74744 -2.1525991 255 255 255
759.74609 289.01978 0.78353947 255 255 255
-828.41858 -587.82062 -2.1089921 255 255 255
-597.67126 -685.7663 -2.2036021 255 255 255
-425.81671 -1196.6964 -2.8430905 255 255 255
-271.73044 -289.81165 -1.3566462 255 255 255
-1084.0723 -367.55521 -2.3919239 255 255 255
-181.90245 -134.63832 -1.9481778 255 255 255
-1479.1412 -990.00879 -4.280303 255 255 255
1049.1123 3886.7827 8.4742584 255 255 255
222.19046 431.36395 0.87758923 255 255 255
3893.8467 2033.3745 5.0874481 255 255 255
-201.96718 -142.90524 -1.4321238 255 255 255
5070.3633 3632.2449 8.3539553 255 255 255
-608.71527 -492.71613 -2.5176113 255 255 255
1644.615 1361.1931 2.8340492 255 255 255
-682.48761 -327.14368 -2.0779402 255 255 255
14356.76 13314.554 24.043337 255 255 255
-2361.9839 -2264.5525 -5.7986221 255 255 255
-688.10449 -335.60098 -2.4399915 255 255 255
2020.6035 1643.1672 3.2102799 255 255 255
4460.5317 2064.3613 5.7000899 255 255 255
-2283.323 -2616.5193 -5.1810417 255 255 255
1040.2278 1299.6693 2.1961474 255 255 255
227.6093 482.66766 0.96232724 255 255 255
-545.81616 -186.69556 -1.8092196 255 255 255
1046.6519 554.11322 2.1759896 255 255 255
-2564.7754 -2738.8062 -5.8484383 255 255 255
-7581.9307 -8163.6304 -14.800797 255 255 255
-245.89619 -83.596481 -1.4554806 255 255 255
-568.3194 -1689.1666 -3.7209656 255 255 255
-2859.793 -4082.5767 -15.151876 255 255 255
-5502.6338 -5637.0752 -11.045615 255 255 255
-697.5014 -505.20599 -3.006794 255 255 255
-1740.7633 -2449.7351 -5.4758029 255 255 255
-4335.2188 -2258.9263 -12.285013 255 255 255
764.10931 522.21027 1.7062024 255 255 255
452.19327 332.50046 1.3594502 255 255 255
-7143.4292 -13066.505 -29.991081 255 255 255
-6452.1841 -6709.5029 -13.705968 255 255 255
-663.82422 -324.44781 -1.7917318 255 255 255
-855.28088 -375.24588 -2.368592 255 255 255
-303.69528 -220.14072 -1.5514237 255 255 255
-1130.2186 -430.52609 -2.0899224 255 255 255
2324.5435 921.47125 3.7464368 255 255 255
5145.001 3639.6379 5.5684743 255 255 255
3959.1821 1949.0555 5.2237568 255 255 255
-199.14146 -206.08403 -1.6162392 255 255 255
-721.00305 -539.29285 -2.4010856 255 255 255
2301.0276 1615.5337 3.5191212 255 255 255
1181.3693 492.40775 2.4604976 255 255 255
34.052567 44.945141 0.15946412 255 255 255
9386.8281 2186.1912 11.369617 255 255 255
1112.4243 1150.4182 2.2377853 255 255 255
841.60547 923.06512 1.8801999 255 255 255
-664.74951 -838.23083 -2.447288 255 255 255
-273.04898 -341.21378 -1.9027768 255 255 255
162.85164 919.38763 1.8098432 255 255 255
9489.3799 2412.6675 10.997044 255 255 255
9518.0381 2195.0437 11.521302 255 255 255
-539.79541 -580.71198 -2.8005757 255 255 255
2758.7815 1313.1582 4.2328658 255 255 255
-1129.7191 -1309.0874 -3.2407753 255 255 255
452.80225 585.34741 1.2801001 255 255 255
-202.89879 -218.63629 -1.3662171 255 255 255
-8944.5254 -8433.9902 -18.595524 255 255 255
2743.6909 1162.7574 4.3372922 255 255 255
-809.99951 -580.57031 -2.0648031 255 255 255
3420.0095 1303.6129 4.1364985 255 255 255
-964.41809 -591.23907 -3.4961078 255 255 255
1214.5165 1027.2469 2.3369045 255 255 255
9579.1572 2414.9775 11.091556 255 255 255
1486.0321 1089.0997 2.3378701 255 255 255
1480.1833 1084.0555 2.1077187 255 255 255
-644.40527 -432.62424 -2.5354717 255 255 255
7918.5679 3566.085 7.8832865 255 255 255
-208.86136 -166.46808 -1.5470041 255 255 255
9125.5137 2914.5671 9.7181511 255 255 255
797.35132 529.07086 2.5081906 255 255 255
-1270.3577 -641.09485 -2.3036468 255 255 255
1288.1193 920.10181 2.4361236 255 255 255
-771.9856 -862.56616 -2.6579392 255 255 255
652.3222 734.92157 0.8382681 255 255 255
3118.7742 1736.6758 4.9359741 255 255 255
-187.19215 -266.75595 -1.575886 255 255 255
-1344.1821 -311.63321 -2.4556692 255 255 255
32.864437 18.067955 0.12818101 255 255 255
1486.2994 998.4632 2.6894047 255 255 255
5215.6528 10242.15 21.816931 255 255 255
37.511211 35.639057 0.13782109 255 255 255
-159.4346 -199.30722 -1.3729532 255 255 255
223.57104 498.59915 0.97608131 255 255 255
289.5621 497.36227 1.6847093 255 255 255
706.36761 1359.9022 3.3897519 255 255 255
40.623608 34.565647 0.16027606 255 255 255
-568.57819 -183.63025 -2.2853403 255 255 255
234.13469 397.77353 0.87986094 255 255 255
312.23383 322.99261 1.0165124 255 255 255
-184.90088 -207.59171 -1.3460037 255 255 255
3732.051 2032.6699 4.9117336 255 255 255
-613.15344 -333.2822 -4.253005 255 255 255
3744.3254 2039.3351 4.922719 255 255 255
-82.519142 -112.74165 -1.7283866 255 255 255
195.44942 630.56848 1.0970244 255 255 255
5904.3262 4063.4016 6.7968149 255 255 255
-5886.6577 -5991.1538 -11.463449 255 255 255
-16307.882 -16896.301 -32.195549 255 255 255
226.81569 434.3631 0.91093349 255 255 255
-728.81165 -423.77377 -1.9914334 255 255 255
-213.20741 -98.208542 -1.2485026 255 255 255
3194.7124 2883.481 4.9028873 255 255 255
253.35251 126.57199 0.38032791 255 255 255
-833.31934 -617.20844 -3.4298434 255 255 255
3524.8342 1753.2899 4.8629365 255 255 255
225.75003 426.71268 0.90125304 255 255 255
-1117.7051 -1578.7299 -3.923713 255 255 255
-2931.4558 -1203.2965 -3.7167923 255 255 255
-109.86023 -87.540031 -1.145581 255 255 255
2688.4724 1297.5137 4.1502295 255 255 255
215.02037 517.76782 0.98782247 255 255 255
-837.45392 -1255.9183 -3.0382328 255 255 255
3614.1494 1615.8267 5.0835729 255 255 255
-293.12671 -86.916458 -1.459549 255 255 255
175.229 725.96954 1.1884154 255 255 255
223.85242 476.0307 0.95290095 255 255 255
225.5836 464.1539 0.94144583 255 255 255
2401.7854 1169.7933 3.8591907 255 255 255
-176.33925 -206.28329 -1.4204744 255 255 255
1219.2344 2225.782 5.4465113 255 255 255
-1567.2927 -405.11835 -4.1786633 255 255 255
-483.992 -514.95532 -2.467423 255 255 255
234.84792 394.81775 0.87739938 255 255 255
249.06506 330.82507 0.83222193 255 255 255
21.133512 169.41208 0.39371234 255 255 255
930.20801 607.65314 1.0436378 255 255 255
27.651602 20.214972 0.094509214 255 255 255
632.43011 326.56985 1.5061314 255 255 255
97.507698 303.61383 0.64447784 255 255 255
225.16208 465.15649 0.9413628 255 255 255
253.74046 167.12212 0.71057749 255 255 255
3538.8298 1651.7549 4.9519897 255 255 255
11789.732 10401.851 19.98275 255 255 255
-854.4754 -1074.7516 -2.1372666 255 255 255
231.19922 388.71497 0.86795908 255 255 255
-1104.9252 -441.79575 -2.0811067 255 255 255
-742.302 -1251.7288 -4.117981 255 255 255
-138.92679 -41.578686 -1.1983896 255 255 255
-267.7836 -131.18655 -1.624909 255 255 255
-12480.853 -14709.521 -26.981129 255 255 255
-868.33502 -2357.4839 -5.0011907 255 255 255
363.41284 360.35452 1.1436478 255 255 255
1925.8064 988.64294 3.3075845 255 255 255
1208.0253 1671.3291 3.0269635 255 255 255
43.334663 79.647812 0.52669054 255 255 255
-107301.04 -111478.91 -205.61307 255 255 255
222.91399 476.66614 0.95199054 255 255 255
759.0744 517.41083 1.6988935 255 255 255
221.58844 500.80054 0.97708809 255 255 255
-5417.4448 -5666.6289 -11.976203 255 255 255
695.60089 383.03339 0.76506823 255 255 255
-438.17664 -228.12732 -1.8635838 255 255 255
1103.4784 482.617 1.5440811 255 255 255
254.47435 166.6481 0.71175539 255 255 255
14009.031 5508.5117 14.088923 255 255 255
1735.8301 3964.8408 6.6392012 255 255 255
446.36935 578.82184 1.2676864 255 255 255
-571.82251 -883.51666 -2.5680861 255 255 255
-196.71774 -159.07782 -1.4069928 255 255 255
525.22845 534.70435 1.3440814 255 255 255
-755.19611 -1765.5907 -6.7283015 255 255 255
328.62674 378.55521 1.1337409 255 255 255
-554.18921 -372.03342 -2.0672674 255 255 255
226.19804 439.64212 0.91604322 255 255 255
2838.1882 3381.9382 5.9052849 255 255 255
-226.53099 -139.75327 -1.5642313 255 255 255
336.60095 301.26859 0.94282305 255 255 255
-1774.7113 -535.59106 -3.0115931 255 255 255
-3022.6074 -1350.2661 -7.0865288 255 255 255
-1807.9841 -5831.7705 -8.4156485 255 255 255
365.16168 2062.0435 3.9686232 255 255 255
2868.0916 1742.3173 4.1080327 255 255 255
37.388145 269.50116 0.56834203 255 255 255
39.95076 63.557159 0.19492288 255 255 255
-449.23517 -129.52249 -2.7740283 255 255 255
-1215.9222 -1242.9445 -3.2736731 255 255 255
173.16386 732.74121 1.1942319 255 255 255
7919.2598 2581.4246 16.915613 255 255 255
-633.9328 -231.66304 -2.089179 255 255 255
3226.7332 1043.3802 5.2014599 255 255 255
-2088.5442 -560.27502 -3.1984043 255 255 255
647.19751 458.30844 1.6354185 255 255 255
-920.70715 -858.85858 -3.030668 255 255 255
-788.7663 -706.19653 -2.2628055 255 255 255
7530.3965 3833.4688 7.9435 255 255 255
-1018.8663 -323.9472 -1.9850987 255 255 255
-354.80847 -285.95248 -1.5729747 255 255 255
918.02386 1987.7451 3.4067638 255 255 255
1667.9365 1418.4507 2.2038338 255 255 255
1788.6576 667.3252 3.3695202 255 255 255
-3910.8589 -3661.1536 -11.535119 255 255 255
15.02752 34.741138 0.070250109 255 255 255
-2859.8474 -2484.8325 -7.6336589 255 255 255
258.72379 327.71057 0.84201998 255 255 255
-71.58976 -267.40927 -2.0156364 255 255 255
5219.4453 5294.6572 8.50702 255 255 255
-2701.8118 -3091.814 -6.8314576 255 255 255
179.43787 715.02075 1.178498 255 255 255
400.62592 518.40326 1.4768393 255 255 255
-1028.5105 -646.6106 -2.348062 255 255 255
-481.37442 -424.30646 -1.7886573 255 255 255
190.57056 642.58002 1.1068183 255 255 255
1243.839 1407.2802 2.4255333 255 255 255
-4101.8467 -4181.0024 -8.3965273 255 255 255
198.44099 632.90356 1.3568956 255 255 255
-1129.0753 -911.82397 -3.9632792 255 255 255
1216.5814 1386.0641 2.3960538 255 255 255
1232.1082 1393.3165 2.4116855 255 255 255
2397.6001 2279.0925 3.5316138 255 255 255
249.23329 338.17755 0.8393575 255 255 255
244.4539 334.5264 0.82909173 255 255 255
-2520.8115 -873.55212 -5.6125474 255 255 255
356.99182 302.76309 0.97845709 255 255 255
478.39011 697.63806 1.0227652 255 255 255
-464.03073 -235.59094 -1.4708408 255 255 255
-890.21509 -384.40097 -2.9997404 255 255 255
1101.7778 1091.4941 2.2142496 255 255 255
-3770.855 -2118.9128 -9.1687145 255 255 255
-1141.6626 -1424.6914 -3.5721531 255 255 255
-2993.7622 -2994.8662 -9.3186913 255 255 255
-992.0448 -1719.2025 -4.142293 255 255 255
210.9624 559.01904 1.0301647 255 255 255
3900.7488 2065.5803 5.0851355 255 255 255
204.66576 97.756683 0.23928893 255 255 255
-718.14014 -362.52536 -2.1773274 255 255 255
-1164.5175 -712.83081 -3.6245828 255 255 255
3068.3958 2115.0151 4.1740685 255 255 255
-273.37408 -383.40552 -1.765795 255 255 255
3954.5959 2062.8577 5.1325378 255 255 255
6168.585 5957.604 11.074927 255 255 255
-1347.179 -2663.2878 -5.8244452 255 255 255
226.50804 468.46179 0.94673985 255 255 255
247.56238 364.23581 0.86243027 255 255 255
-395.53052 -294.79675 -1.6643126 255 255 255
180.5546 713.24841 1.1775979 255 255 255
-865.67737 -451.44009 -2.431411 255 255 255
241.51953 526.67352 1.0836159 255 255 255
191.16144 652.4046 1.1174695 255 255 255
1234.889 1389.993 2.4136696 255 255 255
4127.1611 1211.2521 6.2933264 255 255 255
-133.03268 -108.5767 -1.8013089 255 255 255
-3922.6775 -5048.457 -9.6156378 255 255 255
7545.0615 3720.8257 7.4622908 255 255 255
-289.92355 -403.14047 -1.6274389 255 255 255
-284.62503 -334.07404 -1.6743863 255 255 255
-204.08714 -165.39851 -1.2587593 255 255 255
168.55154 752.88898 1.2154014 255 255 255
-597.55914 -1277.0377 -2.5969629 255 255 255
357.18512 581.97015 1.5112814 255 255 255
-1047.0195 -471.9707 -2.9356685 255 255 255
-154.04976 -244.5773 -1.2755494 255 255 255
577.92493 451.69626 0.64197856 255 255 255
2061.8252 1840.202 3.5484059 255 255 255
920.15961 1013.6576 4.9088006 255 255 255
-524.73956 -232.40176 -1.9106929 255 255 255
9995.249 3448.4922 9.877902 255 255 255
9542.082 2406.4956 11.049835 255 255 255
-885.75311 -756.82837 -3.1395276 255 255 255
5149.4717 2846.6467 5.2128959 255 255 255
-317.77032 -173.81244 -1.5627151 255 255 255
-3667.7698 -3751.0962 -7.3951292 255 255 255
3850.1077 1805.9554 5.2037911 255 255 255
-193.84361 -67.58947 -1.2070365 255 255 255
154.57422 816.66864 1.2739556 255 255 255
-358.76791 -190.93619 -1.4030828 255 255 255
-331.96841 -820.87677 -9.4168873 255 255 255
-300.59213 -173.00336 -1.4416007 255 255 255
-198.17284 -474.81107 -1.766396 255 255 255
-683.00732 -460.12595 -2.2022624 255 255 255
204.27316 582.77161 1.0506771 255 255 255
3068.7327 427.52969 3.7785654 255 255 255
-597.43604 -685.9295 -2.2018261 255 255 255
1356.0962 659.64087 1.5242507 255 255 255
-2836.9348 -762.80341 -3.6321218 255 255 255
-669.23322 -1766.7124 -3.4580903 255 255 255
362.22791 248.12607 0.85317677 255 255 255
331.66431 301.00406 0.93483144 255 255 255
4662.6992 1826.9575 4.7487426 255 255 255
408.79816 547.69788 1.5420895 255 255 255
198.73401 372.90134 0.71242964 255 255 255
-712.15967 -227.09636 -1.9036645 255 255 255
-694.34125 -187.08014 -2.0477552 255 255 255
-930.28473 -956.10571 -2.8898714 255 255 255
43.792652 20.276014 0.12592021 255 255 255
342.216 262.58997 0.9416731 255 255 255
1916.7937 985.66412 3.2990651 255 255 255
518.25928 515.61731 2.8792858 255 255 255
-541.52802 -191.54749 -2.1552241 255 255 255
244.91815 353.55899 0.84867102 255 255 255
-135.20287 -87.028435 -1.3133943 255 255 255
-477.16589 -255.9523 -1.8471677 255 255 255
670.82849 289.91312 1.3252932 255 255 255
-10029.007 -6285.6997 -28.03516 255 255 255
-464.04257 -798.49493 -2.5254977 255 255 255
-29.598074 -146.14667 -1.247156 255 255 255
457.86761 441.27264 1.3230938 255 255 255
1834.2845 1104.3889 3.1218858 255 255 255
110.79942 215.66568 0.52970523 255 255 255
240.46873 343.65598 0.83343178 255 255 255
-4445.1089 -3320.7788 -7.7442155 255 255 255
-705.60052 -654.75323 -2.355952 255 255 255
15.313326 57.08831 0.12616953 255 255 255
261.56476 329.12628 0.84768301 255 255 255
-1534.9541 -501.12421 -2.469121 255 255 255
1270.2849 1155.2075 2.4118948 255 255 255
1640.4716 16108.707 78.938942 255 255 255
3188.551 1047.4608 5.1441216 255 255 255
7358.4146 6924.2188 11.673143 255 255 255
263.08411 94.5047 0.7203595 255 255 255
-451.13425 -794.16498 -2.2673128 255 255 255
-259.38409 -133.11653 -1.2948786 255 255 255
-4930.9814 -5001.1274 -9.5018568 255 255 255
-1129.514 -322.08569 -3.0005298 255 255 255
-694.47693 -403.71204 -2.6644058 255 255 255
-359.96979 -188.07106 -1.9410739 255 255 255
2994.6685 3521.6738 6.1693883 255 255 255
1192.6874 1192.5917 2.3308499 255 255 255
1873.8293 1615.2527 3.0628371 255 255 255
2001.5062 1211.256 3.296279 255 255 255
-1516.2527 -1867.6636 -4.5959306 255 255 255
616.05005 324.04413 1.4729078 255 255 255
250.39719 395.34155 0.93841994 255 255 255
-461.87997 -367.22278 -1.9989935 255 255 255
-1109.1967 -583.10162 -3.3027418 255 255 255
-347.94562 -159.70122 -1.3861266 255 255 255
237.51709 349.63702 0.83496833 255 255 255
-965.11346 -467.0145 -2.7467303 255 255 255
-379.77615 -355.92197 -1.9794731 255 255 255
-143.50412 -211.07317 -1.3951929 255 255 255
30433.453 54762.305 122.28632 255 255 255
9144.9521 3537.8804 8.9853411 255 255 255
4685.6387 3419.3938 5.2648687 255 255 255
3970.1038 2055.5112 5.1583138 255 255 255
3234.5229 1618.0652 4.6136923 255 255 255
710.27808 873.01581 2.2609978 255 255 255
-210.45586 -275.45602 -1.6918545 255 255 255
3822.5588 1807.9119 5.1801085 255 255 255
-1049.7917 -557.76404 -2.0777109 255 255 255
8504.415 3686.2212 8.2737017 255 255 255
264.58725 322.31674 0.84599042 255 255 255
-757.20581 -523.48334 -2.4017653 255 255 255
29973.598 23975.451 45.990398 255 255 255
61.748104 24.313587 0.2120222 255 255 255
519.05682 529.19104 1.3337091 255 255 255
-243.35182 -382.5968 -1.6821264 255 255 255
-459.69055 -326.43604 -2.0652359 255 255 255
764.44403 521.61243 1.705698 255 255 255
807.573 475.29526 0.84034181 255 255 255
-159.63437 -187.30615 -1.2805978 255 255 255
228.87309 405.51907 0.8822068 255 255 255
8445.0791 3345.0188 8.5623655 255 255 255
3225.115 1650.4752 4.4781041 255 255 255
-1391.24 -613.9447 -4.2409234 255 255 255
226.60294 413.47028 0.8883872 255 255 255
-252.1071 -167.07176 -1.3668885 255 255 255
140.86038 897.91864 1.3518564 255 255 255
-482.38605 -332.25513 -2.0160093 255 255 255
225.68948 428.97342 0.90430498 255 255 255
-297.01999 -509.63312 -1.8705492 255 255 255
875.84076 1269.2306 1.2774848 255 255 255
144.16704 896.17139 1.3512794 255 255 255
3681.9634 2777.8367 5.3536029 255 255 255
-5139.186 -7865.71 -18.750763 255 255 255
39083.457 16928.086 62.965393 255 255 255
1466.2805 1429.3965 2.645761 255 255 255
227.15536 447.87906 0.92550361 255 255 255
35482.16 20061.742 38.593941 255 255 255
144.19183 889.28461 1.344103 255 255 255
-224.7765 -783.70355 -2.4264197 255 255 255
-1772.7234 -1623.9067 -3.9459455 255 255 255
248.77568 333.18536 0.83364028 255 255 255
3265.6521 1036.2068 5.2706771 255 255 255
100.4278 195.74316 0.49037504 255 255 255
191.61414 694.53839 1.1624516 255 255 255
1714.0074 1349.1742 2.9096053 255 255 255
423.16782 318.11987 1.2521321 255 255 255
348.80179 908.43048 1.9796971 255 255 255
225.69797 450.90878 0.92724019 255 255 255
-115.3297 -79.346123 -1.2216001 255 255 255
146.34322 875.04761 1.3302852 255 255 255
229.00955 454.37949 0.93425041 255 255 255
-276.63638 -139.85425 -1.3691877 255 255 255
9277.1846 3531.5583 9.0776396 255 255 255
-2562.0571 -2734.8386 -5.8424249 255 255 255
2348.3372 2261.3521 3.4879997 255 255 255
228.47072 431.34027 0.90878737 255 255 255
-2525.8657 -666.13098 -6.5579338 255 255 255
-52655.691 -79599.664 -157.8035 255 255 255
-537.59631 -633.71503 -2.0968871 255 255 255
218.90536 493.90042 0.9661411 255 255 255
225.52502 453.77686 0.92965651 255 255 255
-196.9136 -342.07449 -2.2952449 255 255 255
-3600.6003 -3840.7991 -8.0177002 255 255 255
2227.2512 1004.3796 2.7417128 255 255 255
237.2459 162.45369 0.42531863 255 255 255
58.214333 40.943634 0.063418098 255 255 255
-559.21124 -198.80479 -2.1771681 255 255 255
-271.38712 -349.60156 -1.5129174 255 255 255
371.3212 181.15207 0.79077417 255 255 255
-2497.1121 -2348.1296 -5.4557314 255 255 255
-4497.2515 -4649.9619 -9.6825294 255 255 255
4780.7603 1998.8804 6.136127 255 255 255
538.43652 560.88678 0.67265761 255 255 255
-2799.259 -2975.2471 -6.4887276 255 255 255
67.407524 453.2847 0.83458495 255 255 255
-2276.5432 -3070.2395 -6.843204 255 255 255
2713.3286 1344.9758 4.1491518 255 255 255
1641.0956 1277.6534 2.7487628 255 255 255
-416.7966 -443.45645 -1.9296601 255 255 255
2070.582 1386.047 3.131485 255 255 255
-3332.4314 -4636.167 -9.3600836 255 255 255
7240.8232 3747.6792 8.3875904 255 255 255
10891.139 5454.9873 24.284075 255 255 255
-242.98485 -159.48018 -1.3454254 255 255 255
-6195.9321 -6261.061 -12.075433 255 255 255
-3853.2212 -4103.4639 -8.4201155 255 255 255
-11390.996 -6387.2583 -13.298385 255 255 255
1210.3977 751.15698 1.6248147 255 255 255
218.82576 510.88107 0.98466074 255 255 255
893.38019 535.24573 1.6702331 255 255 255
-686.86707 -223.75873 -2.1367309 255 255 255
1644.0437 1062.7449 2.8389387 255 255 255
495.45465 1174.213 1.7313547 255 255 255
2222.6602 1178.1654 3.6079037 255 255 255
8809.6016 3160.0576 9.097559 255 255 255
21.330626 53.686749 0.12860094 255 255 255
-3801.3923 -3660.8284 -7.0625672 255 255 255
382.00031 170.05548 0.87740707 255 255 255
-1341.2904 -1397.1941 -3.6292787 255 255 255
-508.45926 -789.34393 -1.8660204 255 255 255
3232.3743 1044.1647 5.210444 255 255 255
-484.92517 -171.7016 -1.9621291 255 255 255
243.76555 337.73035 0.83164006 255 255 255
1235.2146 1388.9106 2.4122834 255 255 255
-5797.4722 -6056.3535 -12.774215 255 255 255
1251.8319 1573.5072 5.277647 255 255 255
-1496.1785 -1875.0685 -4.2695098 255 255 255
33237.754 26899.791 55.748356 255 255 255
3732.688 2032.1055 4.9096303 255 255 255
631.02277 326.33459 1.5027626 255 255 255
562.68982 508.28116 1.8925215 255 255 255
-1915.8083 -3001.2754 -7.2455578 255 255 255
1214.7653 1383.2356 2.3912027 255 255 255
9306.6299 3546.1086 9.1104794 255 255 255
3561.4077 2666.5222 5.1646447 255 255 255
1126.3872 1282.8597 1.4662958 255 255 255
947.45001 1088.1735 1.2642443 255 255 255
367.38321 302.76971 0.99657249 255 255 255
-625.44061 -531.45892 -1.8608291 255 255 255
608.8797 323.99255 1.4600692 255 255 255
10358.453 3335.2903 10.280807 255 255 255
-840.36182 -514.4389 -2.3993623 255 255 255
9978.0068 3428.5156 9.8601713 255 255 255
-117.91698 -76.82666 -1.3098876 255 255 255
422.94794 514.89056 1.4966584 255 255 255
-379.23746 -136.39536 -1.5238222 255 255 255
759.57086 958.5058 1.8088762 255 255 255
-55.120182 -79.597244 -1.3369579 255 255 255
-923.81256 -558.17926 -2.1397498 255 255 255
225.76761 454.64783 0.93126047 255 255 255
10921.722 3264.573 10.98715 255 255 255
223.68056 463.04123 0.93703675 255 255 255
-1515.9625 -1866.7051 -4.5946493 255 255 255
1237.823 1402.962 2.4176366 255 255 255
-12588.483 -3262.4023 -15.948853 255 255 255
-9774.1699 -9070.8867 -19.318882 255 255 255
180.58043 713.4986 1.1775924 255 255 255
-184.336 -161.85103 -1.2592102 255 255 255
-18454.836 -19159.787 -35.684303 255 255 255
258.76535 327.92554 0.84250712 255 255 255
-917.71539 -307.56415 -1.9861624 255 255 255
-904.86566 -1087.5835 -2.7925594 255 255 255
-884.6792 -435.1705 -2.0417717 255 255 255
208.12878 555.48657 1.0243746 255 255 255
-991.75928 -933.42517 -2.2710526 255 255 255
-1477.9883 -1998.4291 -7.8490844 255 255 255
9383.4922 2183.0779 11.365802 255 255 255
-3168.8113 -5209.522 -12.346457 255 255 255
593.55414 525.94946 1.4323925 255 255 255
7777.1514 2532.5251 7.6250372 255 255 255
-220.0175 -133.95758 -1.2265596 255 255 255
754.90887 341.20956 1.7514075 255 255 255
136.48146 376.71371 0.73792982 255 255 255
-2248.4644 -823.19818 -4.9859719 255 255 255
382.99902 597.70013 1.5908322 255 255 255
226.49318 413.04553 0.88753188 255 255 255
9585.7705 7311.0376 14.896379 255 255 255
253.49162 640.72192 1.2932132 255 255 255
202.12794 581.63605 1.0482081 255 255 255
248.69463 334.98743 0.83536673 255 255 255
-278.34412 -322.97488 -1.5394258 255 255 255
2396.2366 1503.9237 2.7741516 255 255 255
-1103.9552 -1405.1857 -5.0550809 255 255 255
188.56105 642.79388 1.1059432 255 255 255
2347.7258 2259.8611 3.4857481 255 255 255
-772.68738 -465.74933 -1.9393291 255 255 255
914.01611 357.23734 0.8806988 255 255 255
175.14471 724.90265 1.1866602 255 255 255
-270.43021 -161.18164 -1.4346892 255 255 255
-3933.2827 -3746.8704 -5.8046393 255 255 255
-2039.4392 -538.20551 -4.2269788 255 255 255
229.18585 432.263 0.91068435 255 255 255
3190.8728 1046.9948 5.1479659 255 255 255
229.84917 342.01309 0.78176081 255 255 255
317.86823 308.04691 1.0031291 255 255 255
1075.9324 3996.989 8.6932945 255 255 255
-637.53351 -219.70769 -1.6905675 255 255 255
-2065.1755 -1586.4618 -4.190588 255 255 255
2377.4697 2268.6926 3.5143633 255 255 255
2999.6082 3735.3862 9.9716434 255 255 255
10049.213 3454.0964 9.9370117 255 255 255
140.6705 898.02753 1.3526306 255 255 255
1034.724 1661.0459 2.1057408 255 255 255
2910.8499 4363.4668 10.602942 255 255 255
-2975.0957 -2207.8025 -4.292726 255 255 255
-1214.2805 -1100.5756 -3.0779598 255 255 255
-453.67828 -533.00891 -1.889652 255 255 255
201.30255 122.90432 0.50423843 255 255 255
-137.95583 -270.24487 -1.4556502 255 255 255
10266.079 3324.6692 10.194981 255 255 255
-551.05023 -295.74228 -2.3173759 255 255 255
3279.2007 1031.2561 5.3040085 255 255 255
332.85025 300.24457 0.93556666 255 255 255
228.93448 405.1131 0.88156849 255 255 255
233.63266 392.5531 0.87400031 255 255 255
-378.69601 -202.5585 -1.3754661 255 255 255
803.5838 867.04175 2.1390855 255 255 255
3960.2534 2065.8494 5.1388168 255 255 255
-14316.191 -10460.49 -35.845467 255 255 255
-316.27835 -156.97324 -1.356078 255 255 255
-756.3988 -1050.5977 -2.5353117 255 255 255
593.25677 275.70847 1.4102502 255 255 255
-80.590324 -132.10823 -1.3373485 255 255 255
239.99283 342.65326 0.83103627 255 255 255
8781.9395 3153.2131 9.0685835 255 255 255
1250.0614 1397.5372 2.4281657 255 255 255
-83.720352 -116.78986 -1.1878446 255 255 255
-21708.23 -22546.586 -41.903847 255 255 255
338.49667 394.96426 1.172067 255 255 255
-1383.2953 -1765.6771 -4.969265 255 255 255
-294.1861 -243.84023 -1.7349697 255 255 255
8354.3037 8834.2773 18.599823 255 255 255
21.067528 169.11267 0.39294159 255 255 255
1045.6497 554.18842 2.1744406 255 255 255
8440.9746 3342.3479 8.5558739 255 255 255
1633.298 1177.4711 2.0261488 255 255 255
-109.91048 -210.75493 -1.7415057 255 255 255
1067.981 4031.3923 8.7681789 255 255 255
209.43401 545.0603 1.013984 255 255 255
-1550.0132 -1525.9269 -3.8215892 255 255 255
31.350012 29.60606 0.13675746 255 255 255
-374.17944 -778.86102 -2.0008898 255 255 255
837.81207 856.44287 1.8593398 255 255 255
1484.9434 1549.2748 1.947262 255 255 255
9318.1475 3549.0752 9.0855885 255 255 255
-139.63684 -91.607635 -1.2596201 255 255 255
7539.1426 3716.5505 7.4543891 255 255 255
