ply
format ascii 1.0
comment PCL generated
element vertex 1104
property float x
property float y
property float z
property uchar red
property uchar green
property uchar blue
element face 0
element camera 0
property float view_px
property float view_py
property float view_pz
property float x_axisx
property float x_axisy
property float x_axisz
property float y_axisx
property float y_axisy
property float y_axisz
property float z_axisx
property float z_axisy
property float z_axisz
property float focal
property float scalex
property float scaley
property float centerx
property float centery
property int viewportx
property int viewporty
property float k1
property float k2
end_header
-909.48651 -1180.7864 -3.6245832 255 255 255
-2784.051 -1843.4966 -5.3349428 255 255 255
538.23627 704.71027 0.61093462 255 255 255
-624.34711 -838.03784 -3.0641811 255 255 255
-1078.5522 -1562.4172 -4.4282336 255 255 255
-4206.7349 -3802.896 -9.1856184 255 255 255
629.91248 867.58997 0.69262099 255 255 255
-1127.7148 -1755.6228 -4.1226263 255 255 255
3275.4834 6811.458 11.202082 255 255 255
449.55811 2045.2766 2.5915716 255 255 255
-1706.0118 -1479.0446 -5.8117766 255 255 255
-781.021 -641.74878 -2.4988959 255 255 255
2264.3992 4612.5942 7.6775522 255 255 255
-300.11923 -449.94376 -1.7754668 255 255 255
1229.4281 1010.4017 2.4418411 255 255 255
-381.46933 -443.93741 -1.7778211 255 255 255
410.63797 1116.193 1.2480704 255 255 255
704.8208 588.12512 1.7266923 255 255 255
937.1524 591.97736 2.2443712 255 255 255
523.13049 797.992 0.84561086 255 255 255
-71088.656 -35408.723 -88.152451 255 255 255
312.99335 960.62531 1.0090871 255 255 255
490.32196 530.18829 1.3208557 255 255 255
-3620.9214 -4778.314 -9.8734207 255 255 255
103.80053 659.48376 0.62526762 255 255 255
-2927.5061 -669.72412 -4.3211536 255 255 255
2194.7651 1924.0214 2.7547436 255 255 255
-1060.9146 -3768.6938 -8.13832 255 255 255
977.8913 5072.8657 9.4487095 255 255 255
941.56268 629.83942 2.072675 255 255 255
3957.2021 2093.488 4.7973289 255 255 255
1590.7612 2585.4993 4.6849141 255 255 255
11392.762 6959.4253 12.867145 255 255 255
-2505.345 -2888.2739 -7.4728179 255 255 255
-3045.6619 -1377.9677 -4.9452457 255 255 255
-3048.5601 -3188.741 -7.4248562 255 255 255
-1152.2286 -2128.2927 -4.2719779 255 255 255
-609.52106 -2160.686 -4.3701129 255 255 255
-1610.6147 -1965.9556 -4.4635401 255 255 255
-1503.2731 -3401.7114 -8.0850172 255 255 255
763.28821 1286.1738 2.5271072 255 255 255
256.06876 1037.1388 1.0806105 255 255 255
4154.7871 8051.4731 17.059082 255 255 255
8118.936 12492.369 25.732515 255 255 255
730.9632 1674.4972 2.6851978 255 255 255
894.15234 701.38373 1.8989537 255 255 255
1198.7083 1091.8237 1.3017958 255 255 255
1176.3796 995.53149 1.3787626 255 255 255
1473.2904 4515.4136 8.9805689 255 255 255
-823.28558 -305.60077 -2.7595327 255 255 255
64297.32 264460.56 506.05554 255 255 255
436.0994 1501.7329 1.8129168 255 255 255
4203.8354 5129.1733 11.000942 255 255 255
361.27118 1004.9846 1.0514897 255 255 255
992.19965 1190.4432 1.7410699 255 255 255
-389.85706 -151.39323 -1.8047222 255 255 255
-5773.2305 -3946.5515 -11.70234 255 255 255
877.99286 599.59723 1.3174248 255 255 255
231.86975 234.57918 0.80168825 255 255 255
1079.6851 899.78577 2.2452705 255 255 255
-1710.1327 -3221.886 -6.1394873 255 255 255
5977.3062 6494.5864 9.2481213 255 255 255
561.45483 1817.548 2.0019355 255 255 255
-10985.686 -3808.4106 -13.839157 255 255 255
2665.625 1572.0657 4.7137284 255 255 255
1759.574 773.47089 3.9708142 255 255 255
544.89832 488.86688 1.4431703 255 255 255
46.925278 361.05264 0.61807317 255 255 255
905.08173 565.94855 1.9493817 255 255 255
-393.32587 -765.72754 -2.1224492 255 255 255
-16155.119 -28836.002 -45.14875 255 255 255
858.72003 624.23975 2.03496 255 255 255
-3816.1819 -6408.1064 -9.4967575 255 255 255
421.92502 1662.5643 2.2354939 255 255 255
964.50079 1325.2463 2.9415557 255 255 255
363.4176 1200.1169 1.5367649 255 255 255
-9090.0957 -9786.3281 -24.918434 255 255 255
-1048.299 -332.75214 -4.1057787 255 255 255
4772.3657 2776.5266 7.1296639 255 255 255
-898.30664 -898.32422 -3.0767658 255 255 255
683.27539 383.69901 1.0492716 255 255 255
-267.6434 -207.86697 -1.4365028 255 255 255
-11952.492 -23944.328 -50.10326 255 255 255
273.30505 1175.6355 1.2379249 255 255 255
3806.9102 2432.5083 5.4783068 255 255 255
1131.5992 2423.0762 4.1210747 255 255 255
3735.7317 2130.9302 6.0853276 255 255 255
519.06244 742.81122 0.67432755 255 255 255
-2716.8398 -296.68738 -4.528183 255 255 255
355.46011 2240.2385 4.2379003 255 255 255
852.75299 695.48914 1.9612349 255 255 255
1079.698 934.13062 2.4354956 255 255 255
1233.2515 5363.1577 8.8850622 255 255 255
-2163.0781 -3377.3464 -5.851831 255 255 255
385.35608 797.09723 1.1168959 255 255 255
26921.057 33245.996 65.953445 255 255 255
358.77643 795.00067 1.0851945 255 255 255
837.9743 675.30597 1.5840881 255 255 255
3058.6147 1603.0054 5.5466266 255 255 255
3590.9724 2614.4011 4.874269 255 255 255
-160.80336 -760.01917 -2.0634928 255 255 255
-256.84637 -395.37915 -2.0539751 255 255 255
865.91052 756.17041 1.9408883 255 255 255
616.36975 717.57666 0.73094326 255 255 255
772.94562 403.07172 0.98524314 255 255 255
739.50244 739.77698 1.7024655 255 255 255
-2599.2292 -1312.978 -7.9174733 255 255 255
1182.3296 1748.0831 3.4290383 255 255 255
941.17841 956.12543 1.1529297 255 255 255
-255.98196 -1132.5952 -3.201843 255 255 255
-912.99084 -1533.7802 -3.789305 255 255 255
770.47296 842.05054 0.95296514 255 255 255
-113263.86 -95318.086 -280.65533 255 255 255
1664.6729 913.48077 3.4971371 255 255 255
3326.9426 2473.9482 4.5828252 255 255 255
-928.84308 -2907.1626 -6.0781441 255 255 255
-695.68738 -723.55011 -2.2210958 255 255 255
2246.9004 1823.9398 3.4544866 255 255 255
187.5405 149.87114 0.23873007 255 255 255
311.93289 1002.0856 0.99880099 255 255 255
242.20844 1041.571 1.1925613 255 255 255
-776.88177 -931.97021 -2.8303657 255 255 255
310.27777 1001.09 0.99700397 255 255 255
1161.8834 1185.6986 2.1484888 255 255 255
1606.7593 2581.9038 4.4020019 255 255 255
475.32458 853.74194 1.2286888 255 255 255
-2841.126 -2085.6367 -5.0280809 255 255 255
-11962.771 -4320.9478 -14.780613 255 255 255
8898.7822 3136.4421 11.460177 255 255 255
739.0271 945.47778 1.314038 255 255 255
939.15363 2289.0415 4.0143318 255 255 255
-883.75269 -1045.5997 -3.9823208 255 255 255
4207.3145 2654.0142 6.1300631 255 255 255
556.20001 763.23743 1.3729285 255 255 255
-766.43207 -1864.3777 -4.6742048 255 255 255
100.31643 743.34814 0.81198961 255 255 255
355.49701 1010.5898 1.0413586 255 255 255
102.08406 134.68527 0.45245224 255 255 255
1529.0587 1200.7001 3.7356846 255 255 255
350.64874 1018.7839 1.0354395 255 255 255
6261.4307 7354.2075 9.9695435 255 255 255
883.37903 915.23932 1.8582977 255 255 255
1710.903 2419.5671 3.8001142 255 255 255
4119.2837 2272.4604 5.6229062 255 255 255
931.62061 2690.3374 2.8782303 255 255 255
614.30249 1185.5065 1.6834623 255 255 255
576.1347 631.1123 0.899979 255 255 255
61.683048 534.51654 0.74052346 255 255 255
858.90033 550.22314 1.1427555 255 255 255
601.50427 705.09283 0.70745462 255 255 255
25249.529 10383.617 83.658646 255 255 255
626.43506 683.49945 0.72087955 255 255 255
1370.2996 1050.8668 1.605038 255 255 255
418.83408 912.16809 1.2088455 255 255 255
254.67232 708.59479 0.96104646 255 255 255
3877.762 2701.0178 5.3198361 255 255 255
-7572.8574 -2060.1821 -10.391859 255 255 255
-814.45526 -971.44519 -2.7683196 255 255 255
1069.5369 2072.8071 3.1328366 255 255 255
1708.2891 804.38348 3.7941148 255 255 255
-1266.6016 -2240.4036 -8.4420767 255 255 255
856.00122 1266.959 3.134711 255 255 255
2211.4275 1596.3651 2.797143 255 255 255
3012.7722 1318.1174 5.9805012 255 255 255
655.69678 651.92615 1.5894305 255 255 255
296.44504 524.59985 0.98588252 255 255 255
-885.84705 -1045.7076 -2.9768083 255 255 255
1965.6122 1217.1985 4.706274 255 255 255
-274.75284 -144.48561 -1.29256 255 255 255
-436.33817 -313.45459 -2.3025703 255 255 255
-7752.3472 -2179.8291 -10.432022 255 255 255
-529.29871 -802.65308 -1.8790334 255 255 255
-423.94827 -649.1676 -2.0488288 255 255 255
1314.4314 1180.1194 1.672703 255 255 255
-1413.0481 -2424.1633 -6.3821449 255 255 255
-248.06297 -259.77643 -1.5701196 255 255 255
933.4754 613.2851 2.2139366 255 255 255
38343.977 27196.791 95.380981 255 255 255
-315.62866 -171.55739 -1.3798946 255 255 255
968.45062 1342.7787 1.6920713 255 255 255
3802.9453 1684.2174 7.1293268 255 255 255
1163.3071 1177.5427 2.1617336 255 255 255
3023.4958 3372.5105 4.966433 255 255 255
1093.1859 900.48999 2.2715166 255 255 255
135.68013 168.07631 0.54179168 255 255 255
723.89191 1320.1328 1.956946 255 255 255
532.85413 1669.8311 1.8121299 255 255 255
86.738571 735.76605 0.80145663 255 255 255
-411.76938 -96.87336 -1.4756894 255 255 255
341.4751 992.95227 1.0326304 255 255 255
-1013.3785 -1103.2085 -3.7648535 255 255 255
210.63332 404.59842 0.47434431 255 255 255
55.86694 274.43103 0.27647662 255 255 255
748.7157 615.53406 1.8038 255 255 255
-5051.7642 -952.95685 -7.2266479 255 255 255
-924.59393 -962.38879 -2.4216485 255 255 255
307.9213 978.62756 1.0016016 255 255 255
-3817.4714 -3378.5632 -6.5583177 255 255 255
685.89813 621.70374 1.6907551 255 255 255
1072.1104 1499.1993 1.6953022 255 255 255
-1612.2217 -2427.2727 -4.4529257 255 255 255
5624.1196 3167.7192 15.971334 255 255 255
7119.8896 4658.835 8.4269953 255 255 255
6532.2725 11722.623 14.308346 255 255 255
203.09119 889.8515 0.91159362 255 255 255
-780.51001 -1103.0961 -3.1170309 255 255 255
43.266823 403.07202 0.64907217 255 255 255
3842.2642 2682.8491 5.283433 255 255 255
1629.3483 1486.9796 1.8719004 255 255 255
-843.72217 -462.88022 -2.0781024 255 255 255
304.17276 975.31421 0.99859774 255 255 255
272.38779 958.35486 0.96784079 255 255 255
-2827.2913 -2575.844 -7.0558767 255 255 255
-3732.4131 -1770.255 -7.0520158 255 255 255
542.82025 555.27112 1.4134997 255 255 255
298.44055 992.51288 0.98715031 255 255 255
-2417.9578 -4023.7117 -9.8305168 255 255 255
486.35663 654.07654 1.2654631 255 255 255
-1027.847 -1444.0959 -4.1112204 255 255 255
-4847.1616 -6510.0171 -13.090478 255 255 255
1559.9027 1759.9062 2.3889554 255 255 255
523.76935 484.04568 1.4004219 255 255 255
14468.493 11182.48 28.276354 255 255 255
350.67664 1172.4408 1.1770325 255 255 255
384.92392 452.44263 0.65792602 255 255 255
784.21478 679.83734 1.8302672 255 255 255
760.59967 1479.5828 2.0750368 255 255 255
352.745 1017.261 1.0383968 255 255 255
965.46674 2119.0154 3.0680215 255 255 255
340.19644 1006.7559 1.0289406 255 255 255
237.59869 656.34601 0.93205899 255 255 255
-2605.5557 -1770.4819 -4.5191855 255 255 255
917.84424 339.69815 1.2552035 255 255 255
4373.5454 2692.0664 6.4213095 255 255 255
-1290.0759 -791.65735 -2.5793338 255 255 255
-2130.0471 -1715.7246 -5.0641184 255 255 255
3565.0771 3335.5776 8.8208466 255 255 255
-1391.9523 -2008.7211 -5.2946072 255 255 255
-450.93359 -840.91333 -2.3492703 255 255 255
-706.87671 -819.18658 -2.490128 255 255 255
1797.8007 4629.7437 11.906262 255 255 255
665.38806 774.21021 1.6570525 255 255 255
150.47466 202.5153 0.60777515 255 255 255
-24970.309 -16559.309 -35.96661 255 255 255
140.32217 764.82758 0.84762406 255 255 255
-1148.2008 -753.82654 -2.3967185 255 255 255
-1331.8907 -984.4397 -3.2171323 255 255 255
963.0567 927.99951 1.9964176 255 255 255
282.94748 959.06915 0.9784714 255 255 255
-1137.2754 -1343.5586 -3.8454916 255 255 255
1232.6632 1123.0879 3.3622406 255 255 255
-1123.2634 -468.02853 -3.9350247 255 255 255
6401.9624 8217.9395 18.446476 255 255 255
3196.8755 1606.3896 5.8517485 255 255 255
-4549.4434 -4220.9312 -6.918345 255 255 255
-828.29907 -1085.2941 -2.7256465 255 255 255
-6823.3081 -1717.3889 -9.4786291 255 255 255
796.91803 1521.771 2.4037926 255 255 255
1036.2061 2166.1042 2.441642 255 255 255
-617.10065 -746.96405 -2.6952071 255 255 255
778.30457 393.14539 0.91355288 255 255 255
326.2666 977.45764 1.019704 255 255 255
2400.3179 4402.1743 7.1283035 255 255 255
763.86383 449.92551 1.1925651 255 255 255
-813.29639 -594.50592 -2.5389888 255 255 255
263.91364 635.52802 0.96361446 255 255 255
858.42419 790.13867 1.8997728 255 255 255
391.87952 1160.0295 1.1820898 255 255 255
325.80328 975.22552 1.0212885 255 255 255
-2114.2771 -846.14624 -4.3536506 255 255 255
1386.3037 2615.4031 3.9441497 255 255 255
-7517.2651 -11171.062 -19.512394 255 255 255
3853.3428 6597.3599 13.329731 255 255 255
646.63062 621.3573 1.0070562 255 255 255
1166.4915 1167.5352 1.358381 255 255 255
1622.3911 2102.9614 4.8909645 255 255 255
3884.4534 2578.3489 5.5708203 255 255 255
1726.5767 1008.4095 7.6673236 255 255 255
1148.2152 823.71521 1.4677095 255 255 255
46.158615 417.71851 0.66059852 255 255 255
58.89336 390.43716 0.64968926 255 255 255
1753.2664 3163.97 6.0017719 255 255 255
274.32736 950.35919 0.97238159 255 255 255
1157.5028 584.12195 3.1736166 255 255 255
1709.8019 791.42633 3.8152347 255 255 255
1079.8136 1128.943 1.1359047 255 255 255
505.40298 761.12238 0.82017797 255 255 255
831.93402 888.91541 1.0823489 255 255 255
384.97147 1169.4128 1.2144588 255 255 255
-4135.5112 -4541.478 -9.9534998 255 255 255
8814.2568 15037.502 28.301516 255 255 255
2326.9431 1276.4673 7.1464224 255 255 255
-10302.526 -3486.8247 -12.998403 255 255 255
580.74323 1015.0762 1.9175377 255 255 255
-203.61026 -756.19342 -2.0997996 255 255 255
14464.15 8636.9316 56.120621 255 255 255
-2881.3018 -6246.3325 -11.042665 255 255 255
875.31036 529.89496 2.1654515 255 255 255
-1434.6486 -1065.8544 -5.4233317 255 255 255
-728.0993 -759.72302 -2.7802827 255 255 255
9563.1289 6279.0034 12.594025 255 255 255
559.24554 715.70508 1.3929651 255 255 255
5608.6792 3619.2664 15.529178 255 255 255
-3746.2959 -16968.672 -34.404484 255 255 255
1142.0162 1179.5083 1.4018428 255 255 255
459.88205 835.97888 1.2126807 255 255 255
-194.35796 -530.97662 -1.8006235 255 255 255
-2509.4304 -1968.017 -8.1709967 255 255 255
-496.89514 -516.98163 -1.9421978 255 255 255
63.6777 349.73257 0.61973971 255 255 255
528.48926 1123.0304 1.2714733 255 255 255
348.3205 1010.927 1.0356587 255 255 255
-1318.2372 -1744.1083 -3.9855769 255 255 255
744.43713 1759.762 1.915852 255 255 255
-1556.1268 -1233.7476 -3.2974572 255 255 255
3457.1396 1633.189 6.4083805 255 255 255
745.0426 704.85785 1.7348095 255 255 255
3760.0706 1436.8201 7.0357404 255 255 255
4421.4639 2694.0422 6.5208755 255 255 255
910.61798 2018.0623 2.9052403 255 255 255
484.46472 688.16925 0.92917371 255 255 255
1958.4829 2990.0344 5.2695704 255 255 255
334.31503 1006.4593 1.0228448 255 255 255
363.07257 536.12085 0.69851595 255 255 255
985.09393 753.44849 2.1873314 255 255 255
-3647.8669 -5208.8486 -9.9468927 255 255 255
413.36285 316.13632 0.53088701 255 255 255
-5505.7729 -5665.9839 -8.5947971 255 255 255
277.33545 979.599 0.96916074 255 255 255
-16908.771 -22342.883 -42.421425 255 255 255
312.99243 959.99725 1.0091357 255 255 255
-526.33899 -1499.1377 -3.4954529 255 255 255
1717.7218 636.86078 4.1350942 255 255 255
714.68823 703.78815 1.6766613 255 255 255
-3108.1228 -3734.7852 -8.6234722 255 255 255
-1487.3525 -1798.1785 -4.6313915 255 255 255
1782.7094 1339.6256 3.6811149 255 255 255
-1344.7789 -2304.0273 -4.7422385 255 255 255
1068.1655 951.73663 2.1770539 255 255 255
788.57281 724.45355 1.8070143 255 255 255
883.92926 449.79224 1.1598333 255 255 255
-322.74765 -378.08542 -1.7161337 255 255 255
1000.0763 719.54352 2.2523828 255 255 255
1706.516 636.26465 4.1129599 255 255 255
113.41461 169.49438 0.50867867 255 255 255
-618.43018 -264.49719 -1.990068 255 255 255
3796.1316 2668.9636 5.2080307 255 255 255
337.14795 1005.3131 1.0240362 255 255 255
1726.3118 2840.5403 4.3606324 255 255 255
815.07446 872.38599 1.76442 255 255 255
4688.9438 3812.46 6.2478976 255 255 255
-12542.021 -4340.4878 -16.401651 255 255 255
1263.6047 2173.1655 3.9680398 255 255 255
2997.3533 6439.4282 14.440861 255 255 255
845.34277 1377.6227 2.612052 255 255 255
2251.1309 1784.0045 2.8895648 255 255 255
980.53168 976.39655 1.2233433 255 255 255
658.69818 725.32599 1.5632218 255 255 255
10466.144 6552.5918 11.703025 255 255 255
1045.6322 1735.9161 2.7605238 255 255 255
675.5611 323.27615 1.9096848 255 255 255
158.86455 323.565 0.66816127 255 255 255
-5821.7324 -8331.1133 -14.889794 255 255 255
253.94934 322.41214 0.86526132 255 255 255
-623.92035 -1567.4879 -3.4607894 255 255 255
-231.54663 -229.47337 -1.4447008 255 255 255
1182.1404 1438.2084 2.6151993 255 255 255
688.59467 1611.7739 1.8171763 255 255 255
356.15167 1016.3444 1.0421642 255 255 255
1112.1359 2669.8938 4.859149 255 255 255
7343.0186 4746.0083 8.7310762 255 255 255
345.75577 1007.8612 1.0355352 255 255 255
-1035.3135 -528.77948 -3.3980567 255 255 255
1771.4557 784.12708 3.9829597 255 255 255
579.67377 661.79163 1.4464241 255 255 255
-1699.1886 -2101.0442 -4.8446178 255 255 255
9590.3057 3490.3208 17.057638 255 255 255
-10402.667 -5935.5581 -32.254715 255 255 255
-759.79523 -1875.7897 -3.7534144 255 255 255
679.13501 1196.29 3.0584002 255 255 255
-961.27771 -1245.4279 -3.5542614 255 255 255
1171.8961 1409.4625 1.562132 255 255 255
9318.0762 3402.835 16.606436 255 255 255
516.02246 1360.822 1.4351053 255 255 255
14705.477 21032.92 36.518784 255 255 255
874.01843 2096.0688 2.2678952 255 255 255
-324.75125 -632.77332 -2.1895883 255 255 255
-6061.4766 -7727.501 -15.128198 255 255 255
-1289.5527 -1250.1794 -3.3839188 255 255 255
456.60242 240.95587 0.62034488 255 255 255
679.42041 737.4892 0.78983039 255 255 255
-1446.8833 -1620.1998 -4.1799932 255 255 255
-21787.191 -42370.996 -54.561935 255 255 255
454.90051 1572.4265 1.6224041 255 255 255
2784.9194 3710.2942 7.6693726 255 255 255
-576.95477 -159.6743 -2.2097056 255 255 255
1698.0631 1184.4398 2.0385637 255 255 255
-7747.4062 -2130.9175 -10.617672 255 255 255
139.18376 850.1496 0.79966527 255 255 255
104.23026 696.71594 0.67303425 255 255 255
882.57898 812.23322 1.9291459 255 255 255
343.28717 999.59235 1.032927 255 255 255
4946.7134 2900.8044 7.2516155 255 255 255
-5009.7979 -940.1723 -7.1473479 255 255 255
-1715.6537 -895.26727 -3.1055551 255 255 255
935.42426 906.63177 1.9588437 255 255 255
-715.24762 -2078.0586 -4.6946077 255 255 255
216.07149 847.67938 0.90574217 255 255 255
55.731934 414.01331 0.66410255 255 255 255
929.37579 1159.9436 1.5013725 255 255 255
-5826.2163 -3900.6821 -17.022766 255 255 255
529.67853 253.68307 0.67780757 255 255 255
-674.39789 -580.29736 -2.6615152 255 255 255
884.33838 1151.8525 1.3635545 255 255 255
2255.0481 5960.5947 8.7105207 255 255 255
-707.95782 -455.98953 -1.9837074 255 255 255
993.74243 721.10266 2.2374403 255 255 255
-979.2735 -479.38049 -3.2229223 255 255 255
-857.46301 -478.68091 -3.5828257 255 255 255
594.8327 651.06055 1.4764462 255 255 255
2246.4666 3879.2812 6.0602856 255 255 255
179.62483 314.95862 0.5958972 255 255 255
-2120.5645 -1226.9929 -4.2092896 255 255 255
610.85065 352.49725 0.74913859 255 255 255
-529.0174 -1517.2441 -3.09568 255 255 255
4792.5674 5776.9204 10.504416 255 255 255
-1436.1509 -2135.5559 -5.5326157 255 255 255
684.92059 884.37018 0.79847002 255 255 255
2107.9922 6512.7363 12.322041 255 255 255
161.97353 191.81 0.38618165 255 255 255
1166.0071 2534.4141 3.859529 255 255 255
148.49557 505.43301 0.525186 255 255 255
-287.66727 -310.13474 -1.9896116 255 255 255
-585.94452 -860.76697 -2.8025336 255 255 255
61.192352 369.31491 0.63414872 255 255 255
-707.6228 -1493.048 -3.0896008 255 255 255
-413.33197 -609.79651 -2.0887952 255 255 255
2290.6614 4461.4771 7.5604892 255 255 255
-1197.5326 -1397.9493 -3.5315304 255 255 255
-844.45349 -1147.2817 -2.9582381 255 255 255
3027.9741 2218.1416 4.4175396 255 255 255
714.62781 807.51147 0.82584709 255 255 255
913.70557 626.53589 2.154206 255 255 255
691.66803 722.03784 1.6240577 255 255 255
-5902.6094 -11149.833 -24.263052 255 255 255
-344.16833 -290.84958 -1.5564169 255 255 255
-938.04602 -505.49542 -3.5395772 255 255 255
-470.34781 -666.90259 -2.2147684 255 255 255
465.15527 559.51837 1.0710837 255 255 255
-2540.9937 -2939.4666 -5.8213706 255 255 255
-520.12189 -421.10013 -1.9210397 255 255 255
641.61493 551.9826 1.3583553 255 255 255
1090.3501 880.0686 2.285974 255 255 255
1495.5994 2815.3818 4.4218364 255 255 255
840.28406 876.1048 0.98287308 255 255 255
258.23288 285.58691 0.57755888 255 255 255
-1936.9436 -3001.7263 -7.2106395 255 255 255
793.30554 563.56995 1.9372813 255 255 255
2430.1904 2152.0859 3.0869319 255 255 255
-143256.08 -334143.25 -554.87537 255 255 255
624.177 640.99402 1.6966622 255 255 255
-356.31116 -486.77087 -1.9481299 255 255 255
-430.53262 -251.74998 -1.6906921 255 255 255
-409.72311 -160.59303 -1.9288228 255 255 255
-1679.4539 -1638.0996 -3.7676661 255 255 255
1054.7955 804.36896 2.1188145 255 255 255
6002.2983 4324.4648 7.5092535 255 255 255
1138.0555 3241.7361 4.6757059 255 255 255
756.25256 720.30511 1.7466489 255 255 255
-728.78296 -730.98083 -2.568275 255 255 255
1338.2672 978.31287 3.0977378 255 255 255
-5625.5576 -3607.7432 -17.381332 255 255 255
-3738.5049 -7100.9531 -12.298926 255 255 255
18707.809 21775.998 51.155426 255 255 255
825.19611 883.0166 0.92208201 255 255 255
-25639.279 -17812.438 -45.868328 255 255 255
-516.11353 -408.45862 -1.8577129 255 255 255
14457.591 8712.666 15.774291 255 255 255
974.9682 401.65225 2.0124149 255 255 255
-563.68811 -796.56396 -2.5282505 255 255 255
-789.80963 -1373.8751 -4.1819592 255 255 255
783.63885 300.03973 1.131819 255 255 255
784.95972 723.62585 0.83966249 255 255 255
-2097.1294 -1618.7473 -7.0388145 255 255 255
3092.0322 2595.9319 8.0970917 255 255 255
424.40179 2523.5339 4.1280618 255 255 255
34795.832 13053.509 48.42474 255 255 255
-1520.9568 -1602.8112 -5.7871361 255 255 255
-26041.871 -11593.584 -29.590895 255 255 255
-1289.9453 -2048.3552 -4.2213311 255 255 255
863.63263 1083.3396 1.7129792 255 255 255
3298.9009 6514.9102 9.6482077 255 255 255
-362.37527 -862.16583 -2.5983179 255 255 255
1192.2858 1247.7159 1.4655043 255 255 255
198.6476 899.11383 0.90581369 255 255 255
-294.74463 -407.95062 -1.7232726 255 255 255
-637.57642 -632.31348 -2.0468245 255 255 255
-196.45659 -358.11362 -1.573287 255 255 255
863.62842 1123.9078 0.95877111 255 255 255
1132.9338 1578.7673 3.4617496 255 255 255
-312.65176 -571.25385 -1.925892 255 255 255
809.90637 644.70612 0.99151492 255 255 255
911.43018 1972.9381 2.2681346 255 255 255
1313.2325 1291.4275 3.3484581 255 255 255
347.40186 1163.921 1.4029576 255 255 255
2074.0972 1991.9323 2.8880548 255 255 255
702.8772 1104.2472 1.9331266 255 255 255
11499.371 21923.162 42.217888 255 255 255
371.89188 651.38123 1.3681536 255 255 255
997.94952 1603.0312 2.6841588 255 255 255
530.28601 610.71375 1.3747739 255 255 255
693.30975 765.78967 0.84989744 255 255 255
-270.86002 -269.05066 -1.4802866 255 255 255
891.31921 1475.0446 2.5827243 255 255 255
1941.8757 1768.9185 2.4310904 255 255 255
-699.65936 -937.98419 -1.9914027 255 255 255
-150023.72 -208252.33 -415.0361 255 255 255
-548.68829 -455.84573 -2.0269196 255 255 255
114.86533 210.39642 0.26456264 255 255 255
-4444.0264 -852.48785 -7.5444441 255 255 255
-729.41705 -618.06305 -2.2668302 255 255 255
-1401.3447 -2745.6367 -5.3584671 255 255 255
31.623623 211.69939 0.44864264 255 255 255
11559.003 5044.561 17.868593 255 255 255
-1232.423 -1009.343 -4.2792621 255 255 255
-757.11688 -627.74658 -2.0051935 255 255 255
4892.145 2863.6599 7.2054725 255 255 255
-941.36505 -1360.1807 -3.6882832 255 255 255
-953.99731 -1244.3021 -3.3555191 255 255 255
1352.6407 808.59595 3.1923764 255 255 255
612.12085 2219.7803 2.2317905 255 255 255
5478.2954 3060.3489 8.1135435 255 255 255
-1483.6594 -2149.8403 -4.7876506 255 255 255
-578.71497 -717.94598 -2.6353693 255 255 255
274.18182 977.47437 1.3905909 255 255 255
2372.5991 9147.6602 16.443155 255 255 255
-207.16014 -215.88748 -1.4069481 255 255 255
727.45312 730.57733 0.71861422 255 255 255
1928.7959 1910.2223 2.7325323 255 255 255
630.94934 1441.5432 1.8438724 255 255 255
484.49207 883.59259 1.3673173 255 255 255
-313.11624 -421.38998 -1.812505 255 255 255
1127.0527 1215.8397 1.2740009 255 255 255
-1202.5389 -1742.0613 -3.8649943 255 255 255
385.62292 797.76147 1.1184529 255 255 255
-4814.5039 -854.92059 -6.8928967 255 255 255
-6468.7817 -4948.8608 -12.520571 255 255 255
-3076.1956 -2865.5154 -14.432535 255 255 255
5452.6377 10876.775 12.914293 255 255 255
-1029.9178 -1007.4966 -4.1203885 255 255 255
1212.1196 812.71179 1.719543 255 255 255
813.99011 871.59113 1.7624285 255 255 255
559.91571 2040.4058 2.7881739 255 255 255
342.5799 1001.3872 1.032002 255 255 255
733.63757 1615.5657 2.7654595 255 255 255
84.421951 144.81494 0.14432016 255 255 255
807.42645 738.00476 1.6018969 255 255 255
2917.9575 2438.5393 3.2917571 255 255 255
5172.9307 3091.3689 7.3837471 255 255 255
1858.7075 696.45227 4.7165842 255 255 255
748.81177 615.05286 1.8034227 255 255 255
460.83261 836.36041 1.2141224 255 255 255
1668.7133 758.59723 3.7717645 255 255 255
509.41299 866.58588 0.9268145 255 255 255
1616.3961 2923.0017 4.7099938 255 255 255
3429.5623 5849.4165 10.865815 255 255 255
953.98419 636.08295 2.2381344 255 255 255
3842.6746 2676.5012 5.2937636 255 255 255
753.76532 729.51514 1.7361854 255 255 255
795.61176 553.37012 1.9560461 255 255 255
271.3797 1093.2836 1.113534 255 255 255
-517.82288 -703.38812 -2.2999551 255 255 255
-226.94901 -414.36984 -1.928925 255 255 255
244.78981 1128.1423 1.2778015 255 255 255
451.51376 1362.682 1.942065 255 255 255
-1650.6073 -5755.3022 -12.034263 255 255 255
874.27826 1214.0165 3.2739329 255 255 255
1396.9844 1053.5929 3.3305805 255 255 255
-1089.2397 -2045.7083 -3.5207763 255 255 255
-472.82803 -551.29095 -2.06723 255 255 255
-573.55457 -494.79138 -1.723982 255 255 255
-634.60852 -934.44971 -2.8143146 255 255 255
467.88757 1092.6671 1.5339803 255 255 255
699.62335 699.13275 1.6515501 255 255 255
501.06479 612.34583 1.3208287 255 255 255
7322.125 10696.572 19.877924 255 255 255
1072.9717 981.79242 1.3166355 255 255 255
402.04565 253.64391 1.2324774 255 255 255
285.72836 951.78809 0.98261875 255 255 255
2063.8159 2439.2622 8.4223166 255 255 255
543.49982 487.56461 1.4396567 255 255 255
217.51709 608.58105 0.90459257 255 255 255
929.0047 1449.7861 2.1018071 255 255 255
-1289.0726 -2266.9094 -8.5516186 255 255 255
1702.1198 1588.8954 4.0178814 255 255 255
-1729.4271 -1628.6562 -3.8279238 255 255 255
933.79901 613.35254 2.2156944 255 255 255
3808.9417 2433.6025 5.479773 255 255 255
287.71155 1149.4525 1.1145462 255 255 255
340.53036 1006.8646 1.0292655 255 255 255
352.05453 1010.5501 1.0395904 255 255 255
-8373.7891 -13982.766 -24.687025 255 255 255
320.04443 1270.2816 1.3658813 255 255 255
1004.1971 1947.0581 2.3921878 255 255 255
957.65778 1003.6843 3.5459015 255 255 255
-612.39917 -451.75256 -2.1985812 255 255 255
302.63321 986.82562 0.99136108 255 255 255
-225.517 -1161.0781 -3.134764 255 255 255
-562.92944 -611.89813 -2.2451801 255 255 255
-380.76401 -337.73776 -1.7532666 255 255 255
332.88379 1003.5589 1.0215582 255 255 255
879.27539 808.46362 1.9255198 255 255 255
663.01166 589.2749 1.1808503 255 255 255
865.69299 2981.3845 3.2104452 255 255 255
679.44257 350.62662 1.8818812 255 255 255
790.3866 1912.198 2.9835689 255 255 255
532.57666 304.8967 0.74282104 255 255 255
658.57788 725.04236 1.5627292 255 255 255
2972.6038 3981.0247 6.6440377 255 255 255
1242.0125 2417.1023 3.7107937 255 255 255
-4466.8418 -858.2442 -7.5814633 255 255 255
475.35205 1005.7062 1.1497818 255 255 255
318.11978 1250.4376 1.2745588 255 255 255
-1617.4377 -728.35651 -3.0286763 255 255 255
955.61627 738.72498 2.1409507 255 255 255
9658.8643 13538.242 26.112255 255 255 255
995.91052 715.59302 2.2426527 255 255 255
486.47873 817.08783 0.81297219 255 255 255
3848.9495 2685.5574 5.2921319 255 255 255
337.48483 1006.474 1.0257602 255 255 255
1723.9415 639.40497 4.1531906 255 255 255
-1814.4952 -2358.2925 -5.4635444 255 255 255
189.51802 241.91277 0.71037322 255 255 255
1437.0571 2113.4109 2.8351989 255 255 255
1017.0887 1168.5017 3.4570806 255 255 255
573.56763 608.0379 1.4535506 255 255 255
5581.4131 1969.5441 10.868348 255 255 255
317.28693 995.52039 1.0046698 255 255 255
333.67517 1005.1192 1.0217918 255 255 255
901.42822 2233.5486 2.5190973 255 255 255
-662.63416 -1250.58 -3.3319097 255 255 255
-429.55325 -847.79694 -2.2870259 255 255 255
348.18448 1050.6119 1.0702016 255 255 255
-127.67621 -223.63686 -1.3701605 255 255 255
-11404.406 -3455.2488 -16.376062 255 255 255
1762.0613 1628.3906 2.7763689 255 255 255
514.737 347.01883 0.69612819 255 255 255
1095.2518 650.33575 2.5517685 255 255 255
245.96423 501.67981 0.46418259 255 255 255
349.85077 468.80881 0.83089191 255 255 255
433.05118 494.2356 0.74376327 255 255 255
355.77826 1015.7833 1.0415889 255 255 255
2455.199 4364.5752 7.9143004 255 255 255
253.97174 322.32443 0.86491162 255 255 255
696.19775 385.37491 1.8819195 255 255 255
-830.64581 -526.53381 -2.059634 255 255 255
3385.3345 2429.4817 4.4198103 255 255 255
1222.6234 611.06573 2.9111183 255 255 255
-1000.6532 -1220.0687 -3.1325994 255 255 255
21272.537 26510.004 43.956642 255 255 255
-5773.0483 -2930.3337 -10.455876 255 255 255
-538.96576 -983.83777 -2.6427972 255 255 255
1712.4918 2702.4114 4.6658907 255 255 255
1005.8113 2078.9568 3.5330455 255 255 255
647.66693 671.42828 1.5655818 255 255 255
955.87488 1825.6183 3.0346003 255 255 255
1383.7473 2298.2849 3.2863727 255 255 255
7114.8276 4657.1484 8.4196377 255 255 255
-6431.8174 -1639.5914 -8.5621471 255 255 255
424.28693 1830.7822 1.7616647 255 255 255
2328.7485 1154.509 4.0444841 255 255 255
-6495.894 -4426.0737 -13.189588 255 255 255
4498.3467 2709.5034 6.6623101 255 255 255
-660.97296 -434.48596 -2.1114328 255 255 255
-560.31775 -841.44867 -2.9058993 255 255 255
337.40833 947.94727 1.0158354 255 255 255
353.01529 1017.2322 1.0389538 255 255 255
282.01843 1122.3286 1.121001 255 255 255
-873.90686 -470.36078 -2.09832 255 255 255
3326.0781 2473.9783 4.5824847 255 255 255
-1209.2238 -1204.861 -5.1681457 255 255 255
341.81064 991.85016 1.0323335 255 255 255
222.4666 1176.5099 1.1042976 255 255 255
-1783.5383 -2005.2155 -4.1845732 255 255 255
13346.06 8821.3652 18.302422 255 255 255
-385.24304 -594.72308 -1.8336535 255 255 255
-485.65631 -676.77838 -2.0992601 255 255 255
7343.7959 4747.6484 8.7302246 255 255 255
4265.3716 2845.1145 5.8777361 255 255 255
-982.03918 -911.63464 -3.1909204 255 255 255
209.34094 891.58264 0.90796286 255 255 255
3878.5664 2702.5671 5.3215799 255 255 255
-602.50311 -668.12799 -2.586853 255 255 255
-6423.1963 -10346.543 -15.351527 255 255 255
2968.8381 2234.856 7.4960055 255 255 255
-1735.9948 -6999.7007 -12.805365 255 255 255
-1219.0399 -5279.563 -11.687332 255 255 255
-777.58331 -1012.5723 -2.8680401 255 255 255
951.12231 738.10022 2.1292722 255 255 255
1836.4604 1325.3169 1.8792486 255 255 255
2293.5579 1845.1014 3.5162907 255 255 255
-1022.0617 -1114.2329 -3.5193903 255 255 255
562.89337 752.91101 1.2705183 255 255 255
-75431.477 -123470.9 -205.15155 255 255 255
358.7767 795.41852 1.0856124 255 255 255
-1306.8213 -9431.3203 -18.344965 255 255 255
-2400.0596 -2115.8328 -10.910294 255 255 255
3744.3057 2135.665 6.0985646 255 255 255
306.30115 974.07721 1.0006539 255 255 255
8908.3857 9640.2979 14.522279 255 255 255
860.4621 1260.4539 2.519078 255 255 255
272.84766 959.34937 0.96948278 255 255 255
1757.3794 1632.863 2.7676291 255 255 255
497.52939 793.86328 1.275182 255 255 255
296.5408 525.41272 0.98773116 255 255 255
674.20636 1059.3773 1.1531807 255 255 255
-3249.2908 -1407.8888 -4.3547564 255 255 255
-5020.2476 -942.67999 -7.161581 255 255 255
3768.4536 6733.5181 12.125228 255 255 255
3782.408 2653.3064 5.2007508 255 255 255
769.93994 739.98706 1.7609022 255 255 255
2187.9663 3059.6089 5.4031425 255 255 255
9560.9023 3481.4248 17.00281 255 255 255
314.31189 987.39313 1.0058676 255 255 255
1634.9431 1549.0586 1.9894769 255 255 255
-542.69189 -1395.72 -3.068994 255 255 255
-7012.6719 -2590.8713 -8.501627 255 255 255
-10318.603 -3493.3484 -13.016993 255 255 255
325.99365 977.14197 1.0187951 255 255 255
3413.3782 3896.5374 7.4907384 255 255 255
459.93921 421.10861 1.0262939 255 255 255
-722.40308 -868.66589 -2.9403493 255 255 255
3803.4753 2671.8508 5.2178369 255 255 255
356.90625 1413.3505 1.4182773 255 255 255
712.12756 710.37366 1.6694343 255 255 255
476.55084 564.33752 0.82969916 255 255 255
553.68939 391.99243 1.1285551 255 255 255
590.633 724.50928 0.69145697 255 255 255
-5326.1309 -2900.6655 -9.1538429 255 255 255
-4160.0098 -563.57294 -6.1708093 255 255 255
387.23624 212.65295 1.2281651 255 255 255
193.91957 923.39246 0.90014488 255 255 255
4375.5884 2691.5408 6.4233918 255 255 255
3911.6008 2587.4575 5.6190877 255 255 255
3002.55 4386.7803 7.8785377 255 255 255
561.37463 1601.9064 1.7046038 255 255 255
576.73694 623.94342 1.4538991 255 255 255
760.69843 1029.6277 1.5803404 255 255 255
-1534.3705 -2006.729 -4.8810258 255 255 255
-2083.0488 -1500.3873 -4.4564538 255 255 255
548.69623 1379.0728 1.9195734 255 255 255
1712.4694 792.21973 3.8217959 255 255 255
-7326.4512 -3631.2402 -12.604781 255 255 255
-1147.2572 -3113.1233 -7.1226001 255 255 255
553.203 1102.3834 1.4073638 255 255 255
-433.68228 -452.15372 -1.933027 255 255 255
921.14667 989.39746 1.8734227 255 255 255
-5037.4277 -947.28217 -7.2072873 255 255 255
84.31411 281.68915 0.57493734 255 255 255
215.22699 718.69745 0.92006344 255 255 255
3535.5615 2565.627 4.8537641 255 255 255
3707.6433 3599.4114 5.5751371 255 255 255
187.93704 125.46624 0.67367905 255 255 255
788.89697 523.9657 1.6072699 255 255 255
3731.3838 4252.8916 5.8455405 255 255 255
2249.7668 1825.0693 3.4587548 255 255 255
640.97595 462.90381 1.6721853 255 255 255
1675.7917 1519.3098 2.0909872 255 255 255
383.21265 796.80957 1.1148052 255 255 255
-5260.6484 -6716.5176 -12.563316 255 255 255
2414.0999 4362.9976 7.7536173 255 255 255
1474.4299 1284.683 2.6299195 255 255 255
-4819.2891 -850.17511 -6.9478755 255 255 255
-1014.5942 -1047.8633 -3.4792597 255 255 255
1091.2958 773.28998 2.8415289 255 255 255
2357.7266 4010.0774 5.5840106 255 255 255
817.52295 1077.7371 1.1959469 255 255 255
630.18573 1101.3705 1.184487 255 255 255
597.86304 580.90405 1.5115514 255 255 255
-195.75595 -178.10487 -1.2716268 255 255 255
401.69806 1088.3486 1.2016315 255 255 255
761.90833 1483.7709 2.0797386 255 255 255
741.82178 998.44391 1.6955087 255 255 255
8897.6211 13007.773 22.996294 255 255 255
-3275.5076 -10036.555 -15.982836 255 255 255
-5803.0381 -2848.9167 -7.9564662 255 255 255
996.38324 947.03088 2.0436699 255 255 255
703.26361 760.28278 1.1788356 255 255 255
-470.70724 -229.78903 -2.2037776 255 255 255
2960.7246 2206.1531 4.292851 255 255 255
1045.1978 939.10248 2.4477036 255 255 255
-723.7937 -1049.3579 -2.9377837 255 255 255
87.375626 735.43457 0.80390108 255 255 255
30523.65 17914.977 39.736225 255 255 255
-490.33762 -839.83661 -5.2324524 255 255 255
337.24326 723.39069 1.0615891 255 255 255
-2770.4985 -5955.8203 -10.996272 255 255 255
939.87585 886.14111 1.0982243 255 255 255
-5968.5166 -4489.6899 -14.796293 255 255 255
-304.93988 -184.27211 -1.402878 255 255 255
-1779.5543 -575.47211 -2.9976408 255 255 255
1781.0549 3061.4333 3.9102085 255 255 255
651.20801 723.15582 1.5490304 255 255 255
9290.1514 3394.3962 16.554197 255 255 255
101.64954 134.60191 0.45153165 255 255 255
-358.06543 -274.5769 -2.0345507 255 255 255
-346.67981 -320.6601 -1.7341086 255 255 255
201.94344 696.51257 0.90183926 255 255 255
-978.41693 -831.78107 -2.3348138 255 255 255
-3722.8486 -6464.6577 -14.417428 255 255 255
-88.891068 -299.41357 -1.5938225 255 255 255
-1938.7821 -2242.9844 -5.9364576 255 255 255
7057.3335 12913.189 16.38147 255 255 255
-7047.7817 -6993.5024 -23.142574 255 255 255
-1742.351 -1831.2755 -4.6649423 255 255 255
569.37781 598.16748 1.4513333 255 255 255
1156.256 1180.1 2.1337764 255 255 255
1067.373 951.13013 2.1751192 255 255 255
3348.6699 3770.5645 5.7324271 255 255 255
-504.89532 -867.58301 -2.503993 255 255 255
389.60056 531.21057 1.8117812 255 255 255
364.41177 488.60956 1.0921385 255 255 255
363.93848 1566.9086 1.586408 255 255 255
1310.8367 2180.8499 3.5347421 255 255 255
-846.85266 -1836.4869 -3.9386935 255 255 255
-177.17276 -112.39944 -1.4532952 255 255 255
-5847.73 -5212.335 -20.651501 255 255 255
617.50824 675.6106 1.509222 255 255 255
1431.3628 6074.8296 10.463207 255 255 255
-2456.6677 -3601.4702 -7.0521913 255 255 255
1030.8854 283.10443 1.452602 255 255 255
306.09256 670.52264 1.0193994 255 255 255
-2998.5413 -1175.4221 -6.1003466 255 255 255
987.4928 1289.2338 1.7626318 255 255 255
-1344.3348 -771.63855 -2.5868983 255 255 255
-1462.8328 -1208.6921 -5.2302227 255 255 255
2077.2385 1994.2297 2.8921192 255 255 255
-5681.8418 -2790.9426 -8.021904 255 255 255
10061.369 4270.251 16.194548 255 255 255
310.95688 1251.1902 1.2832922 255 255 255
471.28699 858.92419 1.2221687 255 255 255
-87724.781 -194209.36 -343.25681 255 255 255
1062.8932 964.24725 2.1554263 255 255 255
961.06409 925.98999 1.9920011 255 255 255
1930.2728 1911.1051 2.7342923 255 255 255
-255.97702 -181.60744 -1.3812648 255 255 255
258.75162 1206.1827 1.4174811 255 255 255
-915.19775 -702.52734 -2.3086545 255 255 255
1093.0491 2489.8245 3.7339251 255 255 255
10082.995 5152.9014 14.072022 255 255 255
1441.3645 1135.4008 3.4566016 255 255 255
798.86676 2942.9736 3.8415344 255 255 255
-4444.2993 -1362.5248 -6.0463138 255 255 255
-125.47452 -166.81258 -1.3233799 255 255 255
-738.18793 -1032.8464 -2.5420263 255 255 255
374686.41 194464.72 540.63055 255 255 255
-342.57944 -212.72063 -1.4945205 255 255 255
1687.5652 1533.4508 2.0585053 255 255 255
-876.48096 -1163.0398 -3.5379529 255 255 255
728.87238 1284.3677 3.2886527 255 255 255
746.43195 2303.4753 2.9430177 255 255 255
-449.88013 -461.48129 -1.6347238 255 255 255
529.75043 371.54315 0.67673659 255 255 255
1748.7223 1239.6542 2.0551052 255 255 255
1684.881 1240.5381 4.0015874 255 255 255
-252.38951 -235.75287 -1.4720377 255 255 255
1392.3583 3243.2942 3.9011858 255 255 255
967.81323 1342.2166 1.6912521 255 255 255
771.04572 720.52423 1.7744539 255 255 255
-2338.0066 -7098.2769 -11.862434 255 255 255
-63.911983 -422.24844 -1.7887931 255 255 255
18299.695 31226.436 56.543625 255 255 255
2655.7751 5700.4604 10.37078 255 255 255
-479.80093 -224.60152 -1.5360565 255 255 255
249.14966 810.85211 1.041851 255 255 255
2016.4359 2122.2795 5.4481597 255 255 255
1003.4375 4503.1416 7.6392093 255 255 255
562.59668 516.6972 1.467235 255 255 255
813.63397 1217.2152 1.7362133 255 255 255
572.78186 589.59698 1.4598185 255 255 255
524.62439 450.9834 1.3089776 255 255 255
342.00403 1871.4366 2.086587 255 255 255
-376.46878 -554.04181 -2.119684 255 255 255
717.61023 478.85974 1.8374015 255 255 255
268.79321 1399.8752 1.5837445 255 255 255
-581.31256 -2318.7773 -4.2666926 255 255 255
-2893.0571 -3035.9995 -4.8145576 255 255 255
-2524.0195 -3700.4653 -7.6730132 255 255 255
361.18124 1004.6742 1.0506473 255 255 255
46287.133 76232.016 167.27826 255 255 255
586.7135 1109.1552 1.445762 255 255 255
-1128.129 -1599.5021 -3.2557623 255 255 255
-1016.4706 -1225.6083 -3.1463919 255 255 255
-633.0224 -845.19995 -2.5818717 255 255 255
-731.43982 -596.54694 -2.5963407 255 255 255
733.17303 1338.3022 2.4045408 255 255 255
2068.0859 2856.5713 7.0921211 255 255 255
621.33374 1439.5651 2.2740803 255 255 255
-2206.7166 -3093.4778 -9.9731951 255 255 255
-144.57944 -189.69551 -1.327991 255 255 255
81.99366 186.45543 0.472316 255 255 255
-1318.9281 -1086.0551 -2.6929045 255 255 255
-2029.7307 -3657.5676 -6.8257265 255 255 255
-1476.4763 -2059.6826 -3.400697 255 255 255
524.78741 432.05771 0.81103927 255 255 255
173.03741 722.24823 0.88134664 255 255 255
31.77759 211.17334 0.44790885 255 255 255
31122.164 55858.703 112.66886 255 255 255
801.68884 674.80737 1.81621 255 255 255
-381.96735 -849.92511 -2.3385155 255 255 255
-5844.834 -1538.447 -9.5839329 255 255 255
596.20245 398.66794 0.78091353 255 255 255
969.89264 974.39886 1.9734604 255 255 255
812.94611 674.6131 1.8953916 255 255 255
-3977.1306 -2274.4177 -7.6207032 255 255 255
975.41956 913.19824 2.0305023 255 255 255
-604.18286 -329.58102 -1.8166521 255 255 255
-54593.156 -98701.82 -194.39151 255 255 255
-1105.2213 -2430.4875 -5.968945 255 255 255
314.34695 1707.2399 1.8666939 255 255 255
1947.4507 1523.9958 5.9656801 255 255 255
-240.478 -208.31073 -1.4603734 255 255 255
595.33087 441.30371 0.74176431 255 255 255
-286.27689 -595.4364 -2.1969154 255 255 255
2055.1282 2633.021 5.5241318 255 255 255
875.87372 2998.1821 3.4334576 255 255 255
383.93942 381.19345 0.90126485 255 255 255
-3473.3403 -7720.3555 -19.451292 255 255 255
576.15448 507.12094 0.86859697 255 255 255
-323.01505 -259.40482 -1.625121 255 255 255
3262.0811 2655.6602 4.1555305 255 255 255
1355.0905 1475.2385 3.9593737 255 255 255
10653.881 6653.1006 11.89187 255 255 255
-1287.166 -2073.167 -5.1583519 255 255 255
12744.226 8144.811 15.970314 255 255 255
1025.6985 510.1665 1.7817825 255 255 255
-20680.998 -8049.2002 -26.459339 255 255 255
-1258.0249 -943.28333 -2.5012474 255 255 255
283.21515 946.68768 0.93791997 255 255 255
2535.4998 4191.4072 8.5271273 255 255 255
1785.4569 3699.7368 5.9667811 255 255 255
3813.5505 5255.3877 7.0635042 255 255 255
-669.40259 -281.98883 -2.9153569 255 255 255
288.27966 390.40033 0.53771049 255 255 255
-218.52078 -85.894234 -1.5406585 255 255 255
-1140.4274 -1013.1906 -2.5673728 255 255 255
134851.31 81995.492 208.48302 255 255 255
21.154476 107.33929 0.27971959 255 255 255
4174.4175 2786.158 5.7437572 255 255 255
-1185.601 -2239.9277 -5.0026999 255 255 255
-658.92145 -1179.379 -3.3245709 255 255 255
-671.50555 -1046.0651 -3.1829884 255 255 255
1927.41 1909.5067 2.7294765 255 255 255
-1152.4725 -1728.031 -4.5878148 255 255 255
-225.47942 -181.63873 -1.330044 255 255 255
1208.6833 1025.4102 2.7698479 255 255 255
3028.2085 2217.6111 4.4186826 255 255 255
17323.875 29838.238 71.379044 255 255 255
67.799423 201.89066 0.47115743 255 255 255
87.320465 734.49487 0.80223882 255 255 255
191.92982 242.28052 0.71510118 255 255 255
1308.287 2065.8162 3.8280602 255 255 255
3862.1504 2693.6223 5.2962384 255 255 255
1756.2018 1626.4854 2.7674024 255 255 255
886.14893 3349.8486 4.3855085 255 255 255
3705.375 4898.2271 16.453867 255 255 255
-281.81784 -673.91504 -2.2545965 255 255 255
874.43134 929.6062 1.0654998 255 255 255
355.7807 470.70511 1.0768888 255 255 255
59.820301 296.99905 0.56599152 255 255 255
657.42517 724.17468 1.5590589 255 255 255
3808.1731 2675.2832 5.2261405 255 255 255
519.96515 355.25275 0.70461035 255 255 255
-1519.2454 -588.67346 -4.9152851 255 255 255
580.66858 620.04657 1.4602857 255 255 255
1286.8185 1660.2908 1.8917891 255 255 255
-5244.3208 -1050.2487 -7.3826628 255 255 255
-656.94476 -488.022 -2.6151793 255 255 255
273.93097 983.49756 0.9749884 255 255 255
-6769.082 -1787.8956 -8.999424 255 255 255
524.04736 1092.3542 1.484416 255 255 255
-5118.0752 -985.35443 -7.2834001 255 255 255
217.63362 875.69299 0.86966515 255 255 255
302.27484 988.47125 0.99309778 255 255 255
-627.90698 -541.21301 -2.2520475 255 255 255
-695.01849 -832.46948 -2.9131002 255 255 255
576.43713 624.35199 1.4542847 255 255 255
1752.1411 1628.6217 2.7604504 255 255 255
3847.1951 2684.2583 5.2905946 255 255 255
857.67395 799.09357 1.8908049 255 255 255
-10268.516 -3474.5249 -12.955479 255 255 255
-1868.1487 -1312.8785 -6.6123352 255 255 255
-1579.0074 -1317.1759 -5.3363657 255 255 255
-684.49792 -803.39008 -2.3053348 255 255 255
-6364.3823 -1609.0048 -8.4699774 255 255 255
-5221.2412 -1037.2615 -7.3536267 255 255 255
493.1449 784.46814 0.59809762 255 255 255
226.42245 365.36282 0.82967138 255 255 255
334.08887 1006.1085 1.0229732 255 255 255
61.101547 533.75153 0.73936009 255 255 255
498.94452 970.59644 1.2258481 255 255 255
3832.2729 2671.1094 5.279068 255 255 255
211.43449 225.80817 0.75330853 255 255 255
-8106.4146 -2300.7607 -11.018509 255 255 255
-758.758 -1014.7083 -3.3224149 255 255 255
-363.58398 -325.70337 -1.673465 255 255 255
-40709.102 -9550.5 -76.874435 255 255 255
917.56012 1837.7606 3.1239812 255 255 255
584.52216 651.26965 1.4583499 255 255 255
3051.7317 1599.0006 5.5344858 255 255 255
-2320.144 -2990.1731 -6.2979007 255 255 255
705.04175 713.74823 1.6554133 255 255 255
11830.224 3906.9116 38.790092 255 255 255
662.53033 1268.9753 1.9329643 255 255 255
5776.7632 10661.825 24.650366 255 255 255
-258.18652 -199.04323 -1.4930212 255 255 255
344.81985 521.96747 1.0614084 255 255 255
698.59644 698.20496 1.6494204 255 255 255
-2315.7029 -3114.4858 -7.5482292 255 255 255
3286.7373 2667.155 4.1867099 255 255 255
348.47687 1011.3918 1.0362278 255 255 255
806.26874 1159.6035 1.5828195 255 255 255
-311.19553 -450.38232 -1.8214014 255 255 255
516.27002 653.18561 1.3370394 255 255 255
650.63727 722.72089 1.5474408 255 255 255
764.0824 825.98132 0.93316209 255 255 255
431.41397 544.24561 1.0498785 255 255 255
517.25879 659.56287 0.96320409 255 255 255
-385.28763 -630.6377 -2.4303069 255 255 255
202.31168 697.09967 0.90208572 255 255 255
-4103.4028 -4837.5137 -11.388207 255 255 255
766.15149 1022.4788 0.98656625 255 255 255
-178749.16 -596761.5 -1156.4226 255 255 255
201.49133 249.48074 0.73891902 255 255 255
668.03558 1402.9965 1.7555734 255 255 255
765.08649 807.15356 1.7097845 255 255 255
491.31677 1884.4766 2.4632409 255 255 255
919.90271 989.41156 1.8717997 255 255 255
-479.45764 -184.83667 -2.4674399 255 255 255
878.32043 807.44885 1.9228591 255 255 255
770.58179 543.13098 1.9059329 255 255 255
324.02039 968.79547 1.0111313 255 255 255
-4386.5015 -3014.6194 -7.9559503 255 255 255
1031.1327 553.55157 2.3519802 255 255 255
4053.804 6537.3862 12.245249 255 255 255
303.57013 972.04413 0.99584103 255 255 255
4399.6157 4213.2402 6.3080959 255 255 255
949.24231 1931.6193 2.2427988 255 255 255
338.90045 1021.249 1.1084157 255 255 255
-675.12347 -921.54797 -2.6067703 255 255 255
-383.83038 -297.57031 -1.6862112 255 255 255
-7400.8281 -3935.7295 -10.24312 255 255 255
2134.6821 4313.0771 6.0757713 255 255 255
-621.86426 -679.659 -2.7052219 255 255 255
558.81476 715.97852 1.3919475 255 255 255
-815.08917 -1308.3994 -3.3144045 255 255 255
1633.9434 7871.126 12.977976 255 255 255
233.98326 198.98946 0.80080462 255 255 255
139.75545 159.8466 0.22512934 255 255 255
-1430.4557 -526.8623 -4.6920109 255 255 255
7412.8984 2527.6179 10.433236 255 255 255
140.05754 764.08087 0.84622067 255 255 255
-297.56998 -181.4752 -1.4678061 255 255 255
163.92143 231.73019 0.65337962 255 255 255
389.06927 341.99313 1.1533471 255 255 255
990.42767 881.53455 1.1920601 255 255 255
2883.2944 7857.1284 15.327863 255 255 255
4806.5444 9814.6113 18.726557 255 255 255
-9761.4824 -3212.3457 -12.448861 255 255 255
5277.8711 8044.2642 13.893671 255 255 255
53.87709 134.45909 0.36372852 255 255 255
-11499.482 -3109.7498 -18.094603 255 255 255
681.90607 680.90741 1.6292353 255 255 255
-664.69525 -660.23993 -1.8587669 255 255 255
-1566.6079 -807.36212 -3.1043825 255 255 255
4579.6802 6218.8228 12.946286 255 255 255
-2586.2832 -1877.8157 -8.3220367 255 255 255
-547.76898 -235.74503 -1.6125125 255 255 255
-7634.29 -2080.4299 -10.472391 255 255 255
1412.9149 2458.3203 3.9656 255 255 255
215.11839 717.56342 0.91891122 255 255 255
1243.2561 640.13251 1.7003081 255 255 255
-358.94547 -571.83734 -2.3891494 255 255 255
-7116.1177 -4784.481 -24.617012 255 255 255
208.19009 681.56482 0.70926183 255 255 255
83.913681 279.74277 0.57129991 255 255 255
9516.9658 3468.6726 16.930256 255 255 255
963.81458 965.57843 1.1798344 255 255 255
-1360.0892 -700.13586 -2.7328396 255 255 255
1089.8226 1818.1615 2.6880822 255 255 255
-725.67987 -334.4957 -2.9036849 255 255 255
701.37585 697.20526 1.6558948 255 255 255
383.61429 797.62701 1.1152844 255 255 255
812.80267 870.73926 1.7602769 255 255 255
1172.0677 877.57831 2.8266959 255 255 255
-857.12531 -800.42017 -2.7639463 255 255 255
102.7564 237.85353 0.55537981 255 255 255
2292.8633 1843.5208 3.5151331 255 255 255
-11074.646 -3842.0813 -13.948584 255 255 255
604.89459 504.16199 1.5642197 255 255 255
93.053848 397.8107 0.68081552 255 255 255
2922.6646 2304.5874 3.3450789 255 255 255
-266.50388 -315.20486 -1.6210084 255 255 255
3727.5042 2285.2932 5.3832211 255 255 255
