ply
format ascii 1.0
comment PCL generated
element vertex 1061
property float x
property float y
property float z
property uchar red
property uchar green
property uchar blue
element face 0
element camera 0
property float view_px
property float view_py
property float view_pz
property float x_axisx
property float x_axisy
property float x_axisz
property float y_axisx
property float y_axisy
property float y_axisz
property float z_axisx
property float z_axisy
property float z_axisz
property float focal
property float scalex
property float scaley
property float centerx
property float centery
property int viewportx
property int viewporty
property float k1
property float k2
end_header
-27.682133 -57.790211 -1.1010457 255 255 255
0.49175775 -57.571449 -1.0777618 255 255 255
75.782982 -41.924885 -0.73671401 255 255 255
123.32066 -42.698097 -0.7100904 255 255 255
-20.361025 -58.103184 -1.1343156 255 255 255
-28.403719 -47.163242 -1.0412123 255 255 255
207.77484 -50.654095 -0.71802443 255 255 255
1.0942125 -66.816673 -1.1835606 255 255 255
-25.300888 -54.948662 -1.0909797 255 255 255
-21.536678 -49.574127 -1.0670642 255 255 255
-17.051941 -63.418209 -1.1874524 255 255 255
3.6446605 -60.435535 -1.1393671 255 255 255
1.7275209 -53.259953 -1.0785967 255 255 255
-5.8127909 -60.653297 -1.0973755 255 255 255
-17.627405 -65.738556 -1.2219948 255 255 255
-19.417147 -46.531864 -1.071577 255 255 255
-3.3613231 -57.751286 -1.0782344 255 255 255
63.605263 -41.701008 -0.72309136 255 255 255
-15.734918 -58.239315 -1.0856692 255 255 255
-15.321915 -58.555908 -1.0882518 255 255 255
-19.024746 -50.886955 -1.0776439 255 255 255
-28.366373 -58.288857 -1.1204256 255 255 255
-19.623568 -64.965576 -1.2089995 255 255 255
-10.498724 -58.943832 -1.073741 255 255 255
64.8246 -38.536926 -0.69186431 255 255 255
-10.60625 -51.668625 -1.0809431 255 255 255
-7.0117588 -60.014748 -1.1305701 255 255 255
-13.362574 -57.535656 -1.0892901 255 255 255
116.74373 -42.287979 -0.7070052 255 255 255
-29.282959 -56.913414 -1.0702646 255 255 255
155.15039 -45.977901 -0.71517634 255 255 255
207.3851 -50.632786 -0.71819854 255 255 255
-2.3980739 -60.572029 -1.1379005 255 255 255
-5.3866453 -56.095726 -1.1283151 255 255 255
-22.0298 -59.076271 -1.1360782 255 255 255
14.890632 -71.034653 -1.3164575 255 255 255
-0.86958736 -62.956352 -1.1856023 255 255 255
86.864883 -50.401638 -0.89730555 255 255 255
-15.094111 -55.017994 -1.1895069 255 255 255
13.215176 -63.193222 -1.0815154 255 255 255
1.2517853 -64.23291 -1.2028239 255 255 255
76.521095 -39.179089 -0.69501966 255 255 255
157.57158 -43.557079 -0.73055714 255 255 255
1.8232327 -56.736637 -1.0734081 255 255 255
65.063873 -42.205467 -0.73335522 255 255 255
-8.9783058 -52.640324 -1.0705614 255 255 255
-4.9913106 -57.001427 -1.0701632 255 255 255
-20.574118 -59.14183 -1.0849484 255 255 255
1.9412535 -65.966179 -1.1859925 255 255 255
-19.041445 -60.05957 -1.1341368 255 255 255
-14.401662 -58.880989 -1.0924928 255 255 255
-9.9101334 -55.31036 -1.080516 255 255 255
4.9736013 -63.292774 -1.127287 255 255 255
-12.214953 -53.231674 -1.1247551 255 255 255
-7.8611059 -59.294449 -1.0708829 255 255 255
-4.3428078 -56.953732 -1.0718985 255 255 255
10.990191 -100.68466 -1.8899975 255 255 255
17.948793 -63.551537 -1.0839722 255 255 255
-14.138861 -60.197243 -1.0912061 255 255 255
84.001343 -44.273373 -0.76614493 255 255 255
-16.408216 -59.950924 -1.1304868 255 255 255
-13.40756 -62.073853 -1.1577251 255 255 255
-16.589581 -49.016747 -1.0747677 255 255 255
-27.899216 -49.493717 -1.0725791 255 255 255
-1.0302447 -52.262367 -1.070672 255 255 255
300.70343 40.823898 0.57373178 255 255 255
-2.3651011 -52.887329 -1.1129423 255 255 255
-0.70396185 -64.474556 -1.1996336 255 255 255
-13.066239 -55.587078 -1.0931625 255 255 255
-6.1656828 -64.41835 -1.1909168 255 255 255
-21.090197 -61.811703 -1.1795653 255 255 255
1464.5748 -44.997234 0.30347627 255 255 255
-5.0722589 -56.712608 -1.0712825 255 255 255
-0.73417056 -60.092861 -1.1238962 255 255 255
2.7383986 -57.690044 -1.0854989 255 255 255
-13.990046 -60.348961 -1.0959748 255 255 255
-0.73245609 -60.550552 -1.1443791 255 255 255
-21.374596 -72.776543 -1.3559041 255 255 255
-8.5008039 -59.504398 -1.0766611 255 255 255
-12.958337 -58.638531 -1.104773 255 255 255
-34.804951 -61.556042 -1.1823617 255 255 255
-16.370825 -60.460148 -1.1322132 255 255 255
-7.2284904 -70.630722 -1.3356284 255 255 255
-16.927713 -63.1464 -1.1816251 255 255 255
-20.868475 -54.705719 -1.0910172 255 255 255
-13.399264 -50.456657 -1.0934784 255 255 255
-48.721951 -54.880367 -1.2641041 255 255 255
138.62854 -44.733036 -0.71921259 255 255 255
-8.9238615 -49.693279 -1.0607899 255 255 255
-1.4955518 -56.688065 -1.1211624 255 255 255
-12.811732 -60.842167 -1.117496 255 255 255
-17.818417 -58.077988 -1.1038188 255 255 255
-12.996946 -49.892258 -1.1002244 255 255 255
-48.078377 -65.632042 -1.2876837 255 255 255
-47.146835 -63.416363 -1.2324876 255 255 255
-8.8185749 -48.251007 -1.0684584 255 255 255
-12.041398 -55.448788 -1.081646 255 255 255
-4.7138638 -59.681454 -1.1276402 255 255 255
-1.2434639 -53.076523 -1.0807595 255 255 255
-13.512884 -63.505283 -1.1809517 255 255 255
-23.598341 -55.313171 -1.2102293 255 255 255
-17.427223 -62.263962 -1.1821668 255 255 255
194.91878 -55.519382 -0.80519331 255 255 255
-19.069744 -59.681049 -1.1826245 255 255 255
-17.618475 -60.648067 -1.1998234 255 255 255
170.70341 -47.344585 -0.71555382 255 255 255
17.09008 -66.570419 -1.1770768 255 255 255
-6.6007528 -64.642395 -1.1997761 255 255 255
-517.58551 -1619.8104 -30.734175 255 255 255
-22.636312 -59.214958 -1.1081511 255 255 255
223.47752 -52.850998 -0.7374534 255 255 255
-11.50107 -58.012077 -1.0844889 255 255 255
-10.563476 -56.46328 -1.0959128 255 255 255
-13.035553 -65.782623 -1.2186922 255 255 255
-13.853636 -60.31057 -1.094025 255 255 255
-56.433922 -61.438999 -1.308544 255 255 255
-7.4593115 -68.591629 -1.2354409 255 255 255
-14.502892 -55.128567 -1.0393069 255 255 255
16.009888 -65.066879 -1.1516848 255 255 255
-14.496418 -60.657787 -1.1084183 255 255 255
-12.433867 -55.039799 -1.0859158 255 255 255
-8.8091669 -58.833458 -1.0719332 255 255 255
23.544489 -54.09724 -0.94415551 255 255 255
13.157094 -65.138832 -1.1107496 255 255 255
-53.98373 -66.124771 -1.3080307 255 255 255
-14.763239 -47.571224 -1.0887797 255 255 255
-14.557899 -60.454777 -1.101723 255 255 255
-24.243044 -57.304276 -1.0889882 255 255 255
89.905884 -40.833466 -0.63589233 255 255 255
89.608383 -38.259747 -0.65854955 255 255 255
-10.265759 -60.679813 -1.2230932 255 255 255
-12.25887 -60.425106 -1.0921774 255 255 255
-14.188467 -62.882462 -1.172014 255 255 255
-6.5402279 -65.436089 -1.187835 255 255 255
16.983221 -66.023849 -1.1193891 255 255 255
-31.233471 -54.663567 -1.0520645 255 255 255
-17.460047 -61.630737 -1.1599879 255 255 255
-2.739037 -62.564499 -1.1266747 255 255 255
-28.370626 -52.695095 -1.0516403 255 255 255
-40.952866 -62.989292 -1.1106275 255 255 255
158.84413 -46.129177 -0.72200596 255 255 255
-15.217587 -60.391258 -1.1023711 255 255 255
-23.590128 -45.743084 -1.0437896 255 255 255
150.9736 -47.187263 -0.73997062 255 255 255
-33.810242 -54.297215 -1.1945615 255 255 255
-12.960421 -50.610352 -1.0697186 255 255 255
-5.7523613 -58.917446 -1.1062142 255 255 255
-15.65286 -76.870056 -1.625113 255 255 255
4.4323101 -73.169891 -1.4901438 255 255 255
64.123108 -41.998756 -0.7386207 255 255 255
-21.430862 -57.078556 -1.129378 255 255 255
-5.8149829 -59.294685 -1.1138436 255 255 255
-20.40712 -90.573502 -1.7732331 255 255 255
-14.395923 -59.977165 -1.0875541 255 255 255
-13.612944 -60.015667 -1.0819353 255 255 255
-2.6026037 -64.140297 -1.214878 255 255 255
-13.610962 -58.969532 -1.1169316 255 255 255
-2.7602017 -58.079269 -1.0898709 255 255 255
-44.552738 -57.244602 -1.2581284 255 255 255
-4.549612 -63.057671 -1.1233348 255 255 255
-3.5751331 -52.959499 -1.0700873 255 255 255
-24.388882 -56.870773 -1.0756161 255 255 255
-14.744973 -60.369545 -1.0995679 255 255 255
-14.350527 -45.132938 -1.0634158 255 255 255
-8.9094534 -58.827175 -1.178104 255 255 255
-4.9832554 -64.784431 -1.1864915 255 255 255
-2.665616 -61.81749 -1.1467636 255 255 255
148.93321 -45.216812 -0.72667021 255 255 255
89.159897 -51.174019 -0.91258448 255 255 255
-13.118865 -49.304081 -1.0791507 255 255 255
-16.27566 -55.303123 -1.0878084 255 255 255
-10.046322 -59.650375 -1.0714065 255 255 255
-12.628206 -79.053085 -1.5525249 255 255 255
-4.6494908 -64.981453 -1.1866841 255 255 255
-17.139978 -50.965416 -1.0403353 255 255 255
-15.436676 -75.711494 -1.4527664 255 255 255
-18.292768 -47.202656 -1.0710224 255 255 255
-13.080704 -59.918228 -1.0755563 255 255 255
-18.358543 -54.92495 -1.0811794 255 255 255
-32.438568 -56.495979 -1.1132026 255 255 255
-3.6277382 -58.616924 -1.0895951 255 255 255
-15.438495 -58.776314 -1.0942664 255 255 255
300.69461 -58.192024 -0.70380747 255 255 255
5.6461558 -58.940659 -1.1905212 255 255 255
-17.173632 -50.622227 -1.0752876 255 255 255
-31.97179 -47.647892 -1.0784779 255 255 255
-4.7086649 -46.800995 -1.0661532 255 255 255
-11.65321 -55.864235 -1.084756 255 255 255
-4.6100874 -53.831001 -1.1327481 255 255 255
-13.9316 -60.282661 -1.0933645 255 255 255
-4.6751175 -60.230171 -1.1144004 255 255 255
10.427245 -62.299297 -1.0795199 255 255 255
153.32822 -45.094315 -0.65787363 255 255 255
-13.993903 -60.519974 -1.1020563 255 255 255
-11.047384 -60.55365 -1.0924768 255 255 255
-32.51099 -51.513081 -1.0514086 255 255 255
-12.844667 -55.406116 -1.075016 255 255 255
-29.466307 -119.46094 -2.3863194 255 255 255
-22.055328 -157.51343 -2.9706609 255 255 255
83.105064 -41.576355 -0.80121696 255 255 255
-22.87475 -54.058914 -1.0854068 255 255 255
-17.046345 -48.284462 -1.0890685 255 255 255
-44.803699 -66.148766 -1.2773111 255 255 255
-31.11566 -56.767338 -1.0869201 255 255 255
-24.189695 -98.894508 -1.9275237 255 255 255
-15.540648 -112.90424 -2.0694845 255 255 255
-1.8460574 -63.750137 -1.1800799 255 255 255
-3.0749655 -57.171867 -1.0762759 255 255 255
-5.6565146 -56.917007 -1.0750477 255 255 255
-20.103144 -51.879158 -1.0441201 255 255 255
318.12103 -60.008091 -0.7456128 255 255 255
241.38956 -53.898506 -0.72229761 255 255 255
-14.414331 -60.311764 -1.0962344 255 255 255
-16.0138 -55.628223 -1.0816617 255 255 255
62.484962 -34.771885 -0.60175979 255 255 255
-1.4684912 -52.728966 -1.0702821 255 255 255
-12.966995 -59.518204 -1.1100721 255 255 255
-50.6544 -60.772591 -1.2380464 255 255 255
0.76574415 -60.087429 -1.0944333 255 255 255
-16.23893 -57.541622 -1.0873325 255 255 255
208.67636 -51.291653 -0.73732275 255 255 255
-7.6998668 -58.838821 -1.1096429 255 255 255
-17.638815 -52.001019 -1.1105959 255 255 255
-15.432895 -58.701752 -1.1073304 255 255 255
-39.980217 -54.046146 -1.0531312 255 255 255
0.38571495 -61.489285 -1.1087766 255 255 255
-23.217737 -55.86591 -1.1206419 255 255 255
-11.195612 -57.896393 -1.078716 255 255 255
-16.331369 -58.169273 -1.10268 255 255 255
-38.002064 -57.833668 -1.1178247 255 255 255
-17.584021 -57.375225 -1.0839683 255 255 255
2.5875564 -57.162796 -1.0942817 255 255 255
119.41225 -42.603386 -0.72852105 255 255 255
-31.451128 -53.306992 -1.0501264 255 255 255
-12.603097 -61.666752 -1.1798413 255 255 255
2.2205923 -58.99931 -1.0938462 255 255 255
-16.419531 -57.223293 -1.1250157 255 255 255
-10.263824 -54.265354 -1.1418952 255 255 255
-12.961535 -55.567867 -1.0385282 255 255 255
-29.490742 -54.32111 -1.0532081 255 255 255
-14.285641 -103.79314 -2.1608624 255 255 255
-19.823547 -57.51062 -1.0791807 255 255 255
250.5925 -54.935337 -0.73450232 255 255 255
-8.8218021 -58.24506 -1.0832406 255 255 255
16.395025 -60.736771 -1.0722938 255 255 255
-12.761982 -59.198845 -1.1232749 255 255 255
-14.178226 -60.450039 -1.1002568 255 255 255
7.1778779 -60.150906 -1.063639 255 255 255
-19.030458 -57.477264 -1.1374089 255 255 255
-2325.9961 -240.9854 -4.8690958 255 255 255
-13.4854 -60.064064 -1.083258 255 255 255
-16.308788 -61.052807 -1.1361568 255 255 255
-15.882271 -60.890423 -1.1311966 255 255 255
-0.43448818 -57.980652 -1.0775532 255 255 255
-0.42702192 -59.478619 -1.103038 255 255 255
-47.519875 -62.961239 -1.2843145 255 255 255
72.104027 -40.955853 -0.71527421 255 255 255
-22.128336 -52.062038 -1.0588218 255 255 255
-19.648479 -60.590233 -1.1468455 255 255 255
-54.773773 -60.965279 -1.2549961 255 255 255
-16.568171 -54.9338 -1.0856876 255 255 255
-14.713074 -60.374664 -1.0995493 255 255 255
-6.3120961 -58.864094 -1.1079543 255 255 255
-6.4174685 -57.473152 -1.0739572 255 255 255
-21.339916 -48.316818 -1.0434726 255 255 255
-38.919006 -52.995224 -1.1832708 255 255 255
-14.770375 -54.398239 -1.0809765 255 255 255
-48.614365 -58.87302 -1.2219082 255 255 255
-0.16928944 -68.539284 -1.4324139 255 255 255
-14.586307 -61.212128 -1.1273255 255 255 255
-7.7869811 -56.138706 -1.0823851 255 255 255
-53.254078 -66.641129 -1.2898722 255 255 255
-2.3692312 -62.139439 -1.1665714 255 255 255
-11.243875 -57.087681 -1.0766259 255 255 255
-13.522149 -59.919262 -1.0776669 255 255 255
-6.6669273 -59.510536 -1.081048 255 255 255
-13.814964 -62.229725 -1.1796803 255 255 255
8.2519341 -58.323193 -1.0721582 255 255 255
-5.3420124 -65.343636 -1.1923455 255 255 255
-14.588936 -52.699726 -1.1866761 255 255 255
-56.789642 -60.050838 -1.2681271 255 255 255
-17.427433 -56.05801 -1.2746917 255 255 255
-19.925787 -58.326939 -1.1375096 255 255 255
-112.73516 -63.669662 -1.1761913 255 255 255
-14.566734 -60.445217 -1.1013918 255 255 255
8.0201321 -69.078636 -1.1752789 255 255 255
-4.5642242 -59.367199 -1.105567 255 255 255
-30.219908 -53.872269 -1.0418019 255 255 255
-10.104539 -58.087563 -1.1229782 255 255 255
-6.7103043 -50.581863 -1.0641606 255 255 255
302.31827 -37.401886 -0.47664207 255 255 255
4.989192 -63.328865 -1.172873 255 255 255
-19.546345 -52.076824 -1.1047349 255 255 255
-4.3991423 -57.87949 -1.0917572 255 255 255
-4.9578509 -56.545315 -1.0737746 255 255 255
-13.53281 -59.91848 -1.0776771 255 255 255
-12.764627 -52.421005 -1.0750544 255 255 255
-12.983619 -47.689827 -1.0699811 255 255 255
-2.6246345 -92.504738 -1.7418052 255 255 255
-22.500654 -57.22435 -1.1201911 255 255 255
-13.032219 -60.454662 -1.0961528 255 255 255
-9.6553459 -61.566582 -1.176857 255 255 255
-23.866352 -54.797638 -1.0748413 255 255 255
-6.4855361 -57.539551 -1.0951058 255 255 255
-12.891047 -59.399136 -1.1042289 255 255 255
-12.895236 -56.78368 -1.1187257 255 255 255
-30.463593 -58.99152 -1.1232538 255 255 255
-22.001276 -61.201618 -1.2042227 255 255 255
-19.923517 -49.987232 -1.0711606 255 255 255
169.68523 -47.254166 -0.71573323 255 255 255
-14.472007 -48.308933 -1.0715061 255 255 255
-32.113625 -54.780777 -1.1234494 255 255 255
255.58481 -49.627365 -0.66663229 255 255 255
-13.025707 -60.457073 -1.0961834 255 255 255
-13.207137 -58.378922 -1.1030644 255 255 255
-15.751967 -50.910999 -1.1463277 255 255 255
78.420807 -38.781094 -0.68997061 255 255 255
-30.283482 -46.803654 -1.0455787 255 255 255
769.42224 -7.5970249 0.44530496 255 255 255
-1.0432587 -57.916183 -1.0752103 255 255 255
-7.9706039 -51.851254 -1.0768207 255 255 255
-15.113647 -54.309277 -1.0810653 255 255 255
-13.024389 -60.452091 -1.095999 255 255 255
-20.744158 -54.478935 -1.0935245 255 255 255
155.10513 -45.972935 -0.71517438 255 255 255
207.44293 -50.632359 -0.71814495 255 255 255
-41.376942 -64.244194 -1.2578161 255 255 255
-18.85602 -57.850613 -1.1040514 255 255 255
-10.986807 -51.754372 -1.0749965 255 255 255
-12.194856 -55.286663 -1.0825933 255 255 255
2.8549473 -57.310524 -1.0711465 255 255 255
0.32079288 -58.243328 -1.1009725 255 255 255
-10.542142 -60.075844 -1.1040828 255 255 255
-4.2356815 -48.07209 -1.0685561 255 255 255
14.05096 -60.237419 -1.0700012 255 255 255
-14.747823 -45.054367 -1.0662209 255 255 255
227.46304 -52.735241 -0.73372185 255 255 255
-16.721739 -47.499458 -1.0726163 255 255 255
-0.20383982 -53.318733 -1.0658939 255 255 255
-4.7445431 -47.155308 -1.066957 255 255 255
-56.832233 -58.232258 -1.2431345 255 255 255
-14.808837 -62.738865 -1.1730659 255 255 255
-9.2987852 -52.748199 -1.0834175 255 255 255
-8.5821037 -52.830521 -1.074241 255 255 255
-13.611454 -46.869492 -1.0715796 255 255 255
-11.209989 -47.78553 -1.0888495 255 255 255
2.8885076 -57.226353 -1.0768945 255 255 255
-5.7038136 -56.853539 -1.0700815 255 255 255
3.9289498 -59.067059 -1.0909506 255 255 255
2058.5645 18.931801 1.9152392 255 255 255
-23.930676 -60.854259 -1.1440947 255 255 255
-3.7446277 -59.550266 -1.1085334 255 255 255
5.4265571 -62.326679 -1.1106626 255 255 255
-40.585136 -50.393551 -1.0950269 255 255 255
-13.989424 -60.349178 -1.0959738 255 255 255
124.12994 -42.776913 -0.70987791 255 255 255
0.65897012 -59.282528 -1.0685709 255 255 255
-14.938696 -62.756287 -1.1853498 255 255 255
-6.7862997 -58.782681 -1.0839107 255 255 255
109.78778 -47.391159 -0.82099181 255 255 255
-24.312298 -49.320847 -1.0999342 255 255 255
-11.079795 -58.395695 -1.0833532 255 255 255
-15.453485 -61.27734 -1.1326463 255 255 255
92.224319 -38.849121 -0.66856116 255 255 255
145.56026 -48.626728 -0.74843043 255 255 255
2.705272 -57.920643 -1.0852419 255 255 255
-19.766893 -54.42485 -1.0830648 255 255 255
5.5596519 -61.939487 -1.128673 255 255 255
101.59044 -40.77253 -0.70541441 255 255 255
56.604149 -39.129459 -0.76228714 255 255 255
-27.146658 -79.584351 -1.4912111 255 255 255
52.070389 -37.56218 -0.68646055 255 255 255
223.23961 -52.224121 -0.72462082 255 255 255
112.36994 -46.281734 -0.74982429 255 255 255
209.40231 -52.628914 -0.74417311 255 255 255
-3.3384187 -61.929058 -1.1655436 255 255 255
-68.407562 -65.100716 -1.1408355 255 255 255
-14.676261 -60.475334 -1.1029311 255 255 255
5.7247853 -61.945141 -1.1037086 255 255 255
-2.4718578 -49.650185 -1.0915952 255 255 255
-8.3336535 -60.484032 -1.1348313 255 255 255
-8.7720013 -56.708824 -1.1719048 255 255 255
57.463402 -45.707752 -0.9302972 255 255 255
-20.777843 -48.954041 -1.1091132 255 255 255
2.6493919 -59.141304 -1.0951655 255 255 255
-20.357233 -54.685825 -1.0932847 255 255 255
-3.0734184 -63.506424 -1.2049929 255 255 255
1.4799483 -56.677818 -1.0708188 255 255 255
-20.022472 -80.632751 -1.7240591 255 255 255
-18.04582 -50.313602 -1.0658689 255 255 255
-25.192451 -91.133911 -1.8190523 255 255 255
120.42161 -42.704792 -0.72869247 255 255 255
-14.69358 -60.31353 -1.0973679 255 255 255
-5.8560019 -57.117722 -1.0744672 255 255 255
-6.9354682 -65.123169 -1.1937677 255 255 255
-12.929273 -59.215187 -1.1097224 255 255 255
-13.444695 -59.933041 -1.0780491 255 255 255
124.11028 -42.779427 -0.70988268 255 255 255
106.01243 -41.052963 -0.71090931 255 255 255
-9.8230515 -62.014153 -1.1595818 255 255 255
-8.7216301 -55.383419 -1.078021 255 255 255
-3.436029 -63.421684 -1.1447765 255 255 255
-7.3221045 -56.885513 -1.0778797 255 255 255
3.9329033 -60.368271 -1.0757946 255 255 255
-23.013847 -51.157288 -1.0465537 255 255 255
75.683258 -39.396637 -0.68486971 255 255 255
368.60324 -25.731508 -0.6876691 255 255 255
71.946846 -47.51757 -0.91602093 255 255 255
-5.0021377 -56.435558 -1.0706321 255 255 255
17.020136 -84.081039 -1.5428717 255 255 255
-9.4731989 -58.597603 -1.1971916 255 255 255
176.1208 -47.953411 -0.73342919 255 255 255
-16.303667 -107.48766 -2.2076948 255 255 255
125.61259 -42.905087 -0.71021491 255 255 255
-5.8160477 -59.452374 -1.1104677 255 255 255
-32.099998 -51.140465 -1.053854 255 255 255
-7.9204545 -54.538986 -1.0804361 255 255 255
-20.173052 -57.673599 -1.1498681 255 255 255
-0.46525288 -59.147129 -1.1034597 255 255 255
-16.732018 -65.213402 -1.2187288 255 255 255
-21.046452 -56.855591 -1.1171763 255 255 255
105.58744 -41.006664 -0.71085507 255 255 255
-0.69320583 -57.891415 -1.0902438 255 255 255
-16.550648 -54.984959 -1.0417632 255 255 255
-14.333475 -57.913754 -1.0785793 255 255 255
123.6263 -42.718964 -0.71019667 255 255 255
-32.286373 -57.927898 -1.1629641 255 255 255
5.772296 -59.159973 -1.0928836 255 255 255
-21.265533 -54.799515 -1.1029392 255 255 255
-53.640305 -134.61751 -2.6842635 255 255 255
-0.084761903 -61.8209 -1.129236 255 255 255
-10.059209 -52.028675 -1.1191295 255 255 255
-9.1087208 -58.188801 -1.0831991 255 255 255
-10.011375 -58.875542 -1.1000144 255 255 255
-13.343906 -61.833256 -1.1573399 255 255 255
-17.656931 -58.698845 -1.1116767 255 255 255
155.26189 -45.995689 -0.71513897 255 255 255
212.34575 -51.805862 -0.73861957 255 255 255
-11.397713 -57.483837 -1.0886579 255 255 255
-15.787148 -60.973442 -1.1304731 255 255 255
-38.465637 -52.135654 -1.2006897 255 255 255
-17.933186 -48.436928 -1.0783026 255 255 255
9.6667824 -55.499123 -1.0689245 255 255 255
-9.4725285 -51.905853 -1.1435192 255 255 255
-8.2980146 -64.259789 -1.1818219 255 255 255
18.993431 -61.169395 -1.0837823 255 255 255
111.46548 -41.694267 -0.71428591 255 255 255
-7.685358 -52.320698 -1.0684381 255 255 255
-17.788063 -56.144386 -1.1145107 255 255 255
-7.3064551 -57.149803 -1.0760856 255 255 255
-6.9462032 -61.409111 -1.1133575 255 255 255
-16.574684 -53.283566 -1.1155252 255 255 255
-180.53195 -69.389618 -1.2154591 255 255 255
-12.355206 -60.841667 -1.1357777 255 255 255
83.99678 -36.209805 -0.6355145 255 255 255
4.8148413 -57.459793 -1.0769781 255 255 255
-22.12907 -52.058079 -1.0588535 255 255 255
-292.03262 -66.857155 -1.3721672 255 255 255
77.579231 -45.501358 -0.78516704 255 255 255
-9.5283947 -61.486492 -1.1599213 255 255 255
-21.719805 -55.104309 -1.0947411 255 255 255
-12.808813 -60.470787 -1.1017931 255 255 255
72.346664 -39.222378 -0.7001062 255 255 255
69.87278 -39.567406 -0.70127797 255 255 255
3.3355541 -60.557209 -1.1310238 255 255 255
-14.586174 -56.366566 -1.1101235 255 255 255
-15.366621 -53.749802 -1.0797399 255 255 255
-17.512508 -57.35091 -1.0856326 255 255 255
214.31335 -51.993099 -0.73891234 255 255 255
16.272514 -63.518574 -1.1533401 255 255 255
-13.508539 -68.86483 -1.2610316 255 255 255
-4.9638758 -61.286724 -1.0844961 255 255 255
-4.6315317 -57.992863 -1.0953896 255 255 255
-12.22648 -63.088657 -1.0958022 255 255 255
-16.404978 -61.168541 -1.1429335 255 255 255
10.17023 -48.554108 -0.99714071 255 255 255
149.19695 -45.246487 -0.72666085 255 255 255
-12.917241 -57.559086 -1.0841931 255 255 255
-8.3791704 -59.481655 -1.0843264 255 255 255
-14.502675 -64.860207 -1.2027147 255 255 255
-14.105985 -60.202148 -1.0912551 255 255 255
-8.7707357 -50.575344 -1.082969 255 255 255
67.521378 -40.045765 -0.69923609 255 255 255
-16.598392 -56.992367 -1.0871469 255 255 255
-3.9492526 -61.532448 -1.1882783 255 255 255
0.69501555 -58.393238 -1.0898606 255 255 255
-15.00066 -57.571404 -1.0989355 255 255 255
160.73553 -46.326721 -0.72198814 255 255 255
105.95668 -11.942339 -0.8042469 255 255 255
-23.456606 -56.48563 -1.0481952 255 255 255
-0.48229167 -57.513268 -1.070501 255 255 255
-20.270588 -54.610115 -1.0844542 255 255 255
-10.646587 -89.681442 -1.7343726 255 255 255
-17.975471 -55.394997 -1.083124 255 255 255
8.1168318 -58.919689 -1.0416782 255 255 255
-14.414256 -59.857586 -1.0788887 255 255 255
-18.853527 -54.809731 -1.0836372 255 255 255
182.39343 -52.774689 -0.82319379 255 255 255
-1.4060013 -60.593117 -1.0743788 255 255 255
519.46918 14.264811 -0.064001478 255 255 255
-53.779797 -63.313484 -1.3031051 255 255 255
-11.044803 -60.554234 -1.0924847 255 255 255
-16.19348 -58.660801 -1.0812066 255 255 255
-10.619405 -47.990005 -1.058242 255 255 255
677.47229 2.542912 0.19831555 255 255 255
-6.9148235 -59.212589 -1.1173021 255 255 255
124.07464 -42.768787 -0.71001798 255 255 255
-12.085069 -51.587734 -1.0747523 255 255 255
-40.307606 -66.267357 -1.2695103 255 255 255
-6.8046622 -55.845619 -1.0799587 255 255 255
-10.206304 -62.548836 -1.1742542 255 255 255
-3.4282484 -55.437958 -1.1652043 255 255 255
-22.10449 -55.214615 -1.0855243 255 255 255
-21.610415 -61.117249 -1.1880671 255 255 255
-15.88501 -60.434048 -1.1221528 255 255 255
-24.959904 -63.418556 -1.1082335 255 255 255
-25.480951 -53.928669 -1.0748084 255 255 255
-6.446003 -58.110695 -1.0915257 255 255 255
-17.515772 -58.475914 -1.1033677 255 255 255
-13.907687 -49.595299 -1.0776246 255 255 255
9.9336805 -58.540661 -1.0896294 255 255 255
-12.255362 -58.008846 -1.0844471 255 255 255
-16.950739 -51.616966 -1.1382908 255 255 255
-19.446959 -58.783955 -1.0880769 255 255 255
-10.029219 -55.394234 -1.0753061 255 255 255
-13.590778 -65.907837 -1.2040787 255 255 255
-9.4646711 -48.860718 -1.0794758 255 255 255
-48.983017 -63.34716 -1.3005562 255 255 255
0.07061898 -59.529949 -1.1021223 255 255 255
-11.743457 -49.766655 -1.0759723 255 255 255
150.52136 -45.353706 -0.72630602 255 255 255
-14.133065 -60.197174 -1.0912179 255 255 255
-15.352735 -56.196972 -1.0832816 255 255 255
0.3513487 -67.178558 -1.1919425 255 255 255
4.2953715 -94.135292 -1.7663939 255 255 255
-5.627358 -58.5723 -1.0966352 255 255 255
-3.2221017 -57.936306 -1.0991418 255 255 255
149.09657 -45.213959 -0.7264989 255 255 255
-31.30155 -57.504719 -1.0886465 255 255 255
75.348061 -38.796989 -0.6628024 255 255 255
150.13678 -45.315742 -0.72628754 255 255 255
121.41444 -52.393002 -0.81136012 255 255 255
3.4273119 -55.037354 -1.0913203 255 255 255
-219.38864 -64.400314 -1.2689228 255 255 255
1.3130763 -62.755428 -1.177745 255 255 255
-14.282311 -49.389984 -1.0952675 255 255 255
4.2771583 -64.43853 -1.1484294 255 255 255
538.4541 -16.08456 -0.27606001 255 255 255
223.43758 -52.849861 -0.73745495 255 255 255
-27.431335 -56.000263 -1.0544221 255 255 255
-19.748112 -50.541107 -1.081942 255 255 255
3.3467045 -58.124958 -1.0944752 255 255 255
-9.856184 -52.123863 -1.119123 255 255 255
-25.87458 -55.122696 -1.0990791 255 255 255
92.770897 -37.218914 -0.5986051 255 255 255
4.0369101 -61.026649 -1.0984498 255 255 255
-28.661663 -55.432899 -1.0533618 255 255 255
-11.746191 -54.75771 -1.123173 255 255 255
-3.6475441 -51.231064 -1.0721309 255 255 255
144.4455 -44.812595 -0.72768408 255 255 255
-9.38132 -60.443668 -1.0820352 255 255 255
-10.478145 -60.342804 -1.1128269 255 255 255
86.345535 -40.94241 -0.70986116 255 255 255
-1.1559589 -59.08213 -1.0595181 255 255 255
-2.462662 -57.253841 -1.078962 255 255 255
-942.03162 -452.01105 -7.9349656 255 255 255
-27.748886 -59.75882 -1.087903 255 255 255
1.2792666 -57.472576 -1.0792826 255 255 255
-18.765961 -57.30022 -1.1307631 255 255 255
134.39235 -49.418461 -0.84264886 255 255 255
-21.151205 -53.820438 -1.0773016 255 255 255
300.70566 -58.198326 -0.70387995 255 255 255
-53.497913 -58.308315 -1.2361239 255 255 255
-2.5311701 -56.725452 -1.1146442 255 255 255
-19.307722 -70.016129 -1.4154204 255 255 255
-9.3529463 -74.22467 -1.7299137 255 255 255
-8.6307383 -60.421387 -1.1329646 255 255 255
-80.90921 -68.48494 -1.1870401 255 255 255
60.485485 -54.922432 -0.92317337 255 255 255
180.82846 -48.10648 -0.72004765 255 255 255
-15.335219 -46.622471 -1.0829622 255 255 255
-5.0843782 -62.462269 -1.080682 255 255 255
-12.640676 -57.436905 -1.2686607 255 255 255
-5.8294725 -53.740154 -1.1096194 255 255 255
-11.813414 -59.70163 -1.0872476 255 255 255
-15.206472 -48.541775 -1.1080359 255 255 255
-13.126198 -59.944756 -1.0771157 255 255 255
0.36816552 -59.189293 -1.0964609 255 255 255
-7.9234791 -58.467861 -1.134856 255 255 255
-18.281488 -55.598419 -1.1017812 255 255 255
-11.600431 -51.560764 -1.0746536 255 255 255
-13.031396 -60.400795 -1.0940481 255 255 255
223.7402 -52.864143 -0.73726469 255 255 255
-14.108339 -54.305019 -1.0887966 255 255 255
-6.6364918 -56.526443 -1.1892513 255 255 255
-12.23548 -59.280731 -1.1064337 255 255 255
-39.638401 -86.875298 -1.8303292 255 255 255
94.396736 -37.203506 -0.65615451 255 255 255
-18.48448 -53.939106 -1.1438277 255 255 255
-20.438549 -59.101349 -1.1410563 255 255 255
7.3024125 -62.292789 -1.1557502 255 255 255
-59.429516 -60.434284 -1.2832301 255 255 255
-18.100142 -58.110424 -1.1056519 255 255 255
-48.835243 -53.110142 -1.1137291 255 255 255
3.8289165 -57.631649 -1.0713433 255 255 255
-15.394617 -62.279442 -1.0890553 255 255 255
-10.021897 -49.624016 -1.1075987 255 255 255
-25.439531 -61.121048 -1.1430007 255 255 255
27.770935 -91.01239 -1.6666707 255 255 255
-12.745625 -47.117065 -1.0599587 255 255 255
-18.479145 -58.500553 -1.0943912 255 255 255
158.82547 -46.129913 -0.72201967 255 255 255
-14.564013 -60.456322 -1.1017585 255 255 255
7.2946854 -60.516365 -1.0706141 255 255 255
265.54126 -54.595963 -0.76723361 255 255 255
-6.7441058 -64.063721 -1.1871551 255 255 255
-5.2376299 -56.625221 -1.0657685 255 255 255
-13.064478 -59.920078 -1.0755206 255 255 255
0.91244602 -58.011547 -1.0841174 255 255 255
-5.9508657 -59.131756 -1.1096897 255 255 255
-3.3484464 -57.376801 -1.0783848 255 255 255
-9.3364515 -57.620106 -1.0836247 255 255 255
19.094822 -67.847206 -1.1510097 255 255 255
-14.819815 -46.110344 -1.0860516 255 255 255
-5.3358703 -52.023975 -1.0700384 255 255 255
-9.6805811 -63.140816 -1.1597973 255 255 255
-12.719289 -62.491364 -1.1495409 255 255 255
-48.571411 -56.884468 -1.2623874 255 255 255
-17.848146 -54.589993 -1.0825372 255 255 255
-5.1830335 -54.131844 -1.0698992 255 255 255
-13.352647 -56.141277 -1.0736735 255 255 255
-36.284969 -56.705826 -1.2034982 255 255 255
-45.859329 -52.076485 -1.2014182 255 255 255
64.70842 -39.040363 -0.69044948 255 255 255
-5.8595901 -53.436337 -1.0745943 255 255 255
-4.976131 -59.446327 -1.0846695 255 255 255
-12.958363 -59.954945 -1.0768371 255 255 255
-24.022476 -54.275101 -1.0893346 255 255 255
-16.858728 -58.737209 -1.0979798 255 255 255
-6.1131949 -48.641171 -1.0668234 255 255 255
-49.664371 -63.584965 -1.3113443 255 255 255
-12.034834 -53.938015 -1.0902741 255 255 255
-16.23827 -49.439445 -1.0971595 255 255 255
-13.13128 -60.772839 -1.1275989 255 255 255
-4.2537661 -59.523197 -1.1206585 255 255 255
-17.783434 -58.310524 -1.1341594 255 255 255
-11.169436 -64.668671 -1.1965656 255 255 255
-39.186123 -54.662334 -1.0579315 255 255 255
9.8662882 -82.194778 -1.6182747 255 255 255
-26.01231 -54.925476 -1.0479145 255 255 255
-54.969208 -62.613182 -1.3140395 255 255 255
-6.4336205 -60.37096 -1.130706 255 255 255
-134.62917 -62.215652 -1.1549833 255 255 255
-10.068923 -50.718376 -1.0714412 255 255 255
144.68552 -44.889118 -0.73023969 255 255 255
-39.165905 -60.232731 -1.2384329 255 255 255
-15.005056 -62.287453 -1.1553349 255 255 255
-10.332889 -63.591923 -1.1746666 255 255 255
-14.75051 -60.369965 -1.0995771 255 255 255
-13.313601 -58.396954 -1.0868632 255 255 255
-17.397556 -84.248215 -1.5957015 255 255 255
1.404277 -63.635303 -1.1795897 255 255 255
-31.886778 -66.209671 -1.2788645 255 255 255
-20.131506 -57.264793 -1.1168226 255 255 255
-25.587635 -55.109837 -1.0465121 255 255 255
-1.5234956 -61.934799 -1.1528162 255 255 255
1.6938279 -55.040451 -1.0726727 255 255 255
-1.7016162 -59.624458 -1.0802479 255 255 255
-8.686923 -63.817551 -1.1656367 255 255 255
-14.216827 -60.389832 -1.0983008 255 255 255
-11.117631 -50.857624 -1.0720656 255 255 255
4.5559325 -59.621376 -1.1166819 255 255 255
140.72575 -44.503841 -0.72941124 255 255 255
-14.650421 -60.377338 -1.0993922 255 255 255
91.129402 -49.711582 -0.89499104 255 255 255
360.88794 -47.104645 -0.67238998 255 255 255
-11.935031 -63.599556 -1.3771138 255 255 255
-13.935425 -58.840012 -1.0880791 255 255 255
15.328914 -62.057968 -1.139141 255 255 255
-19.815802 -52.377136 -1.1140205 255 255 255
-16.053516 -48.34391 -1.1087265 255 255 255
145.64197 -44.932198 -0.7281304 255 255 255
7.4947805 -61.455093 -1.0976535 255 255 255
147.29739 -20.845274 -0.3176938 255 255 255
-13.399375 -59.92548 -1.077473 255 255 255
-12.966412 -59.954102 -1.0769122 255 255 255
-14.765974 -60.053669 -1.0909877 255 255 255
-62.088902 -64.843468 -1.3398366 255 255 255
-15.388703 -55.499947 -1.0899036 255 255 255
-17.950541 -57.313358 -1.0858284 255 255 255
152.29791 -45.492085 -0.72472101 255 255 255
-3.7625325 -49.87233 -1.1028925 255 255 255
7.9639606 -60.834911 -1.07445 255 255 255
-19.743958 -58.059898 -1.1122591 255 255 255
-47.828186 -51.024742 -1.0677415 255 255 255
6.0442228 -57.715523 -1.0769837 255 255 255
-14.222389 -60.396431 -1.0985162 255 255 255
-14.849362 -54.623867 -1.0873795 255 255 255
-4.475286 -59.509182 -1.0770752 255 255 255
-4.8087273 -61.065269 -1.12095 255 255 255
-12.047276 -69.055473 -1.3864565 255 255 255
-0.17016567 -61.20155 -1.1168016 255 255 255
-8.0207758 -59.094292 -1.0831144 255 255 255
277.3493 -57.453236 -0.73140067 255 255 255
-21.460989 -60.004711 -1.1350963 255 255 255
-1.4252489 -63.769119 -1.2022769 255 255 255
-15.963763 -61.586002 -1.1706456 255 255 255
-5.6853328 -56.748909 -1.0742775 255 255 255
-9.4338331 -64.875877 -1.2018256 255 255 255
-22.596756 -55.781445 -1.07401 255 255 255
-58.35873 -63.722076 -1.3366293 255 255 255
68.155434 -47.673759 -0.88227779 255 255 255
-17.358406 -60.320557 -1.1296902 255 255 255
-16.140974 -58.19508 -1.0847961 255 255 255
-13.856839 -60.120766 -1.1107216 255 255 255
147.44745 -45.163727 -0.73165458 255 255 255
82.497589 -46.262676 -0.81715214 255 255 255
-11.078742 -57.025867 -1.0733449 255 255 255
-29.439934 -78.5923 -1.7193846 255 255 255
20.969057 -110.97256 -1.927253 255 255 255
-14.273015 -79.02681 -1.7121593 255 255 255
-21.296818 -102.66209 -1.9963048 255 255 255
-220.50912 -64.528412 -1.2803198 255 255 255
-3.891686 -57.269619 -1.07003 255 255 255
71.432632 -38.998909 -0.6870172 255 255 255
-4.6320577 -60.49342 -1.0932356 255 255 255
-55.283524 -59.223293 -1.2362046 255 255 255
-19.734104 -60.553619 -1.1544536 255 255 255
-123.06962 -65.944809 -1.2127317 255 255 255
-7.0845613 -60.685368 -1.1167003 255 255 255
-12.999958 -61.204983 -1.1283445 255 255 255
52.623966 -51.413464 -0.88267124 255 255 255
-13.077365 -59.924995 -1.075919 255 255 255
-15.997595 -80.673943 -1.5933051 255 255 255
-20.350252 -54.625927 -1.0894454 255 255 255
-6.7068219 -49.774063 -1.0663587 255 255 255
-43.756752 -61.380764 -1.2166554 255 255 255
-0.77136463 -60.591637 -1.1245356 255 255 255
-61.654896 -66.16848 -1.3263636 255 255 255
-15.8791 -53.851871 -1.0653211 255 255 255
-17.950104 -58.735359 -1.0859109 255 255 255
-238.01009 -64.541992 -1.2975374 255 255 255
-25.362206 -90.055801 -1.7285161 255 255 255
-5.6832275 -64.840302 -1.1910751 255 255 255
10.574147 -116.46463 -2.1317439 255 255 255
-14.759352 -60.389511 -1.1003766 255 255 255
-4.872159 -58.26889 -1.1416501 255 255 255
269.6557 -56.311447 -0.71715987 255 255 255
-6.3346801 -60.521366 -1.1145413 255 255 255
-51.350899 -64.189995 -1.2506627 255 255 255
-13.756256 -60.285755 -1.0928025 255 255 255
-13.94269 -60.747219 -1.1092488 255 255 255
-9.4451256 -58.475147 -1.085585 255 255 255
16.879248 -52.579937 -0.93497556 255 255 255
-21.597366 -49.634682 -1.0432966 255 255 255
173.07655 -48.892776 -0.72857648 255 255 255
-9.2776442 -64.24868 -1.177101 255 255 255
-1.4058412 -50.138458 -1.0646911 255 255 255
-20.344816 -63.054245 -1.250597 255 255 255
-25.97933 -62.635891 -1.2128013 255 255 255
-8.4321012 -59.785885 -1.069206 255 255 255
241.20262 -53.896736 -0.72246408 255 255 255
-18.024809 -50.808731 -1.0778162 255 255 255
-7.4617429 -52.347721 -1.0732987 255 255 255
785.42944 -37.011631 0.013272599 255 255 255
-35.231907 -54.700424 -1.2292753 255 255 255
-5.4025016 -51.007423 -1.0808756 255 255 255
8.1091747 -58.965981 -1.1533017 255 255 255
-23.611769 -57.823875 -1.1657723 255 255 255
-14.802818 -58.287437 -1.1036072 255 255 255
-16.196859 -52.807667 -1.1135013 255 255 255
-3.1469884 -59.554119 -1.1194097 255 255 255
14.399774 -58.420261 -1.0700781 255 255 255
-15.925027 -57.229294 -1.1195333 255 255 255
-13.913012 -52.044163 -1.0765904 255 255 255
2.881813 -57.508305 -1.0758179 255 255 255
6.4989142 -61.159763 -1.078032 255 255 255
123.43555 -42.719166 -0.71056789 255 255 255
-4.5052881 -59.949059 -1.112776 255 255 255
-6.2951841 -52.676613 -1.0848324 255 255 255
-9.6372204 -60.032364 -1.1001431 255 255 255
-15.037835 -54.030289 -1.1142265 255 255 255
9.8263607 -61.956009 -1.1678094 255 255 255
-5.6421328 -57.689594 -1.154646 255 255 255
-6.3623247 -58.788509 -1.0826308 255 255 255
-14.067571 -59.888649 -1.0787612 255 255 255
124.14093 -58.263794 -0.89295882 255 255 255
222.49196 -52.486431 -0.73441094 255 255 255
-27.01165 -45.212215 -1.042407 255 255 255
-20.363707 -55.043457 -1.1056025 255 255 255
-6.983376 -57.229107 -1.0781287 255 255 255
-7.3149924 -56.012875 -1.0600013 255 255 255
-14.568908 -48.85144 -1.0794141 255 255 255
334.89096 -20.185061 -0.37518489 255 255 255
131.01337 -43.645096 -0.73242038 255 255 255
-2.3971329 -57.66515 -1.0731632 255 255 255
250.67989 -54.93026 -0.73440123 255 255 255
177.05754 -47.8274 -0.72614044 255 255 255
-225.89659 -68.069809 -1.3022537 255 255 255
-28.902233 -54.667858 -1.0430257 255 255 255
-206.08418 -60.956818 -1.2278987 255 255 255
4.4300795 -55.024307 -1.0730255 255 255 255
-11.919597 -51.994377 -1.0872155 255 255 255
-16.057583 -52.400684 -1.1049505 255 255 255
-18.168179 -58.53968 -1.0940816 255 255 255
-50.037762 -57.719513 -1.2877053 255 255 255
-21.594858 -53.237255 -1.0731463 255 255 255
-12.081469 -64.837112 -1.1999772 255 255 255
-4.796936 -58.297878 -1.1713618 255 255 255
-1.731914 -53.796345 -1.0632032 255 255 255
1.7450042 -56.898434 -1.0540588 255 255 255
84.587509 -39.031078 -0.70203549 255 255 255
-6.1396031 -53.06461 -1.080487 255 255 255
-18.271843 -54.798035 -1.0409741 255 255 255
-13.568118 -59.917225 -1.0777186 255 255 255
-16.290085 -56.541981 -1.0722129 255 255 255
-14.409953 -54.926144 -1.0773722 255 255 255
-12.212561 -58.122627 -1.0992365 255 255 255
-16.828747 -104.04649 -2.033354 255 255 255
-26.578411 -56.20863 -1.0524369 255 255 255
-4.4495096 -56.883793 -1.0641445 255 255 255
150.47707 -45.357536 -0.72644538 255 255 255
-27.938835 -61.316261 -1.1631436 255 255 255
-32.654148 -140.87895 -2.9488518 255 255 255
-39.690544 -48.727249 -1.0562153 255 255 255
-38.133949 -50.608498 -1.1660078 255 255 255
-2.8238454 -60.477097 -1.1243924 255 255 255
-3.8613358 -49.748932 -1.0969887 255 255 255
69.365044 -44.305882 -0.71074814 255 255 255
-3.1603022 -61.955074 -1.1423717 255 255 255
-9.9662647 -46.57745 -1.0719111 255 255 255
-24.781218 -83.837357 -1.7611251 255 255 255
-20.324236 -60.400398 -1.1477667 255 255 255
-16.139521 -59.177856 -1.1543663 255 255 255
-14.416781 -59.85635 -1.0788691 255 255 255
19.124998 -61.188492 -1.0842226 255 255 255
64.059486 -39.23204 -0.7370646 255 255 255
81.073189 -36.891903 -0.65382749 255 255 255
149.22659 -45.234512 -0.7265386 255 255 255
6.5340462 -57.684727 -1.0833925 255 255 255
-10.675715 -96.432304 -1.841554 255 255 255
-29.189615 -44.94603 -1.0458922 255 255 255
-9.6193228 -56.557167 -1.155647 255 255 255
-166.15135 -395.38708 -8.5258989 255 255 255
105.87763 -41.045692 -0.7111277 255 255 255
-18.062796 -55.567242 -1.074134 255 255 255
-4.7313242 -51.715363 -1.0701474 255 255 255
-21.701473 -58.246216 -1.0921156 255 255 255
-7.0579515 -63.925686 -1.1800175 255 255 255
-10.456941 -56.860508 -1.1180458 255 255 255
-12.972439 -46.514427 -1.0970528 255 255 255
-16.964687 -51.267651 -1.0805576 255 255 255
12.642243 -64.841721 -1.1662668 255 255 255
-12.006227 -57.593937 -1.1153526 255 255 255
-11.964243 -112.60108 -2.1082115 255 255 255
223.52362 -52.881783 -0.73777568 255 255 255
-16.47506 -57.959904 -1.0912195 255 255 255
-7.1940513 -56.892342 -1.0761238 255 255 255
168.01094 -46.981808 -0.71519119 255 255 255
147.7758 -31.768116 -0.42955571 255 255 255
-19.627613 -63.108791 -1.2483376 255 255 255
-38.575409 -51.279274 -1.1935768 255 255 255
-35.994167 -51.846142 -1.0500674 255 255 255
-18.393755 -59.271358 -1.1704026 255 255 255
-11.44411 -55.56942 -1.0842174 255 255 255
-43.287422 -45.20211 -1.1007118 255 255 255
-129.64468 -63.409943 -1.1939397 255 255 255
-31.624292 -51.72958 -1.0526379 255 255 255
-12.920242 -55.041496 -1.0752711 255 255 255
-23.343788 -59.147808 -1.1138345 255 255 255
24.234903 -54.11652 -0.94995528 255 255 255
125.01548 -42.859612 -0.71016341 255 255 255
-18.795971 -60.079975 -1.1435901 255 255 255
-43.611084 -51.065105 -1.0626296 255 255 255
-21.827709 -62.154713 -1.2257853 255 255 255
-35.42968 -52.42485 -1.0577402 255 255 255
-13.520086 -59.920509 -1.0776983 255 255 255
-13.687028 -56.003403 -1.0945873 255 255 255
-7.3886886 -58.31123 -1.0782059 255 255 255
207.61581 -51.188549 -0.7375226 255 255 255
232.17778 -26.685959 -0.6212464 255 255 255
-12.961632 -59.955135 -1.0768661 255 255 255
150.41721 -45.35326 -0.72697264 255 255 255
-24.684151 -60.444981 -1.2177389 255 255 255
-5.4313984 -54.938389 -1.1016444 255 255 255
-13.262796 -61.065052 -1.1344463 255 255 255
-6.6340637 -55.987751 -1.1432147 255 255 255
-17.233753 -60.619152 -1.1428425 255 255 255
-11.815185 -51.434978 -1.1230887 255 255 255
-35.940323 -94.208992 -2.1425402 255 255 255
-4.3400841 -57.802456 -1.0924852 255 255 255
-12.946054 -59.951046 -1.0768223 255 255 255
-25.745588 -59.257088 -1.1174076 255 255 255
-13.403303 -59.925934 -1.0774883 255 255 255
310.29944 -60.330967 -0.72187495 255 255 255
-20.577444 -74.797653 -1.6174985 255 255 255
-47.661343 -55.528793 -1.163445 255 255 255
-12.989541 -57.767239 -1.0843958 255 255 255
-11.111751 -53.49646 -1.0700058 255 255 255
111.16779 -33.178535 -0.55794472 255 255 255
-7.8022742 -54.123528 -1.1013378 255 255 255
-55.816456 -60.655876 -1.2739624 255 255 255
135.8546 -47.450474 -0.76483065 255 255 255
-13.61159 -60.01749 -1.0819758 255 255 255
-4.7163491 -69.255844 -1.6009598 255 255 255
160.33081 -47.568821 -0.80904442 255 255 255
1734.4702 -12.599772 0.85240161 255 255 255
-42.084568 -50.61808 -1.1460317 255 255 255
-3210.0403 -429.96011 -5.2847877 255 255 255
5.8733878 -44.17804 -0.98849434 255 255 255
-13.122577 -59.945641 -1.0771165 255 255 255
-6.7189088 -54.051399 -1.0763113 255 255 255
-22.13937 -57.275959 -1.0776166 255 255 255
28.861746 -53.31015 -0.91934133 255 255 255
-21.951101 -48.508579 -1.0393547 255 255 255
-0.97377867 -59.209175 -1.1700469 255 255 255
-10.087306 -57.66391 -1.0858299 255 255 255
224.19505 -52.90971 -0.73755229 255 255 255
53.757828 -42.260586 -0.79722458 255 255 255
-2.0434 -62.980312 -1.129307 255 255 255
141.45393 -48.366238 -0.82257128 255 255 255
-17.658005 -62.413589 -1.1903515 255 255 255
-12.294571 -54.726128 -1.08102 255 255 255
208.67287 -51.29929 -0.73746878 255 255 255
125.43023 -42.898781 -0.71024877 255 255 255
-5.897902 -50.940128 -1.0714062 255 255 255
-8.3224354 -48.984474 -1.0753812 255 255 255
-14.207143 -66.124878 -1.233735 255 255 255
-25.631327 -58.163475 -1.1061662 255 255 255
-22.670498 -45.384892 -1.054551 255 255 255
-1563.9507 -206.75471 -2.8284054 255 255 255
7.9693732 -63.038261 -1.1179827 255 255 255
0.65861768 -59.591614 -1.1181858 255 255 255
-10.67304 -58.690254 -1.1029061 255 255 255
-11.593489 -61.225609 -1.1140443 255 255 255
-22.180586 -51.133953 -1.0874903 255 255 255
-8.2811422 -56.658203 -1.1703069 255 255 255
169.74371 -47.258427 -0.71574706 255 255 255
-14.174501 -60.165382 -1.1208996 255 255 255
-4.078568 -58.676018 -1.1014185 255 255 255
-15.781021 -52.210552 -1.0804325 255 255 255
-12.558602 -54.247032 -1.0331919 255 255 255
0.87050897 -56.920002 -1.0745327 255 255 255
8.400568 -60.635994 -1.0740235 255 255 255
-11.320781 -47.007057 -1.0682164 255 255 255
-15.775996 -89.854935 -1.7016832 255 255 255
-12.650952 -59.984699 -1.0768744 255 255 255
-0.68781084 -58.818115 -1.0695261 255 255 255
242.18375 -54.087845 -0.73657662 255 255 255
-15.186858 -83.631424 -1.5896506 255 255 255
144.30649 -44.790798 -0.7277261 255 255 255
149.30162 -45.231953 -0.72585434 255 255 255
-4.3990841 -57.031158 -1.166435 255 255 255
51.062603 -46.785461 -0.79054099 255 255 255
-6.5556788 -65.324242 -1.1930598 255 255 255
140.69464 -44.505566 -0.72947377 255 255 255
145.70749 -44.930164 -0.72805607 255 255 255
-0.98436356 -60.909641 -1.1443522 255 255 255
2.3865747 -57.599113 -1.071578 255 255 255
2.3517194 -57.847214 -1.0874642 255 255 255
82.128967 -45.869789 -0.81928438 255 255 255
144.34691 -44.813786 -0.72778839 255 255 255
-14.804946 -46.218628 -1.0832754 255 255 255
-6.9582567 -57.273289 -1.0750986 255 255 255
-6.6151071 -57.02 -1.0737237 255 255 255
-16.445007 -49.850586 -1.10431 255 255 255
-5.3561444 -54.172043 -1.0896726 255 255 255
149.02168 -45.226021 -0.72666007 255 255 255
-22.622818 -60.119671 -1.139142 255 255 255
-10.094282 -53.009762 -1.0915539 255 255 255
-9.9554787 -51.094982 -1.0766504 255 255 255
4.890348 -62.811493 -1.1788563 255 255 255
-10.412438 -55.464878 -1.0863056 255 255 255
13.923194 -60.366367 -1.0725968 255 255 255
-0.27290586 -61.999016 -1.1576236 255 255 255
-32.992218 -52.784023 -1.0495877 255 255 255
15.191567 -58.450939 -1.073392 255 255 255
-31.449871 -46.204529 -1.0814464 255 255 255
150.14793 -45.316807 -0.72627777 255 255 255
-16.310961 -56.732903 -1.1111635 255 255 255
473.60858 4.4887409 -0.20116381 255 255 255
19.167015 -59.196682 -1.0858408 255 255 255
-10.748283 -47.717312 -1.0750961 255 255 255
111.62418 -41.690243 -0.71416342 255 255 255
-10.956654 -55.506241 -1.08845 255 255 255
-18.321205 -57.557159 -1.1398257 255 255 255
4.9892488 -59.280067 -1.1025667 255 255 255
182.10484 -41.016048 -0.66332567 255 255 255
-13.221385 -60.325176 -1.0918707 255 255 255
-5.4938216 -55.661808 -1.1368899 255 255 255
1.0066003 -57.315346 -1.0822113 255 255 255
152.31247 -45.486992 -0.72466779 255 255 255
20.123301 -85.922203 -1.578621 255 255 255
-16.087875 -48.257393 -1.0594063 255 255 255
145.68378 -44.925945 -0.72750592 255 255 255
-6.0988426 -58.78157 -1.1060425 255 255 255
-13.928336 -51.098946 -1.1327116 255 255 255
7.2274375 -53.5821 -1.1003696 255 255 255
-11.799603 -51.579803 -1.0758338 255 255 255
212.58769 -51.851143 -0.73866868 255 255 255
-10.105515 -55.536625 -1.0882182 255 255 255
144.40369 -44.798054 -0.72703969 255 255 255
-192.2939 -76.759727 -1.2601073 255 255 255
-16.878473 -54.11433 -1.0729164 255 255 255
154.89728 -45.767742 -0.72689438 255 255 255
-235.0519 -69.807983 -1.3756235 255 255 255
-29.340555 -92.417549 -1.8414028 255 255 255
-13.035252 -61.46936 -1.1244406 255 255 255
-29.077412 -55.410023 -1.0542548 255 255 255
0.41218272 -53.179771 -1.0793197 255 255 255
-4.2841325 -56.596291 -1.0659776 255 255 255
-14.675916 -60.476414 -1.1029752 255 255 255
-11.08475 -89.961472 -1.9746265 255 255 255
-8.3479652 -56.876652 -1.075254 255 255 255
140.93503 -42.33165 -0.83298802 255 255 255
21.859949 -77.825539 -1.451044 255 255 255
666.71045 -3.1307247 -0.44979441 255 255 255
-6.7509847 -54.765179 -1.0798972 255 255 255
-550.79163 -81.022499 -1.5480241 255 255 255
-13.932734 -49.662815 -1.0795348 255 255 255
-15.07655 -59.400574 -1.1231471 255 255 255
-22.409393 -56.364845 -1.0904227 255 255 255
-6.602941 -55.755676 -1.0472524 255 255 255
-0.8359248 -60.013206 -1.0781146 255 255 255
9.7865152 -57.226112 -1.0824921 255 255 255
-7.5941916 -54.088299 -1.1359804 255 255 255
176.81358 -47.820526 -0.72620493 255 255 255
4.1391406 -59.689438 -1.099177 255 255 255
-15.633194 -55.083801 -1.0842509 255 255 255
-13.029271 -60.456749 -1.0961916 255 255 255
-54.22736 -58.062988 -1.2326738 255 255 255
223.1895 -52.229053 -0.72468531 255 255 255
-46.205898 -65.264107 -1.2636733 255 255 255
146.51028 -45.063511 -0.73109037 255 255 255
-551.15784 -112.99207 -2.1188135 255 255 255
4.6309943 -62.287251 -1.119156 255 255 255
-8.2538309 -63.451324 -1.1537086 255 255 255
-16.472782 -55.629154 -1.2703555 255 255 255
121.39762 -42.790936 -0.72871053 255 255 255
-9.3301611 -53.179482 -1.0731577 255 255 255
-24.055582 -54.265995 -1.0892595 255 255 255
-18.792124 -62.634796 -1.1583718 255 255 255
-7.1026754 -66.358803 -1.2142165 255 255 255
-1.6384996 -61.769218 -1.1592537 255 255 255
-13.929399 -60.7523 -1.1092858 255 255 255
-12.666677 -55.114353 -1.0816947 255 255 255
-7.4235973 -48.50993 -1.0877392 255 255 255
-13.056739 -59.920883 -1.0755529 255 255 255
-39.555191 -52.924736 -1.1891289 255 255 255
143.83707 -44.788395 -0.72953182 255 255 255
-12.021077 -64.331772 -1.1909066 255 255 255
3.4061489 -64.956619 -1.1744878 255 255 255
-4.969275 -61.285656 -1.0844846 255 255 255
1.7913179 -62.837273 -1.170673 255 255 255
212.20114 -51.814636 -0.73880637 255 255 255
-8.4489841 -53.040936 -1.1155592 255 255 255
-7.1769009 -55.01733 -1.0802397 255 255 255
21.277649 -63.60334 -1.0715611 255 255 255
-8.9847736 -64.249062 -1.2013432 255 255 255
155.3145 -46.002857 -0.71524096 255 255 255
9.0690489 -61.726418 -1.0989532 255 255 255
