ply
format ascii 1.0
comment PCL generated
element vertex 1111
property float x
property float y
property float z
property uchar red
property uchar green
property uchar blue
element face 0
element camera 0
property float view_px
property float view_py
property float view_pz
property float x_axisx
property float x_axisy
property float x_axisz
property float y_axisx
property float y_axisy
property float y_axisz
property float z_axisx
property float z_axisy
property float z_axisz
property float focal
property float scalex
property float scaley
property float centerx
property float centery
property int viewportx
property int viewporty
property float k1
property float k2
end_header
1945.6239 2953.6431 5.7809815 255 255 255
-535.58026 -401.1665 -1.749267 255 255 255
566.7735 610.95398 1.4827996 255 255 255
750.33032 722.80286 1.7080563 255 255 255
4597.8384 1317.1549 4.6494651 255 255 255
681.1828 1083.4121 1.9883618 255 255 255
-227.92529 -557.08893 -2.0080454 255 255 255
-1059.8684 -1787.2097 -4.3732238 255 255 255
692.02307 1033.2942 1.8791885 255 255 255
963.47241 1561.2402 2.8597867 255 255 255
5218.1626 2121.9758 4.7595401 255 255 255
590.08667 1307.5631 1.9814912 255 255 255
469.32623 313.52869 1.2965928 255 255 255
429.23462 431.92139 1.2229884 255 255 255
1978.0129 613.5556 4.9917631 255 255 255
2022.9769 799.37561 3.1663842 255 255 255
-69137.781 -41376.469 -83.831917 255 255 255
1076.4684 934.74658 3.4894843 255 255 255
1596.9678 1392.3566 3.6765919 255 255 255
563.64233 657.72992 1.5070107 255 255 255
1516.8558 1274.1567 2.5079272 255 255 255
74833.695 109022.59 281.92056 255 255 255
846.61145 1687.3536 2.2740693 255 255 255
2703.7163 583.56317 4.4210544 255 255 255
553.44159 295.63303 0.52926546 255 255 255
-92.045242 -307.27921 -1.545187 255 255 255
1017.3262 548.10602 2.0372255 255 255 255
-5091.5532 -3314.075 -10.937319 255 255 255
-1844.5237 -2445.2878 -9.3081732 255 255 255
666.25616 473.452 1.5576773 255 255 255
803.96832 717.29681 1.761861 255 255 255
731.91644 1176.4324 1.9285417 255 255 255
2128.4475 2274.3215 6.6999593 255 255 255
1506.3417 1302.1746 2.5000877 255 255 255
729.70178 1561.6876 2.1736999 255 255 255
-1116.1656 -1192.4327 -4.1593037 255 255 255
968.09131 561.01361 2.2415607 255 255 255
4338.5386 7771.2729 15.418602 255 255 255
840.73883 1688.0167 2.272974 255 255 255
526.98401 336.50055 1.2217647 255 255 255
2239.012 2239.9031 6.8008122 255 255 255
2064.9175 785.17694 3.2289789 255 255 255
906.47485 632.19452 1.0585551 255 255 255
2234.748 2482.0098 6.0299392 255 255 255
446.82736 348.33163 1.2089956 255 255 255
-3275.707 -4121.73 -11.138647 255 255 255
1049.0867 739.98389 2.0484648 255 255 255
2569.3435 2084.0933 8.9819641 255 255 255
633.90076 733.68219 1.6102508 255 255 255
-636.73297 -852.84198 -2.2973273 255 255 255
3043.6697 2042.8351 3.3746898 255 255 255
575.0567 561.33893 0.6671626 255 255 255
-1955.6965 -851.97601 -3.2063603 255 255 255
294.09949 887.74689 1.5508411 255 255 255
-609.68811 -886.27881 -3.547585 255 255 255
-5948.3223 -12468.728 -26.995642 255 255 255
368.38248 377.81067 0.88835818 255 255 255
-36037.289 -8903.4619 -38.743412 255 255 255
2282.5588 1080.9247 4.7056065 255 255 255
-1031.799 -829.61316 -3.2138095 255 255 255
433.86099 985.36377 1.6814741 255 255 255
-75481.102 -59662.566 -241.13956 255 255 255
-734.95111 -614.9353 -1.9021348 255 255 255
8818.2646 3423.1565 8.8445692 255 255 255
549.91614 422.27295 1.3838573 255 255 255
345.25079 928.85394 1.601679 255 255 255
-30110.422 -17799.215 -67.846558 255 255 255
2228.1838 1018.8919 3.2234902 255 255 255
-4638.792 -8995.2559 -20.298414 255 255 255
782.34668 498.40002 1.7133691 255 255 255
3378.9141 6125.5562 11.374248 255 255 255
1309.2831 1450.0507 3.6035912 255 255 255
8325.6709 9432.6699 29.315195 255 255 255
1630.5454 1050.6669 2.6193178 255 255 255
1844.5112 885.96777 2.9066772 255 255 255
3929.5894 2035.9359 3.7756979 255 255 255
869.66528 1489.8109 2.168231 255 255 255
915.57526 659.95715 2.4428842 255 255 255
735.97437 801.84198 1.7248306 255 255 255
664.63409 928.48889 1.7455748 255 255 255
-893.33929 -643.49121 -2.1985245 255 255 255
982.49646 463.41901 2.0248265 255 255 255
396.5278 386.68506 1.1535596 255 255 255
-6393.3242 -10421.109 -22.748137 255 255 255
762.09106 914.43054 1.7995838 255 255 255
1527.3871 1777.7015 6.3084087 255 255 255
561.58368 577.82489 1.3540747 255 255 255
644.51337 544.24469 1.5392206 255 255 255
755.65314 691.84985 2.2198281 255 255 255
705.03876 704.32733 1.657099 255 255 255
3737.377 1388.6296 4.1177273 255 255 255
8365.6914 4963.9224 9.0793743 255 255 255
2561.217 1178.9136 3.4152031 255 255 255
-9520.8408 -22564.84 -34.358891 255 255 255
-6283.5698 -4018.1904 -20.02153 255 255 255
791.34534 1215.3357 1.9797406 255 255 255
1665.7701 1075.1522 2.6533279 255 255 255
1801.7701 907.71832 2.8497698 255 255 255
-1160.37 -1610.4174 -4.36234 255 255 255
466.31799 1314.3241 1.9647197 255 255 255
372.98715 376.88583 1.1150335 255 255 255
639.54974 625.61554 1.5645494 255 255 255
550.06934 589.94556 1.4552982 255 255 255
-537.12036 -227.26199 -1.6024572 255 255 255
-24064.26 -6667.8242 -70.383995 255 255 255
3016.7117 2121.5271 5.4404392 255 255 255
604.2168 545.77789 1.4961458 255 255 255
88.059647 1122.0634 1.793776 255 255 255
670.87396 499.39496 1.5667661 255 255 255
3706.5999 1757.4368 3.6026552 255 255 255
-4119.3203 -2718.3523 -12.503282 255 255 255
-533.90125 -543.02844 -2.3119378 255 255 255
3097.0034 2300.6992 3.3516624 255 255 255
1763.3749 910.66901 3.8672767 255 255 255
271.63608 1008.3088 1.6726178 255 255 255
174.08969 105.30534 0.30529234 255 255 255
273.19769 686.22412 1.3328123 255 255 255
1648.1421 1018.7063 2.6482131 255 255 255
-775.34943 -377.2276 -1.8897452 255 255 255
777.4715 492.92789 1.7097383 255 255 255
1314.2394 818.69934 2.3333614 255 255 255
-5345.2686 -4401.6528 -8.8764277 255 255 255
634.61792 955.70099 2.8462405 255 255 255
-1478.8171 -1558.853 -4.8492484 255 255 255
515.80341 401.97955 1.330111 255 255 255
-328.64789 -645.79706 -2.5009785 255 255 255
375.68243 354.56183 1.1045387 255 255 255
2982.0095 3807.8984 6.9555488 255 255 255
580.84167 672.77435 1.5280331 255 255 255
-3340.8296 -2508.751 -7.7905302 255 255 255
-685.53766 -615.8194 -2.0699253 255 255 255
540.6366 551.72357 1.4237154 255 255 255
1990.6603 1697.9869 2.8398199 255 255 255
1279.1709 688.7467 1.5625366 255 255 255
11666.359 20764.074 37.745205 255 255 255
758.24371 842.4339 0.93121642 255 255 255
2280.5171 2480.0408 5.7203979 255 255 255
1405.7676 1669.2064 4.2557487 255 255 255
656.51648 744.96466 1.6314558 255 255 255
-1168.0135 -1467.5927 -3.8430007 255 255 255
905.59869 630.87927 2.0651262 255 255 255
785.48682 494.30481 1.7197714 255 255 255
688.09094 784.02026 1.6785078 255 255 255
824.16119 417.67084 1.8040689 255 255 255
-736.24469 -747.67847 -2.4599309 255 255 255
-554.71863 -85.246033 -1.6398897 255 255 255
-1937.7438 -1386.9347 -3.3868287 255 255 255
-785.17859 -197.12019 -1.8509039 255 255 255
-851.67664 -838.19647 -3.5278432 255 255 255
1259.9713 1056.6372 2.4772122 255 255 255
4318.2969 3309.217 5.6946001 255 255 255
4018.6567 1603.1444 4.0863853 255 255 255
-2349.0637 -3950.7817 -10.6463 255 255 255
723.60663 958.96356 1.7957244 255 255 255
612.56372 564.38837 0.77953565 255 255 255
1815.1615 1056.637 2.8017502 255 255 255
-2197.9275 -1012.5705 -3.8207948 255 255 255
852.32233 892.414 2.5332839 255 255 255
562.48303 1131.8849 1.8425972 255 255 255
3051.7173 1992.9637 3.3884723 255 255 255
1513.387 2842.8784 4.914927 255 255 255
755.70691 1057.1633 1.8724613 255 255 255
14346.552 20938.148 62.088863 255 255 255
3273.8435 3998.5198 8.7714167 255 255 255
581.6416 985.87946 1.7456689 255 255 255
791.76764 545.25977 1.7281818 255 255 255
1888.5868 3002.1738 6.2582388 255 255 255
-2202.3984 -1076.2781 -6.0617199 255 255 255
-5960.7202 -6301.438 -22.885853 255 255 255
-1461.3608 -1621.3907 -5.3143907 255 255 255
-2569.5938 -2537.48 -8.2982779 255 255 255
6595.0093 3320.323 16.322721 255 255 255
723.76068 720.73022 1.6821783 255 255 255
433.7522 306.57596 0.44660279 255 255 255
-3461.791 -3035.7944 -9.8654146 255 255 255
9610.9004 7926.0098 32.368244 255 255 255
-577.79547 -488.12149 -2.4489522 255 255 255
-380.11588 -231.67393 -1.4503241 255 255 255
1480.834 1380.2148 4.4583192 255 255 255
704.90637 1073.2771 1.8517497 255 255 255
941.42346 706.92749 2.2688413 255 255 255
-4941.8276 -2884.1321 -17.846779 255 255 255
800.69568 846.71368 0.95193195 255 255 255
6160.9214 1973.3502 14.116832 255 255 255
1010.1432 1056.9922 2.0603218 255 255 255
479.9165 371.21921 0.52180964 255 255 255
834.78564 1076.2008 1.0744761 255 255 255
-11767.723 -19121.863 -49.64238 255 255 255
69.811485 105.59397 0.37184057 255 255 255
1700.2909 603.55133 2.9370346 255 255 255
707.40143 928.19 1.7713901 255 255 255
1028.8645 951.36481 2.5177004 255 255 255
1121.1898 724.2973 2.6490402 255 255 255
4317.6396 2089.6653 3.8594995 255 255 255
-3493.9365 -5959.0352 -13.018402 255 255 255
1356.7821 1468.1926 2.285224 255 255 255
362.45218 380.78345 1.102632 255 255 255
573.36493 1173.011 1.8791009 255 255 255
826.48633 558.91864 1.7723266 255 255 255
-310.35645 -554.77789 -2.1562533 255 255 255
640.64374 1050.6731 2.0566096 255 255 255
1934.1306 1817.6862 5.8888674 255 255 255
348.72171 348.5679 1.0627829 255 255 255
-1780.6862 -3105.5396 -7.764791 255 255 255
3011.5034 1142.2393 3.8321984 255 255 255
2246.2407 1728.4427 2.991169 255 255 255
3056.8235 2001.2471 3.3941889 255 255 255
3908.8291 1322.4402 4.2906756 255 255 255
1892.4458 2704.3953 5.6731453 255 255 255
6523.6826 5709.3691 18.341059 255 255 255
-810.59943 -457.08893 -2.0284302 255 255 255
-1866.1377 -1633.1035 -3.5225708 255 255 255
689.42346 217.33829 1.1118151 255 255 255
677.2934 835.92664 0.85213226 255 255 255
6780.1958 4838.6724 12.654169 255 255 255
-2222.7732 -2352.6223 -7.2026553 255 255 255
589.26733 579.18774 1.4924834 255 255 255
481.19498 278.71854 0.48571557 255 255 255
-5317.4385 -3966.469 -7.6160064 255 255 255
6248.4326 5727.7036 23.9886 255 255 255
3614.3628 2902.4094 10.276382 255 255 255
-2553.4297 -1842.0481 -4.1581588 255 255 255
-92.513145 -134.15619 -1.3262317 255 255 255
-673.50726 -1079.9067 -2.0341361 255 255 255
764.99536 805.33685 1.7523646 255 255 255
208.5813 806.08136 1.4526094 255 255 255
4895.2305 1251.1095 4.8677964 255 255 255
641.83911 778.17749 1.6390325 255 255 255
3539.9673 3397.1045 10.043483 255 255 255
514.83691 229.20857 1.2826793 255 255 255
-1065.8547 -482.68558 -2.2256839 255 255 255
1095.9962 677.14655 2.4913595 255 255 255
451.2128 293.26419 0.45650506 255 255 255
-905.01837 -1132.4769 -3.2602975 255 255 255
1642.8116 1709.9867 2.9853091 255 255 255
727.88733 896.40991 1.7669394 255 255 255
-19746.545 -12237.751 -24.32761 255 255 255
262.18268 609.21216 1.2416545 255 255 255
784.00244 502.13412 1.7173117 255 255 255
14747.171 11053.679 23.354 255 255 255
588.54199 848.04871 1.6495862 255 255 255
1030.9923 547.73627 2.0590107 255 255 255
1958.6786 3132.1184 9.9804535 255 255 255
2046.455 1056.8007 5.2251067 255 255 255
-832.97144 -1388.9878 -4.2094316 255 255 255
-121.12077 -259.82376 -1.4974339 255 255 255
1209.7672 1682.5181 1.6093323 255 255 255
1355.0322 778.4823 2.390882 255 255 255
536.17352 705.49078 1.5121878 255 255 255
717.81323 889.39191 1.7546279 255 255 255
559.35303 808.67194 1.6024071 255 255 255
57763.305 61853.629 193.9478 255 255 255
3905.0247 1583.6531 4.0340743 255 255 255
1321.1134 805.08948 2.343473 255 255 255
136385.55 160511.31 451.1358 255 255 255
770.6748 387.68951 1.7362421 255 255 255
-5846.8018 -3498.9675 -13.080679 255 255 255
3946.0071 1799.3202 3.6489789 255 255 255
3108.3689 1296.8549 2.8260438 255 255 255
511.04605 239.2598 1.3344136 255 255 255
-1185.1345 -1231.1298 -3.8445675 255 255 255
5613.0684 2546.6577 7.8188777 255 255 255
-1118.0898 -443.88855 -2.4011445 255 255 255
30529.396 29157.184 82.988846 255 255 255
616.20221 560.39484 0.73667389 255 255 255
-19549.051 -26018.543 -65.002655 255 255 255
-950.32904 -551.98468 -2.10238 255 255 255
-10487.528 -8654.2207 -30.181484 255 255 255
2533.7915 1316.031 4.3620906 255 255 255
-9224.6689 -17043.619 -34.334747 255 255 255
646.71497 630.75232 1.5746956 255 255 255
267.40738 434.72183 1.0493222 255 255 255
-724.54169 -1604.3085 -4.2018876 255 255 255
565.89294 742.26447 1.5608867 255 255 255
2517.957 4562.7769 9.553834 255 255 255
1676.8196 2174.9729 5.65311 255 255 255
7407.5825 6509.8848 27.027197 255 255 255
-4947.333 -3557.4297 -13.49719 255 255 255
193.72792 296.94937 0.45831403 255 255 255
-614.59338 -629.03619 -1.8004258 255 255 255
894.85492 799.07458 2.3547113 255 255 255
478.84335 451.478 0.54606718 255 255 255
882.18457 936.86646 1.049982 255 255 255
177.80316 495.15186 1.0648602 255 255 255
1236.7504 4593.8828 8.0577345 255 255 255
5699.8936 2077.675 5.523212 255 255 255
1353.0636 778.48773 2.3905408 255 255 255
587.99023 719.52051 1.5636046 255 255 255
-872.10651 -340.66266 -1.9816681 255 255 255
-1530.2278 -1941.3608 -5.4047537 255 255 255
-1005.6649 -746.23596 -2.2387226 255 255 255
659.05621 856.62213 1.6943796 255 255 255
1483.8605 1016.9927 3.1952736 255 255 255
-349.20111 -355.12314 -2.3155396 255 255 255
-1475.3611 -1084.0747 -2.7620103 255 255 255
4108.6523 1525.9137 4.1980205 255 255 255
-790.78699 -360.25668 -1.9113266 255 255 255
2030.1663 1717.4978 2.8661675 255 255 255
-1562.9098 -2904.373 -6.8745437 255 255 255
461.39209 348.10641 0.48175642 255 255 255
271.79956 89.195984 0.76154798 255 255 255
2081.2061 1059.2124 5.9064803 255 255 255
-2897.6326 -2617.8047 -8.5534086 255 255 255
526.94513 633.25964 1.4576389 255 255 255
-407.66135 -287.77679 -2.099978 255 255 255
561.83069 1176.4592 1.8751304 255 255 255
1002.8738 1099.2449 2.0694165 255 255 255
617.76691 479.21671 1.4921225 255 255 255
-124.95681 -203.28374 -1.5026927 255 255 255
677.52478 1473.026 2.1116693 255 255 255
237.6985 698.875 1.3330396 255 255 255
-157.65965 -143.06703 -1.1944475 255 255 255
1794.4556 1484.4979 2.7169211 255 255 255
1034.0044 900.09772 2.7383494 255 255 255
1290.1799 1591.9684 4.4287014 255 255 255
3295.1194 1444.2723 9.6350489 255 255 255
-1289.2859 -1154.6106 -2.6377656 255 255 255
887.16937 587.85028 1.8496844 255 255 255
581.43121 239.06477 0.51944304 255 255 255
573.59003 1231.7539 1.9216483 255 255 255
459.40384 332.3334 0.50638288 255 255 255
778.80188 1185.2343 1.9572183 255 255 255
576.79828 977.39166 1.7389315 255 255 255
308.15442 294.99823 0.78366923 255 255 255
-652.86969 -821.91113 -1.9703571 255 255 255
-716.02295 -744.71881 -2.3688104 255 255 255
-144.90506 -193.48376 -1.7826489 255 255 255
-9974.1729 -5568.7417 -12.640613 255 255 255
691.19916 1201.8483 2.3038049 255 255 255
-469.44336 -688.92877 -1.7765532 255 255 255
1488.0392 1404.8315 2.4989548 255 255 255
394.95291 205.00954 0.36864373 255 255 255
1345.8536 565.32092 3.2355192 255 255 255
17278.4 13972.142 45.708004 255 255 255
-7270.6235 -6962.6177 -14.644648 255 255 255
629.98907 377.04919 0.69551522 255 255 255
36957.344 27713.879 87.133301 255 255 255
-574.23401 -336.57617 -1.6801932 255 255 255
-4922.8486 -6376.5176 -16.119354 255 255 255
684.50873 669.133 1.6231761 255 255 255
-575.38708 -770.08752 -3.330261 255 255 255
803.64764 415.7771 1.7728847 255 255 255
1054.6399 317.70755 1.0791295 255 255 255
-2256.8101 -2759.6755 -7.6193447 255 255 255
992.68994 1237.7533 2.1135187 255 255 255
11238.926 12482.549 34.229282 255 255 255
-406.02963 -512.974 -2.0733287 255 255 255
745.63159 1219.6379 1.960165 255 255 255
695.09863 869.85498 1.7281576 255 255 255
1029.2812 826.77417 2.0290053 255 255 255
1742.3694 1629.3394 4.8325438 255 255 255
692.7583 268.92361 0.75883681 255 255 255
3014.2363 2029.3182 4.1968036 255 255 255
1538.6105 1351.4437 2.5374348 255 255 255
5740.3096 2207.7209 10.412215 255 255 255
789.50659 958.37128 1.1169966 255 255 255
2160.6321 1450.8226 2.9825435 255 255 255
-979.54034 -595.26263 -2.1619973 255 255 255
1245.8176 600.74933 3.1015704 255 255 255
811.61169 654.57111 1.7587332 255 255 255
805.79712 760.48346 1.7792587 255 255 255
1194.0874 1613.9143 2.3696871 255 255 255
-356.80234 -142.0713 -1.4276094 255 255 255
1696.6207 1212.5842 4.7608542 255 255 255
-734.84027 -215.91199 -1.8084723 255 255 255
-83.968506 -294.29492 -1.4999034 255 255 255
-6692.7231 -4315.5508 -19.186602 255 255 255
713.25897 1000.9946 2.5334942 255 255 255
-1817.8279 -1387.2223 -6.3298345 255 255 255
239.22542 237.66975 0.27827212 255 255 255
3699.1504 2738.4966 10.82801 255 255 255
-2363.9585 -1948.762 -6.8325763 255 255 255
-200.84663 -202.75969 -1.2584622 255 255 255
3112.7903 3521.217 8.9486275 255 255 255
22163.971 17697.846 56.505043 255 255 255
-703.00464 -893.5495 -3.0704749 255 255 255
660.38397 1378.9147 2.0424263 255 255 255
-623.59802 -967.29529 -2.5525975 255 255 255
676.17554 488.33051 1.5740181 255 255 255
-439.65097 -905.15869 -3.4353211 255 255 255
2036.4995 2791.9971 6.7300348 255 255 255
3705.6831 1719.0938 3.8362257 255 255 255
-569.75616 -608.6499 -2.3886929 255 255 255
2501.4302 912.49622 3.5791931 255 255 255
-219.46371 -710.672 -2.3651299 255 255 255
1563.5945 4309.1685 6.891242 255 255 255
467.23212 347.66278 0.48905009 255 255 255
-1740.2223 -1636.9614 -3.384341 255 255 255
2741.019 1599.9161 3.3401833 255 255 255
575.59772 659.12268 1.5177507 255 255 255
4103.6538 1554.7041 4.1585464 255 255 255
-824.28503 -544.41547 -1.9678305 255 255 255
1619.8634 2316.9397 6.5200038 255 255 255
-1561.7848 -1092.1603 -3.1265862 255 255 255
365.56396 429.53784 0.45886442 255 255 255
258.77994 328.20563 0.62150067 255 255 255
730.33575 1173.406 1.9262073 255 255 255
756.10327 776.00604 1.7334273 255 255 255
365.05466 529.47986 1.1279122 255 255 255
-157.12143 -396.61533 -1.8325216 255 255 255
694.25311 712.95441 1.6522634 255 255 255
6486.1382 4256.4028 21.355698 255 255 255
1764.5802 1636.9471 2.7026775 255 255 255
1062.7292 930.05896 2.1455407 255 255 255
-1228.2415 -1024.2571 -3.6081424 255 255 255
373.50797 107.39646 0.37436959 255 255 255
5486.7466 3597.4219 10.052674 255 255 255
-372.75391 -846.29785 -2.4087656 255 255 255
502.86438 350.88812 0.50061405 255 255 255
2900.7568 1112.6163 6.3655019 255 255 255
731.35498 909.53699 0.90886766 255 255 255
-437.28323 -950.27246 -2.7135167 255 255 255
406.03723 623.06244 0.94181114 255 255 255
630.78046 932.40552 1.9355761 255 255 255
-3043.7385 -2560.3516 -9.455864 255 255 255
411.22797 795.05786 1.0880635 255 255 255
2579.8628 1775.8363 3.185787 255 255 255
7009.7808 10997.597 25.836145 255 255 255
1294.6309 1161.4125 2.0648949 255 255 255
794.97168 479.99487 0.85821068 255 255 255
607.51904 806.5426 1.4708964 255 255 255
866.27216 756.26337 1.1824054 255 255 255
-13955.947 -44704.332 -95.678925 255 255 255
1665.601 1545.1526 1.8954872 255 255 255
609.86157 1294.9783 1.9739158 255 255 255
-3015.1794 -2084.2437 -7.8283982 255 255 255
12588.195 7929.6118 16.929804 255 255 255
-687.99268 -535.65735 -1.8188641 255 255 255
564.8114 858.46808 1.6395088 255 255 255
686.43823 686.10901 1.633417 255 255 255
1280.0287 2071.6802 3.9290445 255 255 255
688.1748 603.07758 1.6711004 255 255 255
766.24127 805.71033 1.7559043 255 255 255
-786.86176 -575.27106 -1.9492993 255 255 255
-990.79553 -1081.6329 -2.8160679 255 255 255
-6690.6021 -3328.8574 -19.621132 255 255 255
825.46301 559.71198 1.7719015 255 255 255
1369.4908 979.20563 2.0937605 255 255 255
525.50049 345.90207 1.3360934 255 255 255
393.63736 561.75012 1.282468 255 255 255
885.26282 358.27667 0.84401137 255 255 255
4893.1484 2143.9958 4.5815873 255 255 255
-1587.8165 -1779.0562 -5.929018 255 255 255
785.88733 501.8075 1.7197825 255 255 255
-1143.6012 -1201.6576 -3.8042417 255 255 255
-342.15805 -298.41449 -2.8323402 255 255 255
1008.7142 767.5816 2.0009136 255 255 255
1904.6278 3117.9819 6.0014553 255 255 255
-166.05786 -298.84821 -1.6811563 255 255 255
-2921.8457 -3281.8066 -10.166481 255 255 255
3383.1719 4530.2266 11.321025 255 255 255
871.24585 580.00006 1.8294098 255 255 255
-14908.197 -6997.3721 -17.320601 255 255 255
46.149029 501.84653 1.0670432 255 255 255
811.69012 602.22614 1.7542511 255 255 255
34130.047 24895.666 43.652248 255 255 255
1745.3914 2592.2839 5.389586 255 255 255
1413.244 507.3147 2.6464269 255 255 255
3042.2781 1990.0781 3.3779831 255 255 255
203.91934 467.03937 1.0424135 255 255 255
1417.8413 1487.0908 2.46106 255 255 255
367.08182 416.40259 1.1338993 255 255 255
458.34131 1928.568 2.8975494 255 255 255
-29817.941 -17779.547 -86.845566 255 255 255
528.97363 413.08771 1.3507611 255 255 255
828.55164 1650.489 2.2476189 255 255 255
2403.0945 2727.8201 6.466351 255 255 255
529.28375 758.03253 1.7056384 255 255 255
-550.83893 -789.1098 -2.6188898 255 255 255
623.7453 558.84363 1.5236493 255 255 255
-409.14896 -866.64825 -3.007515 255 255 255
1415.7458 2031.5426 2.1374874 255 255 255
1624.3225 2421.0518 9.5424213 255 255 255
3042.9304 2043.3544 3.3742859 255 255 255
-750.73096 -626.21228 -3.0941186 255 255 255
21640.99 27154.33 55.63026 255 255 255
61.889168 1117.2739 1.7993935 255 255 255
-2541.3132 -1307.7301 -4.3758755 255 255 255
104.4195 246.95544 0.66506249 255 255 255
4688.5776 3001.855 14.859604 255 255 255
735.47534 802.80334 1.7250106 255 255 255
-542.69495 -268.0282 -1.5858903 255 255 255
668.36584 501.4534 1.5635259 255 255 255
2927.2268 1786.4828 2.901268 255 255 255
654.36371 529.79968 0.84516037 255 255 255
191.78116 564.66064 1.1577288 255 255 255
4168.5967 2061.6992 3.8367314 255 255 255
667.73285 474.66074 1.5611538 255 255 255
3921.6853 2032.3038 3.7676005 255 255 255
-699.64557 -1096.3234 -2.7816951 255 255 255
1647.204 1018.3675 2.6473289 255 255 255
-2085.1865 -681.65082 -4.3113403 255 255 255
5242.2051 3721.6672 9.8434124 255 255 255
522.6958 484.81854 0.57713795 255 255 255
706.927 927.38104 1.7705336 255 255 255
4088.5581 547.30627 4.3712845 255 255 255
917.0155 1258.238 1.2531861 255 255 255
278.0285 375.48923 0.58581924 255 255 255
655.1405 1067.9934 1.8315463 255 255 255
-1796.2074 -1584.7052 -4.7795458 255 255 255
440.9624 342.15582 0.46822816 255 255 255
437.51987 317.66098 0.46478963 255 255 255
1325.264 807.987 2.3507497 255 255 255
1650.0159 2870.9604 6.1919689 255 255 255
819.20477 1312.0795 2.2377272 255 255 255
5014.4204 2347.1472 4.645977 255 255 255
-358.60611 -230.36226 -1.4285827 255 255 255
-9860.9766 -6785.9292 -12.732581 255 255 255
428.75497 313.35455 1.1680828 255 255 255
976.26868 902.83331 1.9272313 255 255 255
-3921.074 -1799.411 -6.4995756 255 255 255
537.8504 184.08488 0.72440594 255 255 255
-2236.2927 -2198.6782 -6.5146012 255 255 255
3782.7537 2324.0854 3.6131415 255 255 255
3734.7588 1387.5013 4.1160517 255 255 255
5943.0967 4395.8521 11.135677 255 255 255
985.61041 568.23486 2.0377259 255 255 255
-2236.2502 -3082.9182 -7.4938927 255 255 255
773.59174 754.58356 2.2144217 255 255 255
-1323.1248 -2087.9841 -4.6844749 255 255 255
574.45245 770.97754 1.585831 255 255 255
844.07837 420.06116 1.8325052 255 255 255
479.08075 359.50504 0.49639067 255 255 255
-828.40143 -378.85666 -1.9986629 255 255 255
1185.1322 744.92981 2.1348147 255 255 255
573.67548 1165.3119 1.8705679 255 255 255
-390.89584 -243.42815 -1.4421957 255 255 255
3783.2246 2320.0754 3.6077826 255 255 255
539.76807 551.30646 1.421101 255 255 255
-87.643066 -266.93829 -1.4571645 255 255 255
535.69055 533.07782 1.4089098 255 255 255
2940.0869 3897.125 9.1254978 255 255 255
-112.72482 -164.64532 -1.322111 255 255 255
3748.9512 2664.3918 10.496544 255 255 255
851.15997 1677.6465 2.271028 255 255 255
671.37329 834.01428 1.6202246 255 255 255
-646.61206 -392.3269 -1.8623457 255 255 255
4051.6206 3603.9985 11.393722 255 255 255
445.28903 467.77466 0.73284817 255 255 255
-1209.4734 -818.90289 -2.4715841 255 255 255
2229.7742 1019.9694 3.2255504 255 255 255
953.29553 650.81598 2.2195592 255 255 255
632.39093 486.57272 1.5131283 255 255 255
549.76019 589.06445 1.4531451 255 255 255
475.50125 363.12689 0.49603656 255 255 255
176.28281 562.04913 1.1498739 255 255 255
2903.9863 1903.9674 3.1922941 255 255 255
1590.2941 1011.5052 1.6290529 255 255 255
10391.621 9690.0928 25.999969 255 255 255
-648.43524 -492.09625 -1.7966409 255 255 255
559.07599 779.19617 1.5801346 255 255 255
1416.7792 1420.5858 4.0065656 255 255 255
3054.7451 4631.3164 10.492013 255 255 255
580.68231 673.56104 1.5288914 255 255 255
574.31311 1408.7191 2.0478756 255 255 255
463.5105 393.56396 0.50301093 255 255 255
583.57068 519.18231 0.64690578 255 255 255
1027.8724 546.53442 2.0525053 255 255 255
381.87238 413.67352 1.150812 255 255 255
33485.109 48701.262 71.411469 255 255 255
267.74158 1009.3796 1.6734176 255 255 255
807.87415 764.85443 1.661199 255 255 255
523.28369 592.62408 1.4280725 255 255 255
-2904.0842 -2140.0864 -6.5891013 255 255 255
897.50714 515.75592 1.8726978 255 255 255
434.06049 932.53864 1.6312513 255 255 255
658.9502 810.21631 1.6694658 255 255 255
566.31879 784.58081 1.5903908 255 255 255
645.47919 1007.9331 1.7876071 255 255 255
32792.152 47416.34 69.645393 255 255 255
717.48175 985.48706 1.410998 255 255 255
2017.5104 1768.6123 2.8570015 255 255 255
429.98236 318.58096 0.44434127 255 255 255
599.05438 827.35315 1.6412225 255 255 255
725.96887 894.23077 1.7610323 255 255 255
440.87756 318.56897 1.1888891 255 255 255
685.35248 1085.605 0.96995455 255 255 255
4354.1992 1160.384 4.7432942 255 255 255
1423.7202 1503.2725 2.4722202 255 255 255
2713.0032 2131.959 6.5161462 255 255 255
-1134.3376 -660.6076 -2.3883371 255 255 255
-1315.7776 -2416.5081 -5.1464815 255 255 255
-1044.3455 -998.59296 -3.1680031 255 255 255
1997.8549 1804.5748 2.8463416 255 255 255
3082.3989 1391.7456 2.933373 255 255 255
1544.9829 1321.9004 2.5785377 255 255 255
650.54279 623.91321 1.9500694 255 255 255
601.20227 543.14532 1.4882011 255 255 255
782.92096 179.93887 1.8309056 255 255 255
-2716.7983 -1392.8792 -5.9533682 255 255 255
-595.20398 -451.55597 -1.6832749 255 255 255
-770.17297 -214.1743 -1.8474542 255 255 255
755.55334 1058.0757 1.8737776 255 255 255
-3057.115 -3937.428 -15.056962 255 255 255
868.03564 691.92316 1.8325592 255 255 255
561.03033 1128.9357 1.8369778 255 255 255
87.918678 1122.4406 1.7940495 255 255 255
320.62906 169.78419 0.29881001 255 255 255
6516.8696 7742.1426 19.523535 255 255 255
-676.62836 -468.22119 -2.1374679 255 255 255
344.52615 165.4099 0.53851622 255 255 255
7153.7046 3561.9138 6.9786763 255 255 255
1566.0947 917.48779 4.5615983 255 255 255
272.79001 685.65375 1.3313547 255 255 255
711.92273 1016.2675 1.8223915 255 255 255
2250.6282 1731.5293 2.992141 255 255 255
-533.09045 -253.98888 -1.5730946 255 255 255
-1291.1387 -1155.2506 -2.6403613 255 255 255
-1357.2034 -864.1275 -2.6991174 255 255 255
518.75531 1675.5587 2.2507906 255 255 255
470.02325 1551.8121 2.155339 255 255 255
668.84656 938.33911 1.7543734 255 255 255
-1373.2113 -2268.6064 -5.2437763 255 255 255
3938.1753 2601.9841 10.289863 255 255 255
288.172 385.83493 1.0169699 255 255 255
-1298.9154 -1014.3661 -3.5191917 255 255 255
4055.5308 2860.6492 8.9845657 255 255 255
-1008.5465 -420.99048 -2.129662 255 255 255
616.82935 772.63147 0.85028517 255 255 255
851.815 373.17267 1.8031458 255 255 255
1389.1754 1336.1934 2.2706294 255 255 255
-1541.9614 -644.52948 -4.0686426 255 255 255
1320.0796 1590.2501 2.9037592 255 255 255
-1180.7087 -742.61298 -4.000711 255 255 255
675.19855 487.66803 1.5712454 255 255 255
573.9068 534.33752 0.73202664 255 255 255
756.94147 1229.5468 1.9720762 255 255 255
-444.29416 -796.82104 -2.6249995 255 255 255
607.38116 1090.3589 1.8287597 255 255 255
775.27502 863.90399 1.7864722 255 255 255
1764.4532 1637.152 2.7030692 255 255 255
676.19104 1040.178 1.8199325 255 255 255
761.82239 914.51282 1.7985685 255 255 255
1123.8229 1100.442 3.0481007 255 255 255
5852.3369 4244.7422 10.818405 255 255 255
831.4505 277.38934 0.94388437 255 255 255
-564.49188 -785.82526 -2.1297126 255 255 255
1307.8331 877.18658 1.6508503 255 255 255
701.52466 1001.2994 1.808352 255 255 255
2161.3955 1846.0735 2.9294174 255 255 255
574.09595 352.1235 0.82575178 255 255 255
240.17693 412.61526 1.0018622 255 255 255
2727.0759 2189.373 3.2047176 255 255 255
1843.9436 1172.2185 2.6989334 255 255 255
1342.2987 330.56543 1.5176873 255 255 255
1014.7274 1258.5029 3.4836342 255 255 255
659.1601 1069.3462 1.8389192 255 255 255
632.04773 1056.8369 1.8160003 255 255 255
5111.2783 3051.2703 7.7006063 255 255 255
685.12726 884.2738 1.7276152 255 255 255
547.04224 570.50378 1.4412497 255 255 255
434.22626 423.12158 1.225011 255 255 255
758.25256 810.78296 1.7498024 255 255 255
-255.61166 -272.33194 -1.5096453 255 255 255
2915.6538 1839.1101 3.3588467 255 255 255
3835.6155 1889.6086 3.4141929 255 255 255
-1447.9578 -961.20636 -4.0069289 255 255 255
763.74146 1324.0374 2.0294628 255 255 255
688.27716 938.70117 1.0734957 255 255 255
432.54547 982.18604 1.6748853 255 255 255
422.12634 398.6174 1.4621546 255 255 255
430.53815 433.60364 1.2266898 255 255 255
1540.7737 1038.1552 4.1197762 255 255 255
-768.35315 -900.41107 -2.4764869 255 255 255
-8309.1748 -13547.323 -33.215496 255 255 255
-315.37692 -329.65189 -1.4352305 255 255 255
424.62564 420.42606 1.2091753 255 255 255
4121.8545 575.32068 4.3930163 255 255 255
2490.7993 909.57056 3.5738671 255 255 255
999.83246 1865.6943 3.5739152 255 255 255
788.8736 1212.6709 1.9750845 255 255 255
-679.99237 -782.67419 -1.8890061 255 255 255
-561.26544 -1686.733 -4.0211916 255 255 255
1977.4482 1294.7307 4.8724904 255 255 255
-2338.5359 -1762.5394 -6.2083621 255 255 255
525.94965 482.03345 1.3695918 255 255 255
835.02496 564.84564 1.7805799 255 255 255
1405.0352 1277.2513 4.9300408 255 255 255
-1076.8246 -504.10114 -2.2416761 255 255 255
3708.4854 1719.6244 3.8394277 255 255 255
263.79605 214.82275 0.30969936 255 255 255
1192.8479 1611.2307 2.367224 255 255 255
621.61792 973.13885 1.7508843 255 255 255
-423.93918 -586.45776 -2.5124152 255 255 255
1651.5193 2174.6238 4.4541802 255 255 255
2477.0215 1681.4294 2.3710246 255 255 255
-820.26465 -463.55496 -2.5720434 255 255 255
-528.633 -475.53198 -1.817392 255 255 255
-1147.0812 -1070.8273 -3.5247126 255 255 255
2865.4456 2108.6135 3.2248869 255 255 255
695.84436 968.96411 2.0445914 255 255 255
20751.531 19391.684 69.505264 255 255 255
12632.129 6110.4404 21.673435 255 255 255
566.23438 742.45709 1.560798 255 255 255
2232.7888 5178.915 9.8362217 255 255 255
741.6557 563.64423 1.6621474 255 255 255
461.7897 392.21689 1.2434492 255 255 255
-1911.9457 -1183.7402 -5.9811859 255 255 255
-2843.7383 -1981.5004 -4.9375467 255 255 255
272.73849 792.65765 1.444452 255 255 255
-1697.2655 -3510.5115 -7.075017 255 255 255
1895.0367 1300.9113 2.8081977 255 255 255
694.01556 583.91394 1.6072888 255 255 255
248.85489 189.12444 0.79585314 255 255 255
-123.2944 -81.967461 -1.1637782 255 255 255
3934.1523 3931.783 10.205053 255 255 255
-2491.447 -2642.5881 -4.8112888 255 255 255
551.89429 993.97717 1.7350355 255 255 255
4314.6924 1907.9041 3.9634511 255 255 255
2120.4155 939.92133 3.130969 255 255 255
2375.6797 3039.7136 5.5007958 255 255 255
3099.1265 2303.9866 3.3557334 255 255 255
-159.11528 -142.655 -1.1962978 255 255 255
4713.1479 2533.8369 13.15551 255 255 255
793.98077 933.81451 2.2389972 255 255 255
3120.2202 2301.5896 3.3634357 255 255 255
1682.9486 1376.5305 2.8449183 255 255 255
546.88031 517.65686 0.66376406 255 255 255
797.51758 553.99927 1.7352997 255 255 255
341.31479 865.41064 1.5369337 255 255 255
1995.4312 1189.3901 2.9245505 255 255 255
763.75458 542.46265 0.80310774 255 255 255
-5109.6743 -1891.8788 -12.83633 255 255 255
-4519.0259 -3346.4236 -10.224451 255 255 255
1088.8456 1158.5109 1.4235817 255 255 255
2025.8037 1800.6534 6.3030148 255 255 255
11371.844 19146.219 36.773643 255 255 255
-595.39368 -208.81281 -1.6437573 255 255 255
-599.65942 -199.28482 -1.6470866 255 255 255
-310.45477 -651.25208 -2.856606 255 255 255
8194.959 25579.635 47.375 255 255 255
780.92133 968.33301 0.98242295 255 255 255
884530.69 754919.31 3048.3357 255 255 255
12832.814 10512.299 17.20562 255 255 255
-2120.0388 -2345.1821 -6.3261876 255 255 255
481.59134 421.0018 0.53611618 255 255 255
1355.1843 1470.0815 3.477464 255 255 255
1131.2069 882.11407 3.3922534 255 255 255
-12796.984 -15009.304 -44.911835 255 255 255
-941.646 -1912.4049 -3.8348839 255 255 255
-829.38544 -1081.4413 -3.4020572 255 255 255
665.95746 368.89365 1.1734605 255 255 255
708.4942 768.37347 1.6863884 255 255 255
414.81039 593.18658 1.5692813 255 255 255
2564.7012 3273.303 8.8455725 255 255 255
1631.2484 1051.5398 2.6214693 255 255 255
-1393.6252 -915.09302 -4.2550797 255 255 255
2107.9016 968.55396 3.2337887 255 255 255
677.05164 1472.0685 2.1095014 255 255 255
647.91559 706.05414 1.6054124 255 255 255
501.53381 1329.0601 1.9792637 255 255 255
-623.1452 -426.83887 -1.7588067 255 255 255
204.52524 350.12463 0.89517415 255 255 255
-388.96472 -170.01859 -1.4417459 255 255 255
1745.5375 1869.3274 2.7271285 255 255 255
594.96838 1547.1869 2.1514447 255 255 255
-1430.1926 -1216.3079 -2.8150828 255 255 255
-1459.3867 -3799.7056 -8.9128819 255 255 255
-301.23312 -347.13071 -2.0252926 255 255 255
167.9248 1502.7708 2.1446254 255 255 255
-11759.234 -11259.299 -44.917351 255 255 255
1758.9163 1634.642 2.6996105 255 255 255
495.02225 395.0137 1.1753081 255 255 255
10101.077 12450.105 32.23967 255 255 255
-12783.749 -18065.951 -51.146511 255 255 255
876.67865 1018.8901 2.686506 255 255 255
-124.53163 -202.80344 -1.5013344 255 255 255
581.34894 883.35016 1.6687087 255 255 255
704.10138 862.19452 0.89025164 255 255 255
-5098.5957 -8272.124 -19.558115 255 255 255
80.483589 660.61267 1.2808387 255 255 255
-1250.3997 -917.00928 -2.9186347 255 255 255
624.55737 1037.0929 1.7975779 255 255 255
400.8674 905.59406 1.5976321 255 255 255
-872.45776 -1594.6884 -4.6733212 255 255 255
5386.3579 5370.4751 18.065071 255 255 255
781.38336 677.13593 1.7272794 255 255 255
-11847.143 -51254.918 -79.574921 255 255 255
480.97745 547.77771 1.3561014 255 255 255
725.81061 1314.578 2.0117533 255 255 255
-659.12354 -703.07385 -2.0496392 255 255 255
2483.1555 3067.3167 7.3443608 255 255 255
596.51819 336.59558 0.58204305 255 255 255
1079.282 908.92987 2.2025526 255 255 255
10959.166 10490.011 31.948818 255 255 255
-651.23761 -249.25462 -1.7258127 255 255 255
1275.08 600.60999 3.4154992 255 255 255
214.64294 371.54578 0.75239706 255 255 255
-563.86938 -581.98224 -2.2295589 255 255 255
867.93707 2012.0294 4.7029796 255 255 255
4728.6587 2857.8242 7.1240659 255 255 255
521.85748 478.64291 0.65412813 255 255 255
1123.3284 1237.9518 1.6674163 255 255 255
1639.7628 1609.8182 4.5798712 255 255 255
-689.0141 -1618.8219 -3.6527271 255 255 255
859.45538 309.26346 2.8327885 255 255 255
-3290.0881 -834.16119 -5.3739848 255 255 255
3628.5947 2358.2444 9.4474039 255 255 255
-305.66147 -326.75879 -1.3997802 255 255 255
-1449.7926 -1020.8467 -2.7755857 255 255 255
-1273.0265 -1224.7305 -3.4319074 255 255 255
569.7442 1165.0719 1.8666934 255 255 255
236.21092 435.76767 1.0230316 255 255 255
686.59967 886.66052 1.7326196 255 255 255
630.16534 644.94171 0.73765188 255 255 255
467.88077 436.51315 0.94798082 255 255 255
-890.89148 -586.43951 -2.0915012 255 255 255
850.53003 851.20654 1.676484 255 255 255
666.29907 474.27496 1.5593182 255 255 255
778.20721 812.15204 1.7688497 255 255 255
767.59454 813.87671 1.7576414 255 255 255
-651.86194 -1128.3817 -2.7380939 255 255 255
6175.1318 2623.1592 5.7724133 255 255 255
683.56598 1377.3563 2.0444708 255 255 255
-2042.4779 -1514.4095 -8.0750284 255 255 255
6154.8975 2043.5452 5.9972887 255 255 255
731.19092 1563.1064 2.1757782 255 255 255
583.4635 894.92426 1.678251 255 255 255
831.64783 865.81171 0.98086506 255 255 255
2301.2981 1704.8622 6.706213 255 255 255
338.86502 860.72223 1.5315809 255 255 255
-720.20099 -890.07843 -2.8684747 255 255 255
515.75244 572.02124 1.4098969 255 255 255
-634.06213 -917.05206 -3.6140296 255 255 255
462.89191 355.86115 0.48879573 255 255 255
-2380.5591 -3769.1821 -8.0289488 255 255 255
2036.5741 964.07776 3.0598798 255 255 255
-4194.4795 -9914.0918 -19.241154 255 255 255
-645.94531 -619.85541 -2.5530567 255 255 255
1358.4037 769.97858 2.3965571 255 255 255
-1534.6212 -940.19672 -2.78315 255 255 255
-672.21954 -479.40195 -1.9052961 255 255 255
-319.8472 -335.8208 -1.4566182 255 255 255
461.32599 614.58063 1.3861861 255 255 255
3236.6821 1298.8134 3.8713768 255 255 255
2959.3711 2957.4148 7.5973558 255 255 255
-1756.5752 -1448.3961 -3.1483524 255 255 255
626.04974 343.10443 1.5077877 255 255 255
69.494919 104.70733 0.36948755 255 255 255
1141.1675 1098.6591 1.2977158 255 255 255
1893.2919 1300.45 2.8071578 255 255 255
530.83545 414.41824 1.3570372 255 255 255
1705.1519 604.04089 2.9468405 255 255 255
767.67938 553.98114 1.6929672 255 255 255
600.24725 727.42676 1.5803748 255 255 255
975.92633 1089.5007 3.8244445 255 255 255
424.1665 419.80072 1.2078831 255 255 255
1836.4891 2033.6339 5.8949275 255 255 255
-436.48456 -1011.4769 -3.8624029 255 255 255
331.86935 515.14545 1.0335838 255 255 255
558.76709 844.34338 1.5447555 255 255 255
-1398.1674 -1774.4117 -6.1598206 255 255 255
-15510.81 -10004.862 -39.619381 255 255 255
360.69687 244.63008 0.37357804 255 255 255
-592.5025 -590.92761 -1.7510537 255 255 255
-4627.4556 -10254.217 -19.497084 255 255 255
630.53534 663.42554 1.5718796 255 255 255
424.76895 730.34674 1.4498558 255 255 255
616.1676 652.49841 1.5436395 255 255 255
-2939.2395 -2743.5205 -10.271352 255 255 255
-622.82092 -268.88489 -1.7033108 255 255 255
631.54346 1055.0266 1.8140066 255 255 255
666.75562 459.28827 1.0062966 255 255 255
1657.309 1843.86 2.0308061 255 255 255
625.53943 576.77509 1.5281682 255 255 255
-649.46729 -162.56985 -1.7106973 255 255 255
241.03082 401.84503 0.98841345 255 255 255
272.77716 685.5625 1.3313123 255 255 255
1035.1622 1241.0276 2.8672438 255 255 255
7069.6592 8948.7012 31.129486 255 255 255
-2083.0894 -1985.6279 -5.8300805 255 255 255
4271.0469 772.10852 4.640336 255 255 255
-1714.4613 -1922.6594 -5.6573834 255 255 255
-3086.5891 -2565.1531 -13.802813 255 255 255
1592.8225 1949.8113 4.5705085 255 255 255
-131.429 -361.21875 -1.6900831 255 255 255
-1031.7175 -697.8136 -2.4746878 255 255 255
617.97711 696.01978 1.3822905 255 255 255
1993.158 1799.9802 2.8396103 255 255 255
521.79492 553.43109 0.85401291 255 255 255
573.40686 1408.1213 2.0475125 255 255 255
560.04956 779.46777 1.5817314 255 255 255
598.97791 935.08142 1.7129003 255 255 255
692.28729 581.99274 1.6026009 255 255 255
3732.4702 1386.7397 4.1129394 255 255 255
1789.1534 537.11426 1.9916298 255 255 255
7722.9194 9805.4111 25.945032 255 255 255
254.4929 785.96722 1.4363118 255 255 255
1321.9596 804.89227 2.3445172 255 255 255
225.29349 780.46497 1.424776 255 255 255
-212.47998 -246.53525 -1.2828164 255 255 255
-1654.8005 -1980.3196 -3.1419265 255 255 255
677.2113 616.13153 1.3874147 255 255 255
637.81525 736.77319 1.6125951 255 255 255
1793.9542 1482.7616 2.7124865 255 255 255
-929.26013 -1242.8708 -3.6340511 255 255 255
327.97 799.50879 1.468408 255 255 255
-872.85291 -717.17603 -2.665767 255 255 255
3040.1055 1714.0237 3.478323 255 255 255
606.4809 599.34656 1.5159317 255 255 255
375.61731 378.52487 1.1203252 255 255 255
1416.2383 1485.4445 2.4593997 255 255 255
3564.3984 4714.5186 8.4531355 255 255 255
574.4281 678.9245 1.5254357 255 255 255
1994.4578 2650.0303 6.0155563 255 255 255
2736.5615 1596.2913 3.3343506 255 255 255
605.37439 564.44 0.76990211 255 255 255
576.64191 886.89746 1.668151 255 255 255
520.72736 1120.1146 1.4208997 255 255 255
1816.1302 1121.5486 2.6488912 255 255 255
707.56305 786.44574 1.6951275 255 255 255
520.91425 322.24631 1.1114581 255 255 255
-778.72223 -655.72009 -1.958033 255 255 255
401.7876 347.85803 0.43600851 255 255 255
705.01007 924.92542 1.7635484 255 255 255
525.58649 632.0423 1.4541309 255 255 255
156.85022 208.60541 0.65978378 255 255 255
419.88431 581.91113 1.3190945 255 255 255
-749.04596 -402.65775 -1.8475401 255 255 255
-885.4325 -717.20056 -2.115561 255 255 255
-2121.9133 -2421.6011 -6.1490483 255 255 255
480.00305 523.00995 1.0576899 255 255 255
611.3905 503.31 1.4914359 255 255 255
666.89172 805.92517 2.0607183 255 255 255
595.20514 579.08105 1.4966186 255 255 255
2789.4539 2092.9746 7.9655781 255 255 255
602.5127 544.48816 1.4925547 255 255 255
-550.29749 -165.09119 -1.6233119 255 255 255
-1432.993 -1588.5864 -4.9688296 255 255 255
383.974 277.56271 0.40630528 255 255 255
4309.1025 1906.168 3.9574194 255 255 255
-203.14761 -162.26952 -1.7809572 255 255 255
-342.87979 -716.00275 -2.7876649 255 255 255
561.64319 1129.33 1.8391367 255 255 255
566.56042 464.81351 0.62315261 255 255 255
508.48004 488.86261 0.56593525 255 255 255
3731.6489 4014.7009 11.442089 255 255 255
477.36655 689.00061 1.4562914 255 255 255
596.40527 481.22101 0.76836586 255 255 255
4632.0391 1746.7314 4.2077847 255 255 255
-1071.33 -865.35754 -4.3401437 255 255 255
800.68781 461.40091 0.92706656 255 255 255
3847.418 3840.6084 11.758677 255 255 255
703.83173 1072.2104 1.8499641 255 255 255
-2748.1716 -3048.1099 -8.1699038 255 255 255
85.621445 1114.2876 1.7810652 255 255 255
-705.28772 -533.01562 -1.9275116 255 255 255
1192.7704 1610.2642 2.3661582 255 255 255
-1137.1848 -2499.9023 -6.6568055 255 255 255
1171.2418 1202.752 2.604342 255 255 255
-14919.001 -14852.949 -41.878719 255 255 255
9480.5684 8830.9629 31.929651 255 255 255
-2200.6018 -1943.0093 -3.6962323 255 255 255
716.02643 881.24554 1.7475976 255 255 255
858.03815 598.97479 2.3276658 255 255 255
-1014.2924 -878.60284 -2.2509546 255 255 255
644.04974 1005.1361 1.7828137 255 255 255
5366.5703 1993.2614 6.6833453 255 255 255
791.08453 544.7569 1.7273771 255 255 255
-2717.5217 -6465.0605 -12.15983 255 255 255
75.346024 1130.3169 1.8080773 255 255 255
7604.1875 5727.8491 14.418011 255 255 255
-574.39703 -774.24255 -1.9352061 255 255 255
1006.2499 1810.1986 3.3370712 255 255 255
105.23067 109.61357 0.43622276 255 255 255
1733.478 1859.1676 2.7126882 255 255 255
2036.026 875.24725 2.3455389 255 255 255
-1459.6125 -836.80902 -4.3898387 255 255 255
113.49518 195.32619 0.36135489 255 255 255
2213.5742 1623.288 2.8347068 255 255 255
572.84143 1230.858 1.9211506 255 255 255
686.00262 1015.4116 0.97239035 255 255 255
51.879265 158.95271 0.4659248 255 255 255
881.31689 703.13556 1.0363094 255 255 255
1251.0635 1603.0186 4.1725659 255 255 255
1793.006 5205.9834 8.8120861 255 255 255
-3738.6943 -2484.8879 -11.176234 255 255 255
1031.6215 568.22766 2.0532522 255 255 255
-812.9104 -980.36377 -3.0089343 255 255 255
-1252.467 -1563.9846 -6.6405263 255 255 255
4886.2549 1570.136 4.433187 255 255 255
442.23364 283.67459 0.43222812 255 255 255
10378.938 26688.322 47.34737 255 255 255
3275.5266 2590.8083 4.2782292 255 255 255
2851.9077 2881.3003 8.7769575 255 255 255
4138.7446 1447.1493 5.610673 255 255 255
-1807.5642 -318.84412 -6.4348035 255 255 255
950.99713 625.36841 1.0553318 255 255 255
-927.49384 -754.19275 -2.8981161 255 255 255
-1773.6188 -1366.5977 -5.2350311 255 255 255
2730.1042 1594.1163 3.3323021 255 255 255
-828.70746 -854.11279 -3.0598917 255 255 255
-2485.7532 -1360.9233 -3.8290904 255 255 255
-550.96075 -434.4491 -2.6322837 255 255 255
149.80923 118.03047 0.53593683 255 255 255
234.04948 733.45001 1.3739486 255 255 255
675.06854 487.49115 1.5716366 255 255 255
953.67487 1039.9366 2.5880084 255 255 255
1983.5857 1185.556 2.91365 255 255 255
638.99457 314.11603 0.70416456 255 255 255
3815.8042 1689.3083 3.9070444 255 255 255
656.95435 808.37628 1.6653881 255 255 255
73.819481 498.96777 1.0566175 255 255 255
-836.07495 -1080.7379 -2.7475309 255 255 255
-1431.9896 -745.41125 -3.6087558 255 255 255
349.67075 353.79599 1.0660158 255 255 255
3108.418 2293.6597 3.3521388 255 255 255
-1185.7413 -704.39923 -2.3797693 255 255 255
1450.5787 2943.7014 5.3580294 255 255 255
437.93387 185.36723 0.43413785 255 255 255
1078.619 1366.7247 1.6867205 255 255 255
3577.0857 2005.8491 3.5379152 255 255 255
3055.7805 1995.4761 3.3942661 255 255 255
789.9447 563.12384 1.7196528 255 255 255
522.71893 479.44626 1.3618928 255 255 255
614.59863 476.49759 1.4867904 255 255 255
-556.60272 -115.28712 -1.5893798 255 255 255
376.4801 345.70139 1.0985173 255 255 255
835.22723 565.25214 1.7807834 255 255 255
78.534386 85.179588 0.34396076 255 255 255
630.01404 648.49341 1.6553885 255 255 255
2236.8521 1020.5927 3.2274411 255 255 255
1012.925 924.18146 1.9919099 255 255 255
736.7135 1179.3917 1.9329773 255 255 255
-940.26086 -867.94495 -3.4298372 255 255 255
-13373.378 -1612.9449 -15.168646 255 255 255
3840.9062 2234.418 3.6708381 255 255 255
4118.2773 575.02124 4.3882709 255 255 255
257.12167 204.97612 0.28113872 255 255 255
6045.8525 3014.9497 5.6842155 255 255 255
648.05731 720.33972 1.6548015 255 255 255
3409.1038 5300.5703 12.914291 255 255 255
662.59174 355.51526 0.7249096 255 255 255
451.45978 574.3067 1.3445836 255 255 255
648.97565 625.42938 1.5727909 255 255 255
-2083.572 -1814.0516 -5.3101544 255 255 255
79.2789 78.881912 0.25344062 255 255 255
407.72284 1025.7568 1.7049912 255 255 255
827.43445 1648.9911 2.2449212 255 255 255
1280.4867 825.60944 1.4624877 255 255 255
2426.2791 1375.8201 4.1815948 255 255 255
491.41849 283.02704 0.4807879 255 255 255
756.38824 1228.8468 1.9709859 255 255 255
624.85199 1036.6328 1.7975992 255 255 255
782.75952 676.40228 1.7317882 255 255 255
644.79083 543.80261 1.5405575 255 255 255
697.11084 1000.4589 1.8034002 255 255 255
442.72919 319.6149 0.4702825 255 255 255
339.1131 285.72171 1.008286 255 255 255
75522.484 90691.555 229.51851 255 255 255
5062.6289 2076.4595 4.6997981 255 255 255
1011.9666 770.03571 2.0068259 255 255 255
634.79974 604.61047 1.5517514 255 255 255
5939.3682 3212.0122 6.9539309 255 255 255
795.43481 1083.8451 1.8034235 255 255 255
-23129.807 -36888.984 -84.408752 255 255 255
1580.3822 1157.0421 4.5722003 255 255 255
671.65906 499.3266 1.5672326 255 255 255
2258.9041 1509.6736 6.5253358 255 255 255
687.7785 752.25171 1.6619748 255 255 255
-166.81996 -105.36745 -1.1937641 255 255 255
1419.614 1503.9784 2.4653811 255 255 255
1765.7513 1637.1733 2.7052145 255 255 255
1307.0414 1285.649 3.7420866 255 255 255
-17238.611 -29327.119 -61.820847 255 255 255
-2227.1614 -3280.6008 -7.9117117 255 255 255
2185.9934 920.68628 3.2439859 255 255 255
1050.3856 2165.0933 4.7341146 255 255 255
599.36536 608.82428 1.5167072 255 255 255
931.50177 1000.3192 2.1408372 255 255 255
-568.32568 -225.2287 -1.6170641 255 255 255
584.67633 532.41235 1.1086805 255 255 255
1372.4653 96.951607 1.5356362 255 255 255
-965.35004 -669.24738 -2.2091613 255 255 255
687.72565 719.474 1.6503597 255 255 255
-829.06464 -662.25543 -2.7765102 255 255 255
2438.8171 2127.8662 3.0786321 255 255 255
568.07904 1144.2775 1.8545285 255 255 255
49639.203 85175.547 174.35472 255 255 255
5750.4702 2561.6411 5.4296546 255 255 255
1820.0795 3209.3767 5.7847571 255 255 255
827.31744 1141.7942 2.0420544 255 255 255
781.56061 677.18677 1.7285761 255 255 255
46107.074 104327.58 212.39485 255 255 255
4178.8359 2275.7012 3.7299213 255 255 255
-2047.8411 -1387.2969 -3.3401475 255 255 255
723.68994 686.67383 1.6682833 255 255 255
-1427.825 -2165.8511 -6.7217183 255 255 255
-1149.6364 -1333.8359 -4.0167193 255 255 255
3987.3477 396.82388 4.1800818 255 255 255
777.72675 536.17639 1.7096577 255 255 255
-2056.9348 -3364.5276 -7.5015073 255 255 255
724.45972 1065.2047 1.8564627 255 255 255
2549.519 1430.3777 7.0182052 255 255 255
-4253.3091 -5122.5225 -8.3212175 255 255 255
719.24243 703.86902 1.6735145 255 255 255
4185.918 5937.6206 8.3189163 255 255 255
-1103.5327 -1211.5646 -4.9301472 255 255 255
-181.50856 -481.66461 -1.805238 255 255 255
4039.4958 2333.8538 7.0827656 255 255 255
429.32187 612.41162 1.354084 255 255 255
700.02356 964.45795 1.7862617 255 255 255
231.26855 980.80219 1.64059 255 255 255
-726.93439 -300.08319 -1.8107594 255 255 255
3588.1909 1547.8781 4.4584661 255 255 255
773.65259 862.20673 1.782756 255 255 255
-126.41705 -82.661812 -1.1339949 255 255 255
599.5946 577.3783 1.5014172 255 255 255
-208.39621 -872.03351 -3.179285 255 255 255
549.4267 826.4931 1.6087939 255 255 255
1372.7156 748.60284 3.5755773 255 255 255
