ply
format ascii 1.0
comment PCL generated
element vertex 1109
property float x
property float y
property float z
property uchar red
property uchar green
property uchar blue
element face 0
element camera 0
property float view_px
property float view_py
property float view_pz
property float x_axisx
property float x_axisy
property float x_axisz
property float y_axisx
property float y_axisy
property float y_axisz
property float z_axisx
property float z_axisy
property float z_axisz
property float focal
property float scalex
property float scaley
property float centerx
property float centery
property int viewportx
property int viewporty
property float k1
property float k2
end_header
30229.021 1571.9501 30.842175 255 255 255
4723.2622 489.69986 5.5245237 255 255 255
2593.7339 858.38739 2.6568604 255 255 255
-4937.5815 640.05884 -9.355525 255 255 255
-172.27351 498.10315 -0.37990186 255 255 255
4739.5156 467.65698 5.2130375 255 255 255
-1305.2396 -652.64111 -2.9436951 255 255 255
6772.2319 394.68549 8.2225132 255 255 255
2747.5286 797.28033 2.7096496 255 255 255
-1454.2783 309.11404 -3.570533 255 255 255
-163.58203 467.00195 -0.48450851 255 255 255
-844.84283 -315.14386 -2.3601642 255 255 255
5370.0776 1100.9614 5.1111045 255 255 255
10391.068 876.61707 9.916503 255 255 255
5128.9102 1973.5334 7.565237 255 255 255
4283.6099 714.26715 4.541965 255 255 255
4066.7478 601.91632 4.5046663 255 255 255
3981.4829 1285.2568 3.8303494 255 255 255
-2664.2444 -176.23267 -3.0534372 255 255 255
2548.4102 0.38998568 4.2414384 255 255 255
1514.363 228.123 1.9020364 255 255 255
810.87573 95.175011 1.0041863 255 255 255
-139.71777 377.28378 -0.41684392 255 255 255
4208.4292 716.24329 4.4445705 255 255 255
1126.2664 266.17014 1.3307548 255 255 255
5649.564 1706.4619 5.7147627 255 255 255
-1208.6481 367.69092 -2.780226 255 255 255
-776.1311 158.55531 -1.7672043 255 255 255
3785.759 204.40259 5.225872 255 255 255
7419.479 159.78094 9.8946247 255 255 255
-97.246071 336.56149 -0.30932495 255 255 255
1985.3407 426.92688 2.6457548 255 255 255
5250.2026 1075.6718 5.0257573 255 255 255
3792.3628 306.10623 4.8902359 255 255 255
-958.53833 -288.64584 -2.5916891 255 255 255
2634.0598 959.17938 3.3752007 255 255 255
1140.663 25.677279 2.1262479 255 255 255
4752.8291 492.44659 5.5524583 255 255 255
833025.75 228439.33 1228.0474 255 255 255
2781.0032 668.03961 2.8554533 255 255 255
4365.8237 -271.62497 5.8994446 255 255 255
-1200.671 -457.74277 -2.5588498 255 255 255
2081.1946 648.05414 2.7352622 255 255 255
1835.4413 60.585934 2.2393467 255 255 255
2597.655 614.13116 3.7822847 255 255 255
2181.29 225.06529 2.1497669 255 255 255
-2430.8586 -9.0829382 -5.2123604 255 255 255
-32373.609 -1584.9329 -45.826694 255 255 255
2526.9436 233.31868 3.7972217 255 255 255
-20109.502 2126.5352 -28.344627 255 255 255
3654.2996 1149.6141 3.3971579 255 255 255
4302.2197 718.83954 4.5514607 255 255 255
1012.4829 49.250534 1.2863926 255 255 255
5124.3423 1318.2213 5.9943085 255 255 255
3737.5234 769.68445 3.7806437 255 255 255
-1206.7396 -435.46881 -2.5192432 255 255 255
1484.1506 332.16403 1.7184236 255 255 255
5230.7197 -131.02066 8.8350353 255 255 255
1692.535 19.955944 3.0842483 255 255 255
7775.6094 523.83447 8.9812937 255 255 255
3912.0237 509.5748 4.5219288 255 255 255
739.58746 29.520311 1.3655232 255 255 255
-2219.5881 366.172 -5.198235 255 255 255
1503.9939 257.57303 1.6586885 255 255 255
4985.9517 1140.2324 7.019279 255 255 255
1787.822 365.23962 2.6902146 255 255 255
1559.7996 451.94574 1.7427118 255 255 255
3665.988 -46.546364 4.5987449 255 255 255
1110.0958 128.84268 1.3281331 255 255 255
1339.6311 737.20618 1.0347681 255 255 255
3487.7637 830.6076 3.4702802 255 255 255
1399.8695 180.04822 1.5568542 255 255 255
7576.1157 445.74164 9.0054865 255 255 255
4384.6924 710.66943 4.6612086 255 255 255
5198.8872 1858.3273 7.4994092 255 255 255
1017.6923 154.22444 1.4823864 255 255 255
1331.0107 335.8493 1.609628 255 255 255
3243.7786 858.44287 4.719418 255 255 255
-78.159454 323.26984 -0.31262687 255 255 255
8190.1289 327.79443 10.129466 255 255 255
-8582.4629 -3269.583 -14.678226 255 255 255
9517.3145 1650.655 9.1708565 255 255 255
-66.386902 446.06122 -0.49112466 255 255 255
943.72699 82.942657 1.1559045 255 255 255
4675.1733 332.31018 5.9166517 255 255 255
4331.9492 236.89439 4.9892511 255 255 255
3205.2339 -117.04265 3.5906193 255 255 255
5363.4873 249.47739 5.7025213 255 255 255
23555.676 1229.9183 24.523878 255 255 255
7282.0522 994.38074 8.2615767 255 255 255
918.88342 159.09018 1.0759028 255 255 255
2886.0388 -14.983229 5.0516405 255 255 255
3077.895 -951.22668 4.9142566 255 255 255
4655.9902 451.49573 5.5464716 255 255 255
6517.1211 472.83255 7.6749024 255 255 255
6783.3008 643.63666 7.5244889 255 255 255
6778.6074 895.52863 6.9617453 255 255 255
-2085.1211 488.50513 -3.1486709 255 255 255
1535.6198 470.82556 1.9820625 255 255 255
1562.5344 462.14127 1.734792 255 255 255
4250.2505 17.002977 6.6587796 255 255 255
4734.4424 1295.3131 4.7360697 255 255 255
1151.7684 277.21957 1.4478652 255 255 255
23406.074 2098.9407 21.968115 255 255 255
-131509.83 9311.9912 -137.48531 255 255 255
952.49652 151.23984 1.14138 255 255 255
-6002.7671 -36.857826 -6.5204911 255 255 255
1141.4183 35.058178 2.0909946 255 255 255
-154.03336 208.07285 -0.55704439 255 255 255
8143.0303 325.37625 10.064937 255 255 255
-1352.9595 314.14069 -3.2988896 255 255 255
4974.7451 393.01639 6.0946789 255 255 255
-120.90328 521.21997 -0.38645235 255 255 255
-6082.7959 708.51782 -13.564708 255 255 255
-3640.5691 8.6856594 -8.6555023 255 255 255
5460.7339 805.89319 5.6921353 255 255 255
5494.9473 808.4931 5.7274971 255 255 255
-8555.7305 850.52185 -12.102064 255 255 255
-1474.0928 364.73413 -3.3207352 255 255 255
3032.2314 954.57812 2.8756309 255 255 255
1678.7231 50.541901 2.9206197 255 255 255
-161.44598 509.68323 -0.38265482 255 255 255
1110.1534 -5.2388854 1.2865307 255 255 255
8316.0068 1449.4948 9.5090952 255 255 255
-1250.957 -383.14557 -2.7727349 255 255 255
1893.9857 611.74164 2.5157332 255 255 255
21035.74 -889.91052 32.277328 255 255 255
5907.9551 422.52286 7.1187148 255 255 255
2835.6331 987.73663 2.5348363 255 255 255
7545.9844 473.35529 8.8726625 255 255 255
3913.2852 84.706802 5.8771024 255 255 255
4308.6616 687.56689 4.6193213 255 255 255
-14351.404 1529.7072 -20.210159 255 255 255
1466.8126 248.36586 1.7697531 255 255 255
1119.5244 46.96537 2.0105252 255 255 255
1207.6697 338.16211 1.4919553 255 255 255
4709.3071 429.9455 5.6717916 255 255 255
4232.79 674.10583 4.5561934 255 255 255
-1540.9832 -43.42733 -2.6266093 255 255 255
1081.6597 245.49359 1.1712414 255 255 255
4416.8047 1896.4584 7.5989833 255 255 255
4480.376 468.63049 5.2892237 255 255 255
6829.6128 407.5303 8.2404127 255 255 255
7645.3857 491.97653 8.9301949 255 255 255
3091.4761 163.1205 3.7072821 255 255 255
-21053.711 2219.252 -29.700069 255 255 255
4512.8438 423.71158 5.4447489 255 255 255
2133.5293 476.12344 4.3985577 255 255 255
-4969.0645 639.56525 -9.4332962 255 255 255
3896.0544 523.66583 4.4608684 255 255 255
-7176.1592 807.38306 -13.452977 255 255 255
5232.2183 425.1282 6.3076954 255 255 255
5733.1831 803.22198 5.9988437 255 255 255
-2380.8406 440.76056 -3.3274779 255 255 255
486.14212 62.735241 0.8150596 255 255 255
-3802.8091 -38.516003 -8.5263052 255 255 255
28405.873 1572.9867 28.828182 255 255 255
-11671.234 971.89459 -15.074046 255 255 255
-147.30493 388.29337 -0.53065306 255 255 255
7327.6777 380.93143 8.9233398 255 255 255
4587.9263 -322.75021 10.008244 255 255 255
5925.5205 357.27133 7.3443565 255 255 255
1493.0161 389.87512 1.6705948 255 255 255
1360.4025 -12.434941 2.6742618 255 255 255
809.34222 183.15469 1.1559218 255 255 255
1157.5076 269.6492 1.7309508 255 255 255
4515.272 469.35745 5.3293347 255 255 255
4593.4951 186.30206 5.5740628 255 255 255
-207207.16 -11862.001 -350.45062 255 255 255
1279.4792 345.20935 1.4032437 255 255 255
5561.4282 -157.56471 9.4191389 255 255 255
4000.3823 -157.1357 4.2776418 255 255 255
3353.4036 323.72888 3.7177894 255 255 255
6534.0098 968.47034 8.9609404 255 255 255
-1304.0328 -481.95972 -2.6609516 255 255 255
4442.6743 1223.3984 4.1243143 255 255 255
1237.4089 161.85493 1.4875425 255 255 255
3788.5369 492.89847 4.4004884 255 255 255
-846.20374 -233.00632 -1.7437763 255 255 255
13685.265 604.96191 15.43615 255 255 255
-1202.4131 -482.64587 -2.5842786 255 255 255
7674.8145 466.95483 9.0401173 255 255 255
-2024.7683 66.271774 -2.7092137 255 255 255
5834.4546 -162.76112 9.8183079 255 255 255
1220.0315 364.81485 1.4749615 255 255 255
821.20148 11.244895 0.99102831 255 255 255
5473.2598 455.57648 6.4983139 255 255 255
-6268.1523 725.65027 -13.963294 255 255 255
29280.951 1516.6003 29.959564 255 255 255
-177.26558 337.81018 -0.33267936 255 255 255
514.14642 100.04915 0.53543061 255 255 255
1106.2291 110.76404 1.4912311 255 255 255
8703.8076 2449.9434 11.957117 255 255 255
-138.58174 500.17374 -0.38786924 255 255 255
5987.7012 -265.81363 10.899053 255 255 255
1926.204 697.1712 1.9510909 255 255 255
5398.5146 347.00214 6.7483335 255 255 255
3935.5608 8.07582 4.4419088 255 255 255
5065.668 1196.7885 4.6315908 255 255 255
3433.4036 725.24878 4.8976321 255 255 255
2223.8662 172.93835 2.4321053 255 255 255
3459.6816 1052.0533 3.1255798 255 255 255
-98.448563 227.81897 -0.56181914 255 255 255
4966.2373 1042.8628 4.7752795 255 255 255
5362.1929 381.06293 5.7334666 255 255 255
4007.7947 1163.287 3.6972575 255 255 255
5329.5869 444.31912 6.366827 255 255 255
4997.519 267.86615 6.4484239 255 255 255
3594.3052 348.66827 4.5187411 255 255 255
3612.8306 351.12314 4.537384 255 255 255
-113.28291 437.93863 -0.43922415 255 255 255
-1289.8878 -428.65042 -2.690197 255 255 255
2884.2749 1006.0215 2.5942721 255 255 255
-103.3586 318.28668 -0.36519301 255 255 255
3100.6697 1017.4005 2.7837677 255 255 255
-90.479675 324.29031 -0.29853296 255 255 255
1206.1953 61.543182 1.976905 255 255 255
6193.9404 817.88275 6.4788804 255 255 255
19798.549 88.784294 25.57876 255 255 255
1050.8141 229.25012 1.1672949 255 255 255
1938.4872 671.29645 2.3696728 255 255 255
6607.7197 409.25824 7.9817524 255 255 255
-6254.7544 724.0885 -13.948541 255 255 255
4308.3242 679.40594 4.6333723 255 255 255
2782.1333 993.29309 2.4969347 255 255 255
1188.4919 227.63916 1.6215649 255 255 255
1323.1554 427.2944 1.5316941 255 255 255
2184.1033 596.99939 2.7759898 255 255 255
3893.7815 131.60062 5.6508603 255 255 255
1565.1973 355.31241 1.6486207 255 255 255
-174.68401 336.10214 -0.3820982 255 255 255
5160.6592 336.03928 6.5030723 255 255 255
1500.5706 454.81345 1.8725772 255 255 255
1796.0137 602.05438 2.1346099 255 255 255
928.92432 211.67773 1.2895837 255 255 255
5022.9888 418.57126 6.0779476 255 255 255
-1801.7927 -445.89508 -3.2271128 255 255 255
-18494.543 1280.8602 -24.373501 255 255 255
1141.0277 222.47179 1.3081478 255 255 255
1227.3717 366.24744 1.4821959 255 255 255
-162.91664 485.93732 -0.42392468 255 255 255
920.65051 27.398739 1.1608828 255 255 255
-1148.9178 -703.87427 -2.8586917 255 255 255
3135.7808 1265.6724 4.4871154 255 255 255
1490.8718 90.6073 2.0241988 255 255 255
-101655.66 8079.7505 -185.16473 255 255 255
5436.2266 -35.640331 8.4658756 255 255 255
6255.9106 824.53442 6.5329676 255 255 255
8725.1816 1455.502 10.055186 255 255 255
1956.0308 681.85059 2.2775228 255 255 255
6000.9224 409.19586 7.2663422 255 255 255
-877.51239 -84.496582 -1.9885585 255 255 255
7753.876 1308.5378 6.671855 255 255 255
752.99481 67.648788 0.86948186 255 255 255
7685.4365 524.55493 8.8697023 255 255 255
4933.0811 3.4506555 7.6168871 255 255 255
3911.6228 521.23456 4.4859476 255 255 255
1210.911 340.55795 1.492795 255 255 255
-1349.8657 314.43665 -3.2898476 255 255 255
1746.0212 -402.76514 2.1504109 255 255 255
5470.0483 1170.7712 5.1139488 255 255 255
-12097.127 821.46771 -16.519169 255 255 255
1887.9829 453.50281 2.6236622 255 255 255
-137.8394 362.21298 -0.34175056 255 255 255
-42135.168 3963.7971 -49.708851 255 255 255
5195.0859 1064.8483 4.9826622 255 255 255
2213.7078 214.28555 2.2169123 255 255 255
460.69583 47.897671 0.78966045 255 255 255
-1190.8013 -450.14963 -2.5299602 255 255 255
1130.1455 493.5307 1.3912232 255 255 255
5021.7026 729.79132 5.347261 255 255 255
4717.9194 1078.8893 4.3283253 255 255 255
4609.9097 493.97116 5.3822908 255 255 255
-141.69583 387.87396 -0.41306758 255 255 255
-2261.8772 368.97687 -5.3022361 255 255 255
2014.799 206.75485 2.9584153 255 255 255
1317.3307 145.97932 1.6434249 255 255 255
1021.4334 166.85362 1.4501624 255 255 255
4630.5996 1160.4575 4.5461254 255 255 255
5152.1548 1155.4019 4.8044987 255 255 255
-105.37213 306.45663 -0.41423354 255 255 255
952.48535 100.55054 1.5016003 255 255 255
1945.5127 -72.989082 2.6948986 255 255 255
21677.93 -2765.4351 25.426348 255 255 255
2425.4453 500.81873 2.5991836 255 255 255
-132.22513 338.63629 -0.37415913 255 255 255
7760.2227 401.80643 9.3585958 255 255 255
20581.953 -2367.7893 19.628197 255 255 255
968.30164 38.557457 1.0932608 255 255 255
1216.8817 339.01044 1.5024602 255 255 255
2725.8391 -275.5751 3.0688162 255 255 255
5413.0186 -146.8084 9.1660347 255 255 255
9658.7588 -595.13153 12.227283 255 255 255
2583.0208 722.20654 2.6142597 255 255 255
-3464.5161 -498.11304 -6.3256755 255 255 255
7005.332 442.51492 8.3390369 255 255 255
4655.917 -413.28116 5.2980938 255 255 255
-176.98949 500.01224 -0.38357782 255 255 255
-1249.5366 -115.32204 -2.0327954 255 255 255
2218.5833 783.59753 3.0561666 255 255 255
4261.5312 703.87146 4.5344543 255 255 255
4033.3438 81.843536 6.0572901 255 255 255
1961.1068 618.6087 1.9981263 255 255 255
3365.1975 752.20233 3.4031699 255 255 255
2657.575 269.28241 4.2081318 255 255 255
979.71887 193.48911 1.0575889 255 255 255
4415.9697 727.42603 4.6683502 255 255 255
3976.6599 81.91642 5.9800105 255 255 255
1222.8948 218.13911 1.3859403 255 255 255
2699.8396 784.32007 2.6725368 255 255 255
-1392.6172 -570.68854 -2.8502624 255 255 255
1621.8937 482.25784 2.1438162 255 255 255
-1024.8557 -652.2796 -2.6865451 255 255 255
76.366051 20.741375 0.071143605 255 255 255
214556.17 -1698.8597 252.0155 255 255 255
4545.9609 386.78915 5.5895286 255 255 255
5347.3062 1200.7294 4.9336805 255 255 255
82.896492 36.994774 0.25368768 255 255 255
1081.5183 209.73856 1.3909246 255 255 255
-2192.9692 -399.0798 -6.827086 255 255 255
11052.119 4140.2012 18.311661 255 255 255
22.329227 56.546673 -0.025350641 255 255 255
6476.5776 2229.6179 9.7104139 255 255 255
-2291.6445 371.49365 -5.3573608 255 255 255
-171.09265 508.51685 -0.38718009 255 255 255
3287.9929 185.00502 4.2004433 255 255 255
-940.54169 -198.31119 -2.5094185 255 255 255
1387.2847 610.66974 2.062207 255 255 255
23346.479 2101.6733 21.883032 255 255 255
6042.708 352.62189 7.5036645 255 255 255
-2494.2888 390.06198 -5.7766962 255 255 255
-740.72144 -217.66084 -2.2183051 255 255 255
-5338.7798 639.95325 -11.921768 255 255 255
8114.8721 1536.7646 7.872582 255 255 255
-1188.5067 -413.55905 -2.3970268 255 255 255
-1881.0081 -595.112 -4.2015738 255 255 255
-150.83542 336.9187 -0.3446224 255 255 255
-2245.7844 -114.53409 -2.7542064 255 255 255
401.5481 65.332565 0.65480202 255 255 255
2652.6677 761.91846 4.3005047 255 255 255
5638.5371 1105.4152 5.3849378 255 255 255
-2378.0344 250.02615 -3.2668738 255 255 255
-1458.3505 308.03207 -3.5847015 255 255 255
-20044.523 581.02692 -20.905685 255 255 255
-1070.4559 32.624664 -2.2353642 255 255 255
592992.69 49367.672 579.63464 255 255 255
8132.3232 291.64417 10.198806 255 255 255
1822.038 78.802261 1.7644491 255 255 255
1549.2238 431.20609 2.0703068 255 255 255
3256.4617 243.46588 3.4504468 255 255 255
-4871.8652 632.88104 -9.2590027 255 255 255
4709.5537 399.17435 5.7541547 255 255 255
-2078.6133 344.50259 -4.9962201 255 255 255
2545.8945 -125.85399 5.3416548 255 255 255
1767.8159 -500.33044 2.3955519 255 255 255
-5631.4688 666.604 -12.56254 255 255 255
976.19434 71.94529 1.6819853 255 255 255
4241.3369 671.53162 4.5595531 255 255 255
3835.4663 -152.73465 7.3313117 255 255 255
11017.617 -903.77368 24.028366 255 255 255
8556.0791 181.19092 11.143897 255 255 255
4310.1514 -161.18504 5.9315667 255 255 255
1132.7058 236.65479 1.4951893 255 255 255
4529.8643 80.041084 7.1755018 255 255 255
4390.3247 -136.46365 7.8863697 255 255 255
-132.48518 394.69467 -0.40098974 255 255 255
-38043.234 2879.1228 -62.800449 255 255 255
-84718.672 -30751.963 -107.33801 255 255 255
4334.7266 437.07904 4.196547 255 255 255
-156.73969 457.91263 -0.51596051 255 255 255
5757.314 345.10007 7.1921768 255 255 255
-24453.105 2426.627 -54.976082 255 255 255
-2389.512 881.25464 -3.1926103 255 255 255
3254.6802 230.04541 3.8627768 255 255 255
5878.7695 1081.7169 5.6825485 255 255 255
1487.075 -81.938881 1.8031554 255 255 255
5830.8916 768.74487 6.4189339 255 255 255
1112.4784 53.171329 1.9767398 255 255 255
5260.4849 428.06094 6.3314233 255 255 255
-2443.835 -129.27899 -2.9076664 255 255 255
737.93359 44.9772 0.78081286 255 255 255
4052.2693 620.617 4.4447865 255 255 255
484.83643 62.302822 0.81331366 255 255 255
8903.4219 210.9144 11.430449 255 255 255
2577.5261 443.43674 2.4092574 255 255 255
31889.598 -8536.2285 30.406963 255 255 255
-191.07285 514.0246 -0.39459503 255 255 255
-1686.9955 -99.777061 -2.4177213 255 255 255
6014.6729 -200.24438 10.307934 255 255 255
14356.62 -838.12677 18.949833 255 255 255
1494.8187 18.121565 1.3475775 255 255 255
-14905.263 1466.5892 -30.122034 255 255 255
1735.1798 8.8914709 1.9757433 255 255 255
-293.69498 -132.99309 -1.3017914 255 255 255
-6337.6245 -1632.546 -12.021672 255 255 255
-982.78406 -304.75449 -2.058634 255 255 255
-1915.9475 -613.77612 -3.3280818 255 255 255
12257.114 2926.8796 12.693405 255 255 255
1300.3311 351.09589 1.6622839 255 255 255
7709.1509 402.76514 9.3091068 255 255 255
-4195.9678 536.4577 -9.5567684 255 255 255
3595.3049 447.49869 3.5724719 255 255 255
-130.31795 252.59567 -0.56656617 255 255 255
-698.03815 -131.1243 -1.9814092 255 255 255
1782.5891 157.82709 2.8299587 255 255 255
6042.2305 398.5603 7.3496146 255 255 255
-68.993401 313.90271 -0.32882971 255 255 255
1175.9697 571.55829 1.5738982 255 255 255
7609.0913 546.43262 8.7250071 255 255 255
-132.44487 506.73618 -0.3901659 255 255 255
-6836.8218 792.28516 -10.563757 255 255 255
-1256.736 294.2627 -3.1641285 255 255 255
-996.45129 -151.03812 -2.5889931 255 255 255
3325.0835 136.21095 3.6638808 255 255 255
1684.5081 365.05136 1.716437 255 255 255
-1367.1582 315.36331 -3.3278155 255 255 255
-5297.9727 -773.30408 -11.886266 255 255 255
774.87189 76.922684 0.93355262 255 255 255
6541.9136 1311.4556 5.9432883 255 255 255
3787.7234 205.60963 5.2224431 255 255 255
-15996.692 1439.7589 -27.79166 255 255 255
-1858.118 318.2251 -4.5817294 255 255 255
5835.5635 399.29684 7.1075029 255 255 255
7928.4536 157.82552 10.51254 255 255 255
-1331.5945 336.09875 -3.1412685 255 255 255
-178.93542 500.47345 -0.38459086 255 255 255
-973.52942 528.54584 -2.1171589 255 255 255
1392.418 360.17578 1.9057785 255 255 255
3239.2668 1031.5487 2.9171433 255 255 255
1900.1884 262.42651 2.5937514 255 255 255
3655.8972 347.60449 4.5991445 255 255 255
4524.6582 491.16913 5.2862768 255 255 255
6442.3672 451.39072 7.6533995 255 255 255
2719.6238 -108.92928 5.46872 255 255 255
3633.8005 166.3354 3.994148 255 255 255
-134.1257 280.36038 -0.47742525 255 255 255
-1569.1184 -168.49808 -2.3105428 255 255 255
14028.106 3208.2795 19.9013 255 255 255
4604.915 394.28989 5.6425056 255 255 255
1796.146 -194.08786 2.4790833 255 255 255
49890.793 -3129.5557 82.805397 255 255 255
5761.3345 349.99011 7.1821685 255 255 255
-5446.1362 -1313.6188 -7.8108997 255 255 255
6736.313 418.67987 8.0999651 255 255 255
1620.9155 45.633781 2.8499451 255 255 255
-6256.4941 18.180115 -13.936923 255 255 255
2222.8782 -392.89972 2.4202592 255 255 255
9818.4971 970.06378 11.300687 255 255 255
-1485.6051 371.05341 -3.313848 255 255 255
3728.6113 230.01112 5.0596757 255 255 255
1974.9473 706.32483 2.0056629 255 255 255
-8772.5459 -1535.5784 -13.809295 255 255 255
5925.7925 369.25214 7.3003345 255 255 255
32310.156 1604.1163 33.015755 255 255 255
810.58105 20.218502 1.5277402 255 255 255
1225.8258 -177.66583 1.4611622 255 255 255
5343.0264 429.89282 6.4244456 255 255 255
-5237.4653 -790.80573 -13.707237 255 255 255
3586.9905 308.26746 3.8262258 255 255 255
-8084.9331 -409.04132 -7.107235 255 255 255
-169.95792 501.79218 -0.38137478 255 255 255
-3950.3621 919.32983 -4.5159693 255 255 255
8869.583 215.26788 11.375258 255 255 255
-586.92432 -145.80103 -1.8257157 255 255 255
-19062.826 1919.46 -42.967426 255 255 255
-521.98578 -145.49295 -1.4823345 255 255 255
2216.1978 781.85309 3.0567956 255 255 255
830.9726 84.39753 1.3938806 255 255 255
6618.5107 423.58032 7.9493332 255 255 255
-68.229431 278.64581 -0.25797352 255 255 255
149798.77 63696.344 241.00583 255 255 255
3213.9714 -189.33084 6.8476987 255 255 255
-851.69775 16.322418 -2.0275335 255 255 255
4919.0894 428.12735 5.9292207 255 255 255
1295.3313 333.89542 1.5646441 255 255 255
-179.66765 514.01813 -0.39292058 255 255 255
19934.734 13040.938 40.296047 255 255 255
-992.21655 539.31537 -2.1311255 255 255 255
5552.8154 -387.0618 11.836053 255 255 255
6153.0034 1250.0367 5.977901 255 255 255
-2337.3074 -288.93582 -4.0206318 255 255 255
-98.764305 586.78241 -0.42241663 255 255 255
-136.21901 445.91867 -0.40702274 255 255 255
2380.8345 630.72198 3.4608073 255 255 255
-2301.7485 365.36542 -5.4674687 255 255 255
-5687.7827 -1537.0367 -9.6643591 255 255 255
7200.2842 1370.0175 6.4860048 255 255 255
1061.2046 32.509575 1.336856 255 255 255
-147.17677 442.04367 -0.47325978 255 255 255
2676.2517 -48.486538 2.821496 255 255 255
16292.087 -1120.2034 30.514584 255 255 255
-1865.5834 342.87842 -4.401957 255 255 255
141.18568 548.55658 -0.58532453 255 255 255
3889.208 196.54967 5.3837543 255 255 255
-4528.5752 -113.80164 -4.7061791 255 255 255
-1358.0707 -491.04996 -2.715837 255 255 255
3706.4717 14.318025 6.3208323 255 255 255
-1353.0892 -112.20656 -2.889082 255 255 255
1822.1052 46.871029 2.4932775 255 255 255
5007.3428 889.4353 5.0468755 255 255 255
5610.0752 432.25174 6.7301483 255 255 255
-6696.3169 762.15674 -14.795146 255 255 255
-85985.094 3622.998 -110.96651 255 255 255
-833.64929 -268.37558 -1.9080732 255 255 255
2472.1963 727.98749 2.4896152 255 255 255
4483.2358 235.8096 5.518496 255 255 255
-16022.993 1411.2472 -27.099821 255 255 255
1375.4362 348.74286 1.9195396 255 255 255
1147.5179 -179.52992 1.2801275 255 255 255
4853.125 269.23901 6.3471756 255 255 255
1875.8254 -107.25539 2.1749036 255 255 255
1497.0591 -83.543633 1.7030791 255 255 255
-4242.731 847.53784 -5.0877376 255 255 255
-15807.054 1393.889 -26.708551 255 255 255
-1364.6732 310.70148 -3.3412619 255 255 255
8076.0112 348.35358 9.917654 255 255 255
18862.338 -916.80231 23.316177 255 255 255
8834.0791 269.06805 11.102777 255 255 255
-167.01253 330.86856 -0.32378215 255 255 255
34811.605 -2371.3545 61.810749 255 255 255
118847.62 -10752.65 256.69806 255 255 255
6026.0596 1428.1395 5.3294339 255 255 255
5706.9961 484.32016 6.9235229 255 255 255
-10272.077 -6753.4492 -20.218615 255 255 255
-1344.4089 -20.39328 -2.4032929 255 255 255
19169.203 3722.0618 21.968906 255 255 255
2686.7231 -31.34576 2.8251729 255 255 255
3227.8684 -35.091526 5.6462469 255 255 255
-2362.2363 -133.56845 -4.3661976 255 255 255
2177.1406 29.582151 2.261929 255 255 255
6488.0625 345.22119 8.0574169 255 255 255
-2045.0383 353.08624 -4.808423 255 255 255
-1551.6614 -410.46997 -2.5951211 255 255 255
18522.746 1802.6307 17.485678 255 255 255
4546.7354 486.76028 5.3217659 255 255 255
2641.8987 115.69287 2.8805211 255 255 255
-5323.5488 -2863.5603 -8.7109756 255 255 255
438.84991 161.78864 0.66803551 255 255 255
-1372.6564 -479.03906 -2.7692688 255 255 255
719.65118 183.07248 1.0050347 255 255 255
3008.7095 -481.48486 4.3563113 255 255 255
3653.9348 267.90649 4.0802302 255 255 255
-4568.9277 -613.74133 -4.8472457 255 255 255
-2033.6626 330.28317 -5.0093164 255 255 255
-58850.012 4790.9233 -107.35732 255 255 255
4423.0615 252.37276 5.870501 255 255 255
2887.1519 379.11575 2.6737113 255 255 255
2998.646 376.21841 4.4523873 255 255 255
-1242.0638 -756.89349 -2.4828067 255 255 255
-725.57727 -100.78909 -1.6095189 255 255 255
32972.328 1575.4327 33.836536 255 255 255
1544.9557 -164.27701 2.0237844 255 255 255
3240.4939 152.73393 3.7320786 255 255 255
-2146.3562 -338.84131 -4.6949134 255 255 255
5889.1616 -178.79037 9.9953117 255 255 255
1745.6031 547.51611 2.3248048 255 255 255
4854.0283 313.9852 5.9078407 255 255 255
8309.7168 -406.1149 14.713407 255 255 255
-1786.2227 -653.7677 -3.4714894 255 255 255
-2345.6194 -512.31512 -3.6053898 255 255 255
854.5556 67.584175 1.4798874 255 255 255
-161.40306 547.02753 -0.42820463 255 255 255
34612.145 3369.1577 51.820751 255 255 255
6973.0078 359.37604 8.5809393 255 255 255
5411.8164 748.86133 6.9761806 255 255 255
4480.002 264.62143 5.8985462 255 255 255
-171.40179 508.55521 -0.38727251 255 255 255
-91.466507 497.26779 -0.41081718 255 255 255
-152.53891 390.98532 -0.38535658 255 255 255
8318.958 237.30289 10.639458 255 255 255
-2514.7937 913.14087 -3.2675433 255 255 255
-32081.088 -3148.0278 -69.231529 255 255 255
-7255.9907 814.57214 -13.618192 255 255 255
18850.992 1833.4518 17.770861 255 255 255
7972.9077 351.61414 9.7724876 255 255 255
1811.051 -417.08936 2.6645136 255 255 255
626627.19 -138.47845 1054.74 255 255 255
-134.6967 377.98975 -0.40872401 255 255 255
-98.089821 507.02368 -0.42567241 255 255 255
-157.05119 322.36627 -0.4347288 255 255 255
711.9317 178.38707 0.99974412 255 255 255
4141.9629 -184.21582 8.0052929 255 255 255
1684.3876 543.62952 2.1976678 255 255 255
-7054.4546 795.83478 -15.565579 255 255 255
5671.5483 451.64865 6.9378786 255 255 255
-1156.1685 -111.39931 -2.7969973 255 255 255
3916.824 -895.42273 5.5216308 255 255 255
-1911.6993 327.83374 -4.6567321 255 255 255
30246.896 14094.228 41.457283 255 255 255
-130.48186 348.53516 -0.3911272 255 255 255
1790.0684 133.06982 1.8005111 255 255 255
-7484.5693 -2688.9888 -11.98737 255 255 255
-1246.6541 -328.91522 -2.244179 255 255 255
5789.207 -208.16872 10.134831 255 255 255
-24195.846 2405.2437 -54.33469 255 255 255
1396.4587 -287.53629 1.6767386 255 255 255
-627.12915 -153.78934 -1.9455465 255 255 255
7334.2417 1347.1453 6.719697 255 255 255
2440.9341 -47.982403 4.6265273 255 255 255
-2398.1665 -127.8891 -3.0519407 255 255 255
8373.335 1266.8164 7.9733057 255 255 255
-5849.3164 554.39471 -6.9471169 255 255 255
-3379.9912 -186.92307 -8.6123648 255 255 255
4482.2339 1006.4704 4.2333407 255 255 255
66371.406 28603.025 100.16078 255 255 255
-1709.3577 -184.53973 -3.6602392 255 255 255
-185.96725 267.95117 -0.50698191 255 255 255
-1487.8286 -102.04488 -2.2545834 255 255 255
-1469.3569 313.47498 -3.5799079 255 255 255
-9437.0898 -6010.8374 -16.135679 255 255 255
1769.9283 115.06116 3.8116367 255 255 255
23743.117 -2055.6812 51.271561 255 255 255
1519.8197 156.49216 1.907293 255 255 255
-1398.1117 361.72232 -3.1739242 255 255 255
-18481.52 1363.1875 -19.977631 255 255 255
8689.04 1674.8007 8.3428268 255 255 255
-2881.2212 -181.85089 -3.2155437 255 255 255
-538.9303 -161.17334 -1.6930648 255 255 255
-2382.9043 -983.73352 -4.4563861 255 255 255
5139.9082 -199.84056 9.3246365 255 255 255
2186.1899 -204.07462 3.0992799 255 255 255
-136.12117 343.29919 -0.38016146 255 255 255
-180415.27 -2771.6245 -186.1003 255 255 255
-147.4265 497.13132 -0.37723255 255 255 255
-986.34747 -299.71158 -2.0532169 255 255 255
-8905.9736 1184.7992 -9.9334145 255 255 255
6412.043 364.42313 7.9018092 255 255 255
-167.77068 495.77869 -0.38076347 255 255 255
-3793.7009 -19.939684 -8.4627037 255 255 255
4852.187 256.71606 5.9372034 255 255 255
-7539.8096 -592.29413 -7.0593967 255 255 255
-9236.7451 996.64807 -20.518158 255 255 255
1602.7651 -86.993744 1.727861 255 255 255
-193.99193 517.79608 -0.39685273 255 255 255
3006.7314 815.05432 2.9581218 255 255 255
-3152.8254 -431.48773 -5.3772655 255 255 255
-19264.988 1621.6993 -32.34597 255 255 255
-2760.6758 -899.45325 -4.3056097 255 255 255
-82.093651 315.73209 -0.31431329 255 255 255
3925.261 423.05139 4.7292128 255 255 255
-136.08972 352.26239 -0.40407038 255 255 255
3415.3418 -122.73176 3.8039834 255 255 255
-4020.0376 -315.69351 -4.8282957 255 255 255
-989.57581 538.8866 -2.128406 255 255 255
4441.4209 377.33725 5.4903975 255 255 255
2583.1345 1059.9065 2.7405005 255 255 255
980.62347 72.002838 1.6892554 255 255 255
-2301.2295 -1424.0442 -3.82973 255 255 255
5909.688 -416.30203 11.120018 255 255 255
4932.2095 380.91852 6.0799127 255 255 255
2503.3733 132.58096 2.5831552 255 255 255
-130.01395 453.00507 -0.41532886 255 255 255
33.220543 501.48459 -0.40413371 255 255 255
-2496.4343 390.1413 -5.7817464 255 255 255
3789.1467 492.9906 4.4034014 255 255 255
-166.12848 498.67294 -0.37475291 255 255 255
4031.3418 81.657043 6.0549355 255 255 255
-96950.031 7710.8989 -176.81868 255 255 255
2089.833 107.92864 2.5055742 255 255 255
5802.9116 441.00732 6.937901 255 255 255
2933.8462 97.274696 4.8295913 255 255 255
3896.4082 130.76884 5.6551032 255 255 255
-3175.6938 -1173.024 -5.008111 255 255 255
7546.0376 472.60406 8.8760767 255 255 255
1355.1011 435.55399 1.5623455 255 255 255
8871.7412 1373.4852 9.4468927 255 255 255
2312.3201 857.80682 3.0041018 255 255 255
5529.8276 -386.16766 11.786756 255 255 255
1760.3003 -349.74213 2.1077855 255 255 255
790.79395 -130.24161 1.0595649 255 255 255
-1388.1042 -337.27057 -2.9203053 255 255 255
4729.9346 279.22058 6.165122 255 255 255
6778.8213 895.97742 6.9625068 255 255 255
3925.4636 517.89874 4.509202 255 255 255
-3479.1633 467.5303 -8.0674591 255 255 255
2624.5281 406.02985 3.1558197 255 255 255
7746.1489 564.82837 8.8312902 255 255 255
1096.0741 69.120461 1.3691498 255 255 255
28203.963 -1162.3022 41.986042 255 255 255
-1473.4971 364.71021 -3.319942 255 255 255
-2290.553 -551.13385 -4.550724 255 255 255
-8783.1064 2546.9929 -13.950596 255 255 255
1474.5046 -194.65753 1.9718078 255 255 255
23307.926 2094.3647 21.872431 255 255 255
-117.12853 445.53757 -0.46135595 255 255 255
-2408.9509 -99.790123 -2.8991029 255 255 255
1216.829 339.20432 1.5025407 255 255 255
942.94934 169.96666 1.1400738 255 255 255
9663.166 4203.5234 11.905609 255 255 255
-2040.8738 -374.13614 -4.4235673 255 255 255
3051.9966 155.9371 4.5055599 255 255 255
1639.3749 523.53638 2.0134189 255 255 255
-12577.56 -2710.0718 -18.698566 255 255 255
4806.4302 437.49405 5.7704978 255 255 255
4792.1763 297.96909 6.173769 255 255 255
1212.2611 72.226509 1.5335712 255 255 255
4309.915 685.34912 4.627295 255 255 255
2073.7371 413.49915 3.0839455 255 255 255
-664.85034 -277.46402 -1.9761101 255 255 255
2310.51 -380.07062 2.6984241 255 255 255
3158.0898 -62.002975 5.7322354 255 255 255
-2294.2952 208.82011 -3.491349 255 255 255
1464.349 66.572899 2.4032431 255 255 255
6260.7056 824.76038 6.537499 255 255 255
1180.408 57.997704 1.4268605 255 255 255
2824.4141 891.63074 3.6179726 255 255 255
810.59338 183.54889 1.1577749 255 255 255
65571.094 -5928.5654 142.5322 255 255 255
1385.5123 396.9809 1.5997592 255 255 255
-157.74995 337.88705 -0.42923757 255 255 255
5377.4995 1103.0928 5.1184335 255 255 255
-5598.9448 -29.977074 -7.3144073 255 255 255
816.76447 -102.81037 0.95068252 255 255 255
-1666.49 -113.51501 -2.786222 255 255 255
739.90234 29.309851 1.3665981 255 255 255
1108.1141 53.463528 1.9687387 255 255 255
5216.4717 -129.4684 8.8123741 255 255 255
14441.947 3007.6821 21.828072 255 255 255
2609.3962 947.32129 2.3176992 255 255 255
10858.118 4917.3008 14.473711 255 255 255
-173.40959 350.38229 -0.3478705 255 255 255
-190.59064 511.37881 -0.39322147 255 255 255
4390.3062 -136.68898 7.8853807 255 255 255
1116.9379 233.87929 1.4778625 255 255 255
-20131.105 1313.4717 -26.755676 255 255 255
3790.7593 305.66278 4.8884158 255 255 255
1854.3269 666.65173 1.8997391 255 255 255
-5687.0283 672.28558 -12.669744 255 255 255
-1637.6892 -387.35373 -3.2881725 255 255 255
5056.6138 338.06143 6.3676076 255 255 255
-641.96619 -85.687172 -1.5424856 255 255 255
6027.8828 -199.61249 10.335778 255 255 255
1563.809 -265.83588 2.0695853 255 255 255
-1204.9833 -67.337044 -2.2701986 255 255 255
1843.3857 626.99817 1.8860791 255 255 255
-2391.5579 881.85437 -3.1942623 255 255 255
1030.7319 -61.765301 1.2935022 255 255 255
-98.498894 493.88586 -0.43218672 255 255 255
3563.2471 1461.2136 6.6634035 255 255 255
7324.0967 457.55765 8.6779099 255 255 255
1311.8962 355.03854 1.7927518 255 255 255
1417.4194 413.45786 1.5965732 255 255 255
1394.6396 -19.255474 2.7675593 255 255 255
1186.087 280.73798 1.8308835 255 255 255
1917.8634 659.37714 2.5496771 255 255 255
4595.0977 -323.13443 10.026348 255 255 255
-72.030312 427.69254 -0.49153116 255 255 255
-1157.4514 0.91610491 -2.4087467 255 255 255
7737.5469 528.25616 8.9319887 255 255 255
2363.2976 -57.155293 4.5732284 255 255 255
-165.90398 331.79807 -0.44135633 255 255 255
4779.833 446.91321 5.7084417 255 255 255
1538.3141 474.18103 1.7675223 255 255 255
-13.994477 488.9458 -0.39890292 255 255 255
1389.507 400.06619 1.5072368 255 255 255
-6232.7285 722.63068 -13.897931 255 255 255
-5814.4199 705.8811 -10.860188 255 255 255
7709.1729 1306.3652 6.6313443 255 255 255
2323.7161 5.5178266 4.1299744 255 255 255
1907.9097 198.90666 1.9047301 255 255 255
3871.4214 921.30829 5.379899 255 255 255
-125.20362 452.74493 -0.37863827 255 255 255
4916.6001 2.7514911 7.5931273 255 255 255
-4177.0532 534.92407 -9.5160656 255 255 255
8817.7441 219.27296 11.302684 255 255 255
-2823.6389 -355.67999 -6.1045747 255 255 255
1224.9484 365.23441 1.4791535 255 255 255
23374.598 1220.3397 24.336725 255 255 255
3326.5151 -118.62697 6.3909883 255 255 255
-29813.07 348.43219 -31.206175 255 255 255
-11332.409 993.56506 -16.329679 255 255 255
-1303.7177 -652.14288 -2.9420991 255 255 255
-2275.9822 -28.600491 -2.8261266 255 255 255
-130.95363 250.68913 -0.33335418 255 255 255
6048.2739 400.07684 7.3556581 255 255 255
1300.2847 -6.0243616 1.5618722 255 255 255
11897.176 1635.9204 10.54665 255 255 255
1806.6755 607.10278 2.0905931 255 255 255
2083.2676 830.06262 1.994558 255 255 255
25645.984 8003.8613 38.201447 255 255 255
4423.3472 774.74756 4.5925159 255 255 255
1359.8239 -12.269654 2.6730418 255 255 255
1141.1899 34.932953 2.0915971 255 255 255
-1860.5499 319.61859 -4.5864162 255 255 255
6304.2559 346.38135 7.8430972 255 255 255
1325.1423 328.69711 1.611607 255 255 255
5318.2505 444.05435 6.3503265 255 255 255
-88624.305 -18926.924 -152.032 255 255 255
-31524.479 -13443.398 -43.521473 255 255 255
5418.9155 -146.73311 9.175952 255 255 255
-76.427345 428.09448 -0.49022484 255 255 255
7585.748 523.27148 8.7661762 255 255 255
-1264.0023 -473.26602 -2.6292703 255 255 255
7527.3486 444.11707 8.9477024 255 255 255
-1319.9219 -437.22897 -2.538259 255 255 255
5467.27 455.75793 6.4922843 255 255 255
-178.9631 500.4393 -0.38462928 255 255 255
2538.9763 209.89494 2.5891831 255 255 255
14838.604 5355.0376 24.058233 255 255 255
-15615.179 -223.39009 -20.21545 255 255 255
-26.80629 446.854 -0.43930322 255 255 255
-1349.5239 314.56778 -3.2895739 255 255 255
-135.41028 266.7984 -0.51592964 255 255 255
8080.2793 289.73056 10.132792 255 255 255
-1431.9568 -511.54565 -2.800411 255 255 255
5112.0908 1200.5298 4.6788273 255 255 255
2013.7125 709.73303 2.4628804 255 255 255
5457.917 1167.6816 5.1037531 255 255 255
829.92053 34.040424 1.5276004 255 255 255
12402.565 3481.6921 17.168083 255 255 255
3932.7285 523.71027 4.5077534 255 255 255
1227.739 367.64917 1.4811612 255 255 255
1939.5336 672.50232 2.3484862 255 255 255
1427.8225 403.27325 1.6435694 255 255 255
-165.59604 321.34195 -0.34256342 255 255 255
4531.1226 853.38269 4.5875845 255 255 255
7406.4106 447.78268 8.7894135 255 255 255
1327.0621 363.51859 1.8013383 255 255 255
77505.32 -7052.6802 169.06029 255 255 255
1150.2461 -113.99078 1.2549459 255 255 255
7662.0664 491.79758 8.9500093 255 255 255
-1437.0522 -65.670197 -2.2817872 255 255 255
-1364.2324 314.98679 -3.3228011 255 255 255
-154.04585 583.53589 -0.42427176 255 255 255
238.10445 46.797832 0.37622595 255 255 255
7757.7563 468.16354 9.1410713 255 255 255
4078.2122 593.36938 4.5334382 255 255 255
1270.8678 75.315247 1.6213537 255 255 255
2946.6418 181.79704 3.0276256 255 255 255
7454.5923 481.17874 8.7419348 255 255 255
763.8338 52.578323 0.77460706 255 255 255
2611.0137 1422.5779 5.2308288 255 255 255
1052.075 57.878963 1.8549638 255 255 255
1560.0658 462.90009 1.7308669 255 255 255
2030.6559 361.29272 2.9354801 255 255 255
23586.451 2118.5664 22.094955 255 255 255
-51699.363 -13153.815 -59.957539 255 255 255
928.13287 211.57269 1.2886909 255 255 255
31015.57 1580.2048 31.662319 255 255 255
6765.6709 392.65848 8.2167969 255 255 255
4274.8179 711.63898 4.5335684 255 255 255
5152.6929 335.68509 6.4908071 255 255 255
7222.8589 1266.4999 6.186408 255 255 255
1146.4186 234.7112 1.5176531 255 255 255
19620.949 1200.4077 20.20286 255 255 255
5571.0249 -158.4091 9.4353142 255 255 255
6387.9844 1620.1273 9.0822573 255 255 255
4416.6367 726.76282 4.6692324 255 255 255
8685.1104 2205.7947 13.054046 255 255 255
1557.4524 452.33038 1.7407855 255 255 255
-18821.934 1271.0865 -25.156284 255 255 255
-98.708023 586.72693 -0.42241263 255 255 255
-1207.5343 367.31647 -2.7782037 255 255 255
-12723.186 1320.1278 -28.327198 255 255 255
-2288.9199 -591.68298 -4.6277914 255 255 255
-124.19475 448.84082 -0.43574274 255 255 255
-1198.2283 365.10129 -2.767987 255 255 255
1006.2061 89.221237 1.019933 255 255 255
2232.1475 544.74963 2.0788472 255 255 255
-554.54095 -347.03268 -1.9017594 255 255 255
3428.8022 547.29999 3.7521653 255 255 255
1847.0544 626.75134 2.348552 255 255 255
-95.797096 396.83389 -0.48504475 255 255 255
4362.8525 1206.394 4.0393219 255 255 255
1368.7734 -13.072485 2.6920395 255 255 255
2720.78 727.91876 2.7580888 255 255 255
2211.5291 780.30743 3.0501773 255 255 255
1206.3354 338.10425 1.4902147 255 255 255
4306.811 872.56854 5.3056946 255 255 255
-1440.6254 307.08313 -3.5443492 255 255 255
-2078.6707 344.92059 -4.9969864 255 255 255
75031.227 12576.766 107.85101 255 255 255
23429.01 5143.8623 25.074642 255 255 255
-3442.8528 -55.712234 -7.781714 255 255 255
2880.5161 -15.541827 5.0433187 255 255 255
2785.9451 993.81427 2.5008185 255 255 255
-2263.1587 369.40417 -5.3068242 255 255 255
-2290.2368 372.13635 -5.3409905 255 255 255
4230.4126 707.03064 4.4974852 255 255 255
-11852.772 1309.1753 -16.276403 255 255 255
1164.2588 38.473122 1.4419794 255 255 255
-7577.4751 -3020.1116 -12.963971 255 255 255
929.50482 164.79384 1.0821389 255 255 255
-6236.8584 757.03088 -9.6041603 255 255 255
5791.1821 -166.0154 9.7701397 255 255 255
2523.9922 -418.77722 3.0843158 255 255 255
-116.13996 465.86429 -0.41819552 255 255 255
-992.42487 539.422 -2.1316681 255 255 255
-3223.3118 58.307983 -7.4592428 255 255 255
1049.3419 11.30013 2.0092409 255 255 255
1757.4348 666.80707 1.794575 255 255 255
1084.1366 244.19246 1.2642857 255 255 255
1781.3555 596.05859 1.90985 255 255 255
4196.2441 1116.3716 3.833322 255 255 255
1795.228 602.75244 1.9059566 255 255 255
-1306.9462 -481.1048 -2.6625097 255 255 255
3670.8984 -83.133156 6.1385665 255 255 255
2638.3357 664.92706 3.3399477 255 255 255
4043.9558 1166.6606 3.7320054 255 255 255
1292.2777 615.133 1.9848887 255 255 255
4426.1172 736.23328 4.6647887 255 255 255
3765.3674 551.96796 4.0285168 255 255 255
1750.6096 665.59833 1.7887003 255 255 255
876.19452 38.41996 1.6015935 255 255 255
4816.3789 324.10092 6.1212058 255 255 255
1567.0098 462.4393 1.7400459 255 255 255
29153.055 1514.2917 29.821621 255 255 255
2335.4119 330.73709 2.5422509 255 255 255
1581.6278 301.07077 1.8909773 255 255 255
4252.7173 17.503073 6.664093 255 255 255
1336.6124 41.58437 1.6318564 255 255 255
3215.124 1029.3033 2.8902819 255 255 255
-1457.7809 307.97723 -3.5833726 255 255 255
-2607.688 -10.20143 -6.1950479 255 255 255
862.5769 46.760464 1.5532568 255 255 255
1914.4215 657.04779 2.7589395 255 255 255
4862.4575 434.06747 5.8440914 255 255 255
3572.2446 855.21082 3.5167387 255 255 255
3753.0872 152.37933 4.4093909 255 255 255
2386.665 177.21954 2.3935454 255 255 255
1860.7056 537.95673 1.9635986 255 255 255
3877.0637 501.62143 4.4896488 255 255 255
-2217.55 366.44623 -5.1945348 255 255 255
3557.4827 604.81854 3.8007045 255 255 255
1593.6332 465.2377 1.7692059 255 255 255
-56.791016 406.9202 -0.44934788 255 255 255
-133.47861 352.30859 -0.35945123 255 255 255
-5905.6968 -4285.2568 -13.56701 255 255 255
1292.7891 172.71349 1.2864783 255 255 255
4897.7026 674.06915 10.839392 255 255 255
3595.4099 236.59201 4.8649464 255 255 255
3454.2036 775.07245 3.6138127 255 255 255
3888.1074 504.34119 4.4949841 255 255 255
3586.5383 210.578 4.9396758 255 255 255
-2711.8091 399.07425 -6.3956094 255 255 255
-184.2731 344.05981 -0.335536 255 255 255
2061.3894 834.14673 1.9664683 255 255 255
86.323364 19.241211 0.086967856 255 255 255
3918.1294 1267.5911 3.7670889 255 255 255
2664.9463 713.0152 3.9104419 255 255 255
4382.2012 709.90356 4.6590395 255 255 255
5953.9478 425.13113 7.1737356 255 255 255
-3518.8894 470.69763 -8.155736 255 255 255
-102738.7 8190.5708 -187.17937 255 255 255
2669.1003 -72.71978 5.1343851 255 255 255
21131.244 -894.02716 32.437717 255 255 255
-689.276 71.966469 -1.7265402 255 255 255
-136.81805 352.73483 -0.35592774 255 255 255
-4980.5488 643.06982 -9.4522429 255 255 255
6029.1851 411.12805 7.3010807 255 255 255
2617.8457 778.38702 2.5914857 255 255 255
976.03973 73.429329 1.5851537 255 255 255
-108.2133 313.59839 -0.44007322 255 255 255
-4943.9639 640.38104 -9.3684034 255 255 255
30371.141 1578.0902 30.98778 255 255 255
460.04733 47.800327 0.78858709 255 255 255
884.55267 142.1378 0.99147385 255 255 255
2543.6399 0.90973151 4.2335863 255 255 255
28700.955 1614.0477 29.051224 255 255 255
-120.54962 521.3042 -0.3862581 255 255 255
1467.6074 747.08337 1.139348 255 255 255
1324.0905 427.19247 1.5330597 255 255 255
4058.2959 601.23175 4.4946952 255 255 255
5226.8032 424.89978 6.301456 255 255 255
1809.2229 608.46838 2.1617625 255 255 255
-8223.0898 620.61456 -11.88403 255 255 255
-1325.553 -469.83276 -2.6741946 255 255 255
1347.3242 434.37692 1.5535195 255 255 255
6446.2939 -334.37045 11.650968 255 255 255
2071.5166 172.29816 2.1177936 255 255 255
6737.0254 331.67642 8.3991251 255 255 255
-162.21225 328.40991 -0.53115547 255 255 255
-869.26923 8.6958904 -1.8845152 255 255 255
14852.9 1162.3507 19.067535 255 255 255
4711.0659 401.22678 5.7557507 255 255 255
2779.9541 213.74124 3.4325421 255 255 255
-1102.4816 413.8392 -2.4720559 255 255 255
4867.1226 270.3313 6.3636889 255 255 255
-83123.391 -5781.7466 -127.17717 255 255 255
-1658.6024 137.00993 -2.756362 255 255 255
-1543.8563 -929.83575 -3.8991971 255 255 255
6964.0156 2215.9456 10.879514 255 255 255
-1473.3772 363.07651 -3.3238463 255 255 255
-1309.3542 -436.56378 -2.677907 255 255 255
4758.7534 298.69849 6.1329379 255 255 255
-166.09918 502.86838 -0.37979272 255 255 255
771.677 24.52953 1.440372 255 255 255
1850.1649 -48.84317 2.348691 255 255 255
-4231.7339 844.88892 -5.0756106 255 255 255
-6425.1592 -4693.2661 -14.440125 255 255 255
2016.0349 355.53555 2.4200702 255 255 255
3636.4709 464.43201 4.3114958 255 255 255
2220.4016 173.20676 2.4279447 255 255 255
3834.5408 166.08322 4.6506143 255 255 255
11009.785 -905.09381 24.012529 255 255 255
7602.9668 678.25848 8.370676 255 255 255
-6838.7056 790.75177 -10.564135 255 255 255
-1200.665 -398.38086 -3.0769649 255 255 255
4435.6348 351.70123 5.5613194 255 255 255
3415.2571 232.83719 4.2039428 255 255 255
3261.407 202.43385 3.4988983 255 255 255
4220.4282 2589.9231 7.0861549 255 255 255
624.81091 79.696304 0.75143605 255 255 255
4218.5327 167.15392 5.0761113 255 255 255
7535.6616 420.52469 9.0435419 255 255 255
6127.7544 1548.7246 5.9314971 255 255 255
809.52435 20.135118 1.5252358 255 255 255
4969.0278 389.86514 6.0944595 255 255 255
2009.7727 232.67059 1.9004283 255 255 255
1342.7327 432.69711 1.5498332 255 255 255
4204.2505 255.42935 5.138206 255 255 255
-169.74567 502.92746 -0.38233522 255 255 255
4649.3467 876.25751 4.6810207 255 255 255
-186.86227 507.08087 -0.39049879 255 255 255
2436.8591 142.99728 2.2717452 255 255 255
1929.5045 41.268497 3.3517697 255 255 255
3897.3621 165.00125 4.4117079 255 255 255
7618.1772 547.23718 8.7364054 255 255 255
727.72101 -171.51697 0.86099422 255 255 255
7983.0859 499.03848 9.3027887 255 255 255
2642.2915 127.64291 2.8029711 255 255 255
-39202.77 -9329.3486 -47.926735 255 255 255
9392.543 -549.9024 17.44488 255 255 255
982.96368 89.145164 0.99547344 255 255 255
5524.502 341.05295 6.9324336 255 255 255
104.40044 404.84659 -0.4334268 255 255 255
3361.4326 -205.72159 5.513411 255 255 255
4679.0161 332.84256 5.9224291 255 255 255
-1098.865 -42.013634 -3.3944161 255 255 255
-608.09296 28.2561 -1.9793921 255 255 255
1033.9532 182.26634 1.3511667 255 255 255
1461.1216 -254.48257 1.7083459 255 255 255
62012.008 -5130.043 123.17847 255 255 255
1675.1 49.758446 2.9146953 255 255 255
-157.86902 244.12094 -0.39049193 255 255 255
926.89911 592.96051 1.379158 255 255 255
-37565.832 2840.6021 -62.011456 255 255 255
5800.1675 -208.45738 10.155289 255 255 255
5261.6167 441.54691 6.3070936 255 255 255
3113.3577 962.37164 4.6150913 255 255 255
1470.3595 414.86035 1.8112434 255 255 255
25693.16 13096.759 37.68433 255 255 255
3589.9895 133.66672 4.2219748 255 255 255
5130.9209 413.93607 6.218472 255 255 255
6181.6519 816.04681 6.4676747 255 255 255
1816.8549 -192.57861 2.3931944 255 255 255
-85.393486 379.06995 -0.39948511 255 255 255
9601.0703 145.31569 12.536674 255 255 255
-88.339455 514.64264 -0.30620396 255 255 255
7614.9556 540.26721 8.7536068 255 255 255
-721.69086 -330.77686 -1.7371534 255 255 255
2720.5344 -109.20055 5.470058 255 255 255
1056.2015 57.680447 1.8656472 255 255 255
-11684.671 972.89435 -15.09034 255 255 255
4939.5396 1337.1381 4.7171803 255 255 255
8018.9053 293.59363 10.047137 255 255 255
4353.896 534.92633 5.5573821 255 255 255
-2731.5986 -880.03625 -4.270184 255 255 255
1284.2893 346.93793 1.3728819 255 255 255
5232.9819 289.5029 6.7469587 255 255 255
3055.929 -23.881376 4.1146364 255 255 255
-2416.9922 887.37305 -3.2122838 255 255 255
-1850.1658 -338.03665 -3.7981451 255 255 255
2990.4297 397.6712 3.0992165 255 255 255
10334.084 1379.7086 17.4062 255 255 255
-1484.2861 370.97592 -3.3113191 255 255 255
1334.313 367.19016 1.7431607 255 255 255
-723.44916 -350.93933 -2.2073283 255 255 255
2723.8184 985.33521 2.4409304 255 255 255
3887.9966 196.82428 5.3831396 255 255 255
-124.14508 265.47144 -0.53138822 255 255 255
5923.3257 414.87213 7.1589456 255 255 255
-19253.928 1937.3887 -43.386372 255 255 255
-7225.2241 812.53363 -13.56329 255 255 255
7025.8237 443.08026 8.36234 255 255 255
5749.2593 349.55548 7.1667094 255 255 255
2253.9978 346.04562 3.3344679 255 255 255
5559.6621 420.91962 6.7084217 255 255 255
-4312.2974 -287.74503 -4.5084519 255 255 255
-4158.8672 531.91766 -9.4860954 255 255 255
-611.07422 -313.62589 -1.8894962 255 255 255
-1398.5076 -480.29654 -2.7282324 255 255 255
3067.5117 879.90778 3.7516062 255 255 255
-170.78683 394.70078 -0.58717883 255 255 255
-15770.961 1394.0813 -26.64949 255 255 255
-1534.3748 -341.91748 -3.4445522 255 255 255
1248.0605 -133.9772 1.4617666 255 255 255
-1257.9174 294.23132 -3.1668975 255 255 255
-2196.4126 11.383089 -5.2204103 255 255 255
-132.29182 342.58624 -0.38425678 255 255 255
-16097.18 1419.7722 -27.219385 255 255 255
-1424.3147 -483.89032 -2.7689548 255 255 255
25518.674 3263.8169 27.772921 255 255 255
3855.0071 414.86099 4.66539 255 255 255
5974.7227 -267.4408 10.874688 255 255 255
5873.7168 -178.44212 9.9678202 255 255 255
-82359.258 -6191.5503 -112.33081 255 255 255
4577.5942 256.69028 6.0492945 255 255 255
11228.227 2213.5293 13.663544 255 255 255
1844.7061 140.38425 1.8485883 255 255 255
-3788.8962 -519.39783 -6.4467573 255 255 255
-3940.2925 916.52649 -4.5067301 255 255 255
-2741.5955 -17.294064 -4.7644496 255 255 255
3836.3723 -152.67552 7.3332 255 255 255
1807.0502 578.32074 2.4636979 255 255 255
6652.2866 488.66763 7.7884302 255 255 255
-5598.2319 691.32568 -10.47169 255 255 255
-1086.7693 -727.96826 -2.7856321 255 255 255
-2717.1899 -164.5775 -3.9391925 255 255 255
